# .PCD v0.7 - Point Cloud Data file format
VERSION 0.7
FIELDS x y z intensity
SIZE 4 4 4 4
TYPE F F F F
COUNT 1 1 1 1
WIDTH 1582
HEIGHT 1
VIEWPOINT 0 0 0 1 0 0 0
POINTS 1582
DATA ascii
-1.63439 -2.21679 -0.728101 49
-1.10071 -2.23379 -0.56602 49
-3.31481 -4.46088 1.27298 4
-2.71858 -5.49442 1.63102 14
-2.73818 -5.50998 1.18815 18
-2.74407 -5.5026 0.749648 21
-1.22449 -1.6499 0.0352539 11
-1.12145 -2.23857 0.129401 44
-1.16697 -1.57136 -0.101082 14
-1.12246 -2.23864 -0.0431074 45
-1.12402 -2.24173 -0.215932 45
-1.12072 -2.23898 -0.391517 47
-1.64703 -2.21043 -0.728748 49
-1.11347 -2.23018 -0.566581 47
-3.31676 -4.44727 1.27074 4
-2.7389 -5.5113 1.63748 14
-2.75751 -5.52228 1.19196 18
-2.77142 -5.53332 0.754516 21
-1.2172 -1.63353 0.0349484 11
-1.1276 -2.24107 0.129662 44
-1.16822 -1.56732 -0.100951 14
-1.12972 -2.24338 -0.0432383 45
-1.13016 -2.24422 -0.216367 49
-1.12573 -2.23923 -0.391909 47
-1.65707 -2.21499 -0.731334 50
-1.11954 -2.23259 -0.567704 47
-2.77519 -5.50935 1.64136 14
-2.80298 -5.54063 1.19911 15
-2.84842 -5.61121 0.767294 33
-1.22874 -1.63112 0.0350357 11
-1.14083 -2.23717 0.129793 44
-1.17491 -1.55919 -0.10082 15
-1.14185 -2.23724 -0.0432383 47
-1.14528 -2.24494 -0.21702 49
-1.13856 -2.2355 -0.3923 47
-1.67156 -2.21014 -0.732627 49
-1.1327 -2.22868 -0.568266 47
-2.81745 -5.56917 1.66075 14
-2.85704 -5.62328 1.21817 21
-2.84935 -5.59125 0.765164 26
-1.22857 -1.62499 0.0349484 11
-1.14661 -2.23982 0.130055 44
-1.1716 -1.54918 -0.100295 15
-1.14689 -2.23747 -0.043282 45
-1.15033 -2.24515 -0.217237 49
-1.14358 -2.23571 -0.392692 47
-1.1384 -2.23124 -0.569389 47
-2.86759 -5.59785 1.67367 15
-2.86753 -5.57382 1.21055 18
-2.86495 -5.54978 0.761513 23
-1.23678 -1.61875 0.0349484 11
-1.15833 -2.23379 0.130055 44
-1.17942 -1.54323 -0.100295 15
-1.15934 -2.23385 -0.0433256 45
-1.1651 -2.24594 -0.21789 47
-1.15714 -2.23429 -0.393475 47
-1.1523 -2.22958 -0.570512 47
-2.85971 -5.55846 1.66333 14
-2.86938 -5.55354 1.20721 15
-2.86113 -5.52103 0.758167 21
-1.24265 -1.62055 0.0350357 11
-1.16528 -2.23861 0.130447 44
-1.18212 -1.54117 -0.100295 15
-1.16784 -2.2407 -0.0435001 45
-1.1756 -1.53159 -0.23244 24
-1.16902 -2.2439 -0.21789 47
-1.15924 -1.50869 -0.362362 17
-1.16104 -2.23226 -0.393475 45
-1.15692 -2.22993 -0.571073 47
-2.88892 -5.54606 1.66398 14
-2.88723 -5.51936 1.20292 15
-2.88424 -5.49498 0.756646 21
-1.2539 -1.61819 0.035123 11
-1.17814 -2.23469 0.130578 44
-1.19602 -1.54305 -0.10082 14
-1.17917 -2.23476 -0.0435001 45
-1.17904 -1.51954 -0.231527 18
-1.18152 -2.24016 -0.218107 45
-1.16084 -1.49505 -0.360458 18
-1.17615 -2.23271 -0.394649 45
-1.17084 -2.22816 -0.572196 47
-2.88406 -5.51318 1.65558 14
-2.89458 -5.50997 1.20197 15
-2.91578 -5.53167 0.762426 21
-1.2644 -1.62586 0.0353411 11
-1.18553 -2.23926 0.130971 44
-1.19872 -1.54096 -0.10082 14
-1.1854 -2.23712 -0.0435874 44
-1.18627 -1.52335 -0.23244 15
-1.18775 -2.2425 -0.218542 45
-1.15892 -1.48722 -0.359029 20
-1.18005 -2.23066 -0.394649 45
-1.17699 -2.23043 -0.573319 47
-2.92305 -5.51721 1.66139 14
-3.03159 -5.69848 1.24677 14
-1.72392 -2.19295 0.240986 12
-3.02988 -5.67619 0.784636 15
-1.27599 -1.62315 0.0354284 11
-1.19959 -2.23742 0.131232 44
-1.20858 -1.53642 -0.100951 14
-1.19828 -2.23309 -0.043631 45
-1.19884 -1.52296 -0.233352 14
-1.20104 -2.23824 -0.218759 47
-1.16061 -1.47342 -0.357124 17
-1.1952 -2.23098 -0.395824 45
-1.19094 -2.22853 -0.574442 45
-3.03688 -5.70833 1.72084 20
-3.03328 -5.67533 1.24296 15
-1.737 -2.20167 0.242293 12
-3.0152 -5.62495 0.778247 15
-1.2853 -1.62854 0.0356029 11
-1.20468 -2.23753 0.131363 44
-1.21745 -1.54214 -0.101476 14
-1.20217 -2.23099 -0.043631 44
-1.19841 -1.51698 -0.232744 14
-1.20612 -2.23834 -0.218977 47
-1.15861 -1.46562 -0.355696 17
-1.20258 -2.23542 -0.396998 44
-1.19368 -2.2243 -0.573881 44
-3.04942 -5.65779 1.7105 14
-3.04429 -5.62482 1.23533 17
-3.04795 -5.61291 0.778855 33
-1.29381 -1.62179 0.0356029 11
-1.21915 -2.23537 0.131625 44
-1.23019 -1.54159 -0.10187 14
-1.21542 -2.22665 -0.0436746 44
-1.21125 -1.51628 -0.233657 14
-1.21783 -2.23199 -0.218977 44
-1.15732 -1.44784 -0.352839 15
-1.21466 -2.22888 -0.396998 45
-1.20802 -2.2221 -0.575004 45
-3.04666 -5.62909 1.7034 24
-3.05527 -5.62166 1.23581 33
-3.06249 -5.6163 0.780072 35
-1.30289 -1.62733 0.0357774 11
-1.22305 -2.23323 0.131625 44
-1.23288 -1.53945 -0.10187 14
-1.22289 -2.23111 -0.0438055 44
-1.22011 -1.52191 -0.234873 14
-1.22411 -2.23423 -0.219412 44
-1.15369 -1.43816 -0.350934 15
-1.22209 -2.23327 -0.398173 44
-1.21538 -2.22641 -0.576689 45
-3.07725 -5.61518 1.70404 32
-3.09057 -5.61634 1.23819 36
-3.09066 -5.59802 0.779768 21
-1.3114 -1.62048 0.0357774 11
-1.23714 -2.23117 0.131887 44
-1.25507 -1.55042 -0.103051 14
-1.23577 -2.22687 -0.0438492 44
-1.22963 -1.51742 -0.235178 14
-1.2382 -2.23215 -0.219847 44
-1.15657 -1.42639 -0.349506 15
-1.23377 -2.22684 -0.398173 44
-1.22937 -2.22428 -0.577812 45
-3.09286 -5.62038 1.70727 30
-3.09682 -5.60449 1.23676 20
-3.10763 -5.60564 0.781593 33
-1.31895 -1.62401 0.0359083 12
-1.24224 -2.23119 0.132017 44
-1.26092 -1.5521 -0.103314 14
-1.24087 -2.22689 -0.0438928 44
-1.23227 -1.51528 -0.235178 14
-1.24571 -2.23652 -0.220499 44
-1.14975 -1.41295 -0.346649 15
-1.24244 -2.23332 -0.399739 44
-1.23561 -2.2264 -0.578935 45
-3.12811 -5.61466 1.7105 27
-3.13928 -5.61177 1.242 32
-3.14543 -5.60445 0.783723 32
-1.33061 -1.62094 0.0359956 12
-1.25635 -2.22901 0.132279 44
-1.27379 -1.55126 -0.103708 14
-1.25618 -2.2269 -0.0440237 44
-1.24965 -1.5203 -0.237003 14
-1.25863 -2.23214 -0.220716 44
-1.15557 -1.40502 -0.346173 15
-1.25532 -2.22894 -0.40013 44
-1.24963 -2.22415 -0.580058 45
-3.1438 -5.61974 1.71373 32
-3.15627 -5.61912 1.24486 32
-3.16129 -5.60976 0.785244 33
-1.34298 -1.63019 0.0362574 12
-1.26269 -2.23117 0.132541 45
-1.28603 -1.56059 -0.104495 14
-1.26252 -2.22906 -0.044111 44
-1.25072 -1.5162 -0.236699 14
-1.26497 -2.23428 -0.221151 44
-1.15646 -1.40111 -0.345696 14
-1.26406 -2.23535 -0.401697 44
-1.25589 -2.22621 -0.581181 45
-3.17437 -5.6053 1.71438 32
-3.19413 -5.61746 1.2482 32
-3.19799 -5.60607 0.78707 32
-1.3563 -1.62889 0.0363883 12
-1.27559 -2.22669 0.132672 44
-1.30085 -1.56128 -0.105021 14
-1.27789 -2.22893 -0.0442418 44
-1.26819 -1.52106 -0.238524 14
-1.2795 -2.23173 -0.221586 44
-1.16221 -1.39315 -0.34522 14
-1.27575 -2.2287 -0.401697 44
-1.26873 -2.22173 -0.581742 45
-4.56525 -5.45637 1.6318 12
-3.1901 -5.61025 1.71761 30
-4.55815 -5.4498 1.11721 11
-3.20613 -5.61345 1.24868 32
-3.209 -5.60263 0.787374 32
-1.36424 -1.63204 0.0365192 12
-1.28196 -2.2288 0.132933 44
-1.31159 -1.56858 -0.105677 14
-1.28178 -2.2267 -0.0442418 44
-1.27403 -1.52265 -0.239133 14
-1.28711 -2.23598 -0.222239 44
-1.1599 -1.38548 -0.343792 12
-1.28331 -2.2329 -0.402871 44
-1.84492 -2.19855 -0.759139 11
-1.27623 -2.22585 -0.583427 44
-4.6372 -5.4818 1.64696 9
-3.22402 -5.59919 1.71955 29
-4.65774 -5.50801 1.13438 12
-3.24651 -5.61571 1.25297 33
-4.65625 -5.50818 0.627957 14
-3.24797 -5.60022 0.789503 32
-1.38407 -1.63823 0.0368246 12
-1.29525 -2.22399 0.133064 42
-1.32301 -1.5655 -0.105939 14
-1.29883 -2.22838 -0.0444164 44
-1.29187 -1.52709 -0.240958 14
-1.2988 -2.22921 -0.222239 44
-1.16104 -1.37169 -0.341887 14
-1.29622 -2.22829 -0.403263 44
-1.86578 -2.19991 -0.763019 9
-1.2907 -2.22314 -0.58455 44
-4.67734 -5.51165 1.65819 11
-3.24465 -5.61238 1.72537 30
-4.67758 -5.51387 1.13711 12
-3.25385 -5.60579 1.25201 32
-4.6723 -5.50764 0.628829 14
-3.24429 -5.57366 0.786461 27
-1.38693 -1.63581 0.0368246 12
-1.30251 -2.22842 0.133457 44
-1.32897 -1.56699 -0.106202 14
-1.30397 -2.22827 -0.04446 44
-1.29909 -1.53073 -0.241871 14
-1.3052 -2.23124 -0.222674 44
-1.15866 -1.36406 -0.340459 14
-1.30135 -2.22815 -0.403654 44
-1.86962 -2.19665 -0.763019 8
-1.29663 -2.22532 -0.585673 44
-4.71406 -5.49633 1.661 11
-3.28033 -5.6084 1.72924 29
-4.70477 -5.48742 1.13672 12
-3.28714 -5.59772 1.25392 14
-4.68715 -5.46879 0.627086 12
-3.27972 -5.56729 0.787982 2
-1.39681 -1.63067 0.0368682 12
-1.31796 -2.22803 0.133849 45
-1.34204 -1.5657 -0.106596 14
-1.31651 -2.22379 -0.0445036 44
-1.3184 -1.53709 -0.244001 14
-1.31939 -2.22867 -0.223109 44
-1.16715 -1.36004 -0.340935 14
-1.31676 -2.22769 -0.404829 44
-1.88386 -2.19082 -0.764312 9
-1.30827 -2.2185 -0.585673 44
-4.72206 -5.48625 1.66044 11
-3.28278 -5.59017 1.72537 8
-4.7079 -5.47172 1.13516 12
-3.29789 -5.5914 1.25392 1
-4.69019 -5.45305 0.626214 12
-3.27934 -5.54446 0.785548 1
-1.41136 -1.64124 0.0371736 12
-1.32566 -2.23217 0.134242 45
-1.34803 -1.56714 -0.106858 14
-1.32293 -2.22579 -0.0445909 42
-1.32756 -1.5423 -0.245218 14
-1.32455 -2.2285 -0.223326 44
-1.16311 -1.35056 -0.33903 12
-1.32064 -2.22539 -0.404829 42
-1.8928 -2.19268 -0.766252 9
-1.31708 -2.22461 -0.587919 44
-4.75327 -5.46246 1.661 11
-3.27723 -5.5121 1.70663 1
-4.74716 -5.45734 1.1375 11
-3.3334 -5.5846 1.2563 1
-4.7327 -5.44263 0.627957 12
-3.24818 -5.42441 0.770945 1
-1.41993 -1.63383 0.0371736 12
-1.339 -2.2271 0.134373 44
-1.35785 -1.56194 -0.10699 15
-1.33881 -2.22504 -0.0447218 42
-1.34078 -1.54071 -0.24613 14
-1.34132 -2.23008 -0.224196 42
-1.16556 -1.3387 -0.337602 14
-1.33735 -2.22692 -0.406395 42
-1.90267 -2.18092 -0.765605 11
-1.3316 -2.22163 -0.589042 44
-4.76505 -5.45865 1.66212 11
-3.31157 -5.54786 1.71955 2
-4.75735 -5.45174 1.13789 11
-3.34566 -5.58298 1.25726 2
-4.74056 -5.43248 0.627739 12
-3.31159 -5.5108 0.784027 2
-1.42772 -1.637 0.0373045 12
-1.34764 -2.23356 0.134896 44
-1.36879 -1.56897 -0.107646 14
-1.34527 -2.22698 -0.0448091 42
-1.35137 -1.54794 -0.247652 14
-1.34649 -2.22987 -0.224413 42
-1.16466 -1.33297 -0.336649 12
-1.34504 -2.23094 -0.407569 42
-1.90329 -2.17396 -0.764312 11
-1.33759 -2.22372 -0.590165 44
-4.79196 -5.4318 1.66156 8
-3.33587 -5.52483 1.71761 14
-4.78747 -5.42861 1.13828 8
-3.3726 -5.56388 1.25678 2
-4.79929 -5.44391 0.631879 8
-3.38933 -5.57398 0.795588 11
-1.4426 -1.63725 0.037479 12
-1.35931 -2.22647 0.134896 42
-1.38167 -1.56764 -0.10804 14
-1.35912 -2.22441 -0.0448963 42
-1.35945 -1.54085 -0.247652 14
-1.36164 -2.22941 -0.225066 42
-1.35799 -2.22597 -0.407961 42
-1.91587 -2.16611 -0.764959 12
-1.35174 -2.22085 -0.591288 45
-4.79725 -5.42062 1.66044 4
-3.328 -5.49007 1.70856 14
-4.81494 -5.44058 1.14258 4
-3.40142 -5.58944 1.26393 11
-4.83354 -5.4635 0.635147 8
-3.38355 -5.54263 0.791937 12
-1.44877 -1.63847 0.0375663 12
-1.3658 -2.22836 0.135158 42
-1.38771 -1.56896 -0.108302 14
-1.36821 -2.23057 -0.0450708 42
-1.36872 -1.5459 -0.248869 14
-1.36553 -2.22703 -0.225066 42
-1.36444 -2.22782 -0.408744 42
-1.92446 -2.16818 -0.766899 11
-1.35561 -2.21849 -0.591288 44
-4.88338 -5.45812 1.68009 3
-3.34031 -5.44579 1.70016 12
-4.92733 -5.50915 1.16248 8
-3.41265 -5.54229 1.25726 11
-4.92186 -5.50494 0.642991 9
-3.3995 -5.50372 0.788895 12
-1.45733 -1.63086 0.0375663 12
-1.38007 -2.22542 0.135419 42
-1.40784 -1.57445 -0.109221 14
-1.37856 -2.22125 -0.0450272 42
-1.38177 -1.54425 -0.249781 14
-1.38018 -2.22385 -0.2255 42
-1.37609 -2.22064 -0.408744 42
-1.3736 -2.22173 -0.594096 45
-4.98568 -5.55289 1.7121 12
-3.32325 -5.39675 1.68659 12
-4.97324 -5.54096 1.17106 11
-3.40524 -5.50649 1.25058 12
-4.9797 -5.55009 0.64931 11
-3.40127 -5.48512 0.78707 14
-1.46547 -1.63364 0.0376972 12
-1.38395 -2.22301 0.135419 41
-1.41225 -1.57385 -0.109353 14
-1.38639 -2.22521 -0.0451581 41
-1.39441 -1.55291 -0.251607 14
-1.38931 -2.2299 -0.22637 42
-1.38516 -2.22663 -0.41031 42
-1.37491 -2.21519 -0.592973 44
-5.01729 -5.52764 1.71266 11
-3.33326 -5.34793 1.6769 11
-5.02804 -5.5414 1.17692 11
-3.44182 -5.50107 1.25344 12
-5.01802 -5.53229 0.6504 11
-3.43089 -5.46664 0.78707 12
-1.47736 -1.62965 0.0377845 12
-1.39994 -2.22184 0.135812 38
-1.42383 -1.57013 -0.109615 14
-1.40107 -2.22191 -0.0452454 41
-1.40447 -1.54718 -0.251911 14
-1.40229 -2.22471 -0.226588 42
-1.39943 -2.22353 -0.411093 42
-1.39334 -2.21804 -0.59578 44
-5.04237 -5.53776 1.71827 12
-3.32212 -5.30933 1.66656 11
-5.04172 -5.53897 1.17809 11
-3.51269 -5.59278 1.27584 11
-5.03438 -5.53089 0.651271 11
-3.51608 -5.58308 0.804715 12
-1.47852 -1.62522 0.0377408 12
-1.40609 -2.22386 0.136073 36
-1.42657 -1.56764 -0.109615 14
-1.40761 -2.22369 -0.0453326 41
-1.41016 -2.22858 -0.22724 42
-1.40725 -2.22736 -0.412268 42
-1.39682 -2.21585 -0.59578 44
-5.0845 -5.52562 1.72277 9
-3.32444 -5.25366 1.65428 11
-5.09239 -5.53612 1.18316 11
-3.5449 -5.58115 1.27727 12
-5.08591 -5.531 0.654322 11
-3.53994 -5.55622 0.803499 12
-1.4918 -1.62323 0.0378717 12
-1.41906 -2.21857 0.136204 33
-1.44321 -1.56933 -0.110272 14
-1.42288 -2.22286 -0.0454635 41
-1.42449 -2.22536 -0.227675 42
-1.42022 -2.22204 -0.412659 41
-1.41101 -2.21262 -0.596904 44
-5.11728 -5.5418 1.73063 9
-3.31809 -5.22337 1.64653 11
-5.11378 -5.53993 1.18589 11
-3.54902 -5.56398 1.27489 9
-5.10907 -5.53675 0.656065 11
-3.54162 -5.53748 0.801673 9
-1.50509 -1.63138 0.0381335 12
-1.42562 -2.2203 0.136466 30
-1.44595 -1.56681 -0.110272 14
-1.4281 -2.22248 -0.0455071 41
-1.43105 -2.22707 -0.22811 42
-1.42543 -2.22164 -0.413051 42
-1.42011 -2.21837 -0.59915 44
-5.16049 -5.52827 1.73512 9
-3.32543 -5.17282 1.63619 11
-5.16053 -5.53023 1.18979 9
-3.57278 -5.53707 1.27298 9
-5.16104 -5.5327 0.658897 11
-3.56884 -5.51407 0.801065 9
-1.51532 -1.62531 0.0381771 12
-1.44439 -2.22303 0.13712 30
-1.46095 -1.56652 -0.110797 14
-1.44282 -2.21892 -0.0455944 41
-1.44811 -2.22791 -0.22898 42
-1.43972 -2.21829 -0.413834 42
-1.43341 -2.2127 -0.599711 44
-5.18082 -5.5326 1.73905 11
-3.31484 -5.13656 1.6265 11
-5.19284 -5.54735 1.19526 11
-3.57845 -5.52464 1.27155 4
-5.1741 -5.52732 0.659333 4
-3.57074 -5.49805 0.799543 8
-1.52499 -1.62996 0.0383517 12
-1.44516 -2.21657 0.136859 26
-1.45515 -1.55485 -0.11014 14
-1.45078 -2.22268 -0.0457253 41
-1.45064 -2.22329 -0.228762 42
-1.44359 -2.21578 -0.413834 42
-1.44218 -2.21863 -0.601957 44
-5.2114 -5.50717 1.73961 1
-3.32234 -5.09138 1.61745 11
-5.24897 -5.54878 1.2015 1
-3.59427 -5.48797 1.26726 4
-5.19003 -5.4884 0.657808 9
-3.59812 -5.4772 0.799239 8
-1.46086 -2.21524 0.137251 24
-1.46476 -2.21949 -0.0458126 41
-1.46461 -2.22008 -0.229197 42
-1.45749 -2.21257 -0.414617 42
-1.45512 -2.21308 -0.602519 44
-5.22172 -5.50074 1.74017 8
-3.31536 -5.06132 1.6097 11
-5.21007 -5.49038 1.19057 9
-3.61327 -5.49605 1.2706 4
-5.19102 -5.4703 0.656718 9
-3.67629 -5.57726 0.814755 9
-1.46709 -2.21711 0.137513 21
-1.47276 -2.22319 -0.0459435 42
-1.47396 -2.22584 -0.230067 42
-1.46271 -2.21209 -0.415008 42
-1.4626 -2.2169 -0.604203 44
-5.22515 -5.44696 1.73175 9
-3.31962 -5.01224 1.59936 11
-5.22507 -5.44877 1.18745 11
-3.71297 -5.58607 1.29586 4
-3.70819 -5.56206 0.815364 9
-1.48283 -2.21563 0.137905 18
-1.48677 -2.21986 -0.0460307 41
-1.48659 -2.22042 -0.230285 42
-1.18149 -1.23105 -0.324269 14
-1.47975 -2.21262 -0.416574 42
-1.47824 -2.2153 -0.605888 44
-3.30967 -4.97827 1.59031 11
-3.72135 -5.57754 1.29538 4
-3.72065 -5.55971 0.815972 8
-1.48531 -2.21096 0.137774 15
-1.49203 -2.21934 -0.0460743 41
-1.49324 -2.22196 -0.230719 42
-1.17512 -1.22016 -0.321888 14
-1.48635 -2.21414 -0.417357 41
-1.48345 -2.21474 -0.606449 44
-3.31416 -4.92879 1.57997 11
-3.74639 -5.55187 1.29395 4
-3.74416 -5.53193 0.814755 8
-1.50246 -2.21142 0.138298 15
-1.50503 -2.21357 -0.046118 41
-1.50764 -2.21824 -0.231154 42
-1.18149 -1.21399 -0.321888 12
-1.50069 -2.21041 -0.41814 41
-1.49912 -2.213 -0.608134 44
-3.30521 -4.89696 1.57157 11
-3.7492 -5.53516 1.29157 8
-3.74823 -5.51717 0.813538 8
-1.50632 -2.2088 0.138298 15
-1.5117 -2.21507 -0.0462052 41
-1.51291 -2.21766 -0.231372 41
-1.18704 -1.21543 -0.32284 11
-1.50871 -2.21392 -0.419315 41
-1.50434 -2.2124 -0.608696 42
-3.21653 -3.26148 1.04781 2
-3.31449 -4.85564 1.56382 11
-3.22137 -3.26751 0.719573 2
-3.77675 -5.51343 1.29109 4
-3.22193 -3.26921 0.39852 4
-3.75601 -5.46678 0.808975 8
-2.1406 -2.17192 0.052619 36
-1.52634 -2.21323 0.139083 14
-1.52611 -2.21125 -0.0462925 41
-1.52874 -2.21587 -0.232024 41
-1.19166 -1.20746 -0.322364 9
-1.52308 -2.21006 -0.420098 41
-1.51866 -2.20851 -0.609819 42
-3.22507 -3.25989 1.04893 3
-3.30114 -4.81795 1.55348 12
-3.22012 -3.25487 0.718013 8
-3.76831 -5.48053 1.2849 4
-3.20836 -3.24411 0.396123 12
-3.81621 -5.53379 0.819928 8
-2.16901 -2.19305 0.0532298 39
-1.53446 -2.21673 0.139475 14
-1.53543 -2.2173 -0.232459 41
-1.19204 -1.20363 -0.321888 9
-1.53254 -2.21553 -0.421664 41
-1.52527 -2.20987 -0.610942 42
-3.23749 -3.23723 1.04725 3
-3.30709 -4.77279 1.54443 11
-3.18298 -3.18384 0.705916 1
-3.83474 -5.51515 1.29777 4
-3.23587 -3.23783 0.39743 8
-3.86924 -5.54835 0.8251 9
-2.18753 -2.18873 0.0534044 39
-1.54319 -2.20457 0.139214 12
-1.55025 -2.21304 -0.232894 41
-1.19832 -1.19737 -0.321888 8
-1.54694 -2.21153 -0.422447 41
-1.54656 -2.21586 -0.614872 44
-3.29614 -4.73924 1.53538 11
-3.89023 -5.5722 1.31302 8
-3.87465 -5.53548 0.824187 9
-2.19882 -2.19158 0.0535789 39
-1.5499 -2.20596 0.139475 12
-1.55697 -2.21441 -0.233329 41
-1.20737 -1.2022 -0.323793 8
-1.55504 -2.2149 -0.423622 41
-1.54903 -2.21116 -0.614311 42
-3.30091 -4.69169 1.52569 12
-3.90945 -5.53772 1.30968 8
-3.91027 -5.52255 0.825404 9
-2.21916 -2.18881 0.053797 39
-1.56036 -2.1955 0.139344 11
-1.55206 -1.52929 -0.262864 15
-1.57286 -2.21233 -0.233981 41
-1.21036 -1.19221 -0.32284 8
-1.56518 -2.20872 -0.615995 42
-5.50437 -5.40733 1.7705 12
-3.291 -4.66026 1.51729 12
-5.48929 -5.39251 1.21048 12
-3.91486 -5.52487 1.30825 8
-5.48892 -5.39401 0.670228 14
-3.90555 -5.49548 0.822361 8
-2.22833 -2.19019 0.0539279 38
-1.56853 -2.19888 0.139737 11
-1.56181 -1.53352 -0.264081 15
-1.21595 -1.19353 -0.323793 4
-1.57467 -2.21393 -0.618242 44
-5.61218 -5.45386 1.79576 11
-3.29994 -4.62134 1.51018 12
-5.60777 -5.45146 1.23038 11
-3.93802 -5.49632 1.30634 4
-5.61531 -5.46068 0.682212 12
-3.92704 -5.46487 0.82084 8
-2.24694 -2.18546 0.0541025 38
-1.58294 -2.19469 0.139999 9
-1.17261 -1.62247 -0.0343376 11
-1.57516 -1.53051 -0.264993 15
-1.22042 -1.18544 -0.323317 8
-1.59334 -2.21556 -0.621049 45
-5.65049 -5.47384 1.80531 12
-3.29255 -4.59396 1.50307 11
-5.65807 -5.48117 1.23935 12
-3.93043 -5.46551 1.30063 3
-5.53897 -5.36769 0.671753 1
-2.25793 -2.18849 0.054277 38
-1.59115 -2.198 0.140391 9
-1.16227 -1.60218 -0.0339449 12
-1.57961 -1.52948 -0.265298 15
-1.22778 -1.18842 -0.324745 8
-1.59578 -2.2108 -0.620488 42
-5.69409 -5.45667 1.8098 12
-3.3024 -4.55709 1.49661 11
-5.6867 -5.45147 1.23935 12
-5.68026 -5.44719 0.68548 14
-2.27658 -2.18356 0.0544515 38
-1.60999 -2.19973 0.141045 8
-1.17359 -1.60011 -0.0340322 12
-1.59119 -1.52462 -0.265906 15
-1.24285 -1.19046 -0.327126 8
-1.61449 -2.21226 -0.623295 44
-5.70537 -5.44841 1.81036 12
-3.29758 -4.53373 1.49079 4
-5.69084 -5.43642 1.23818 12
-5.69156 -5.43899 0.685698 14
-2.28619 -2.18436 0.0545824 36
-1.61825 -2.20296 0.141438 4
-1.17491 -1.59605 -0.0339886 12
-1.59744 -1.52527 -0.266514 14
-1.24315 -1.1866 -0.32665 8
-1.61979 -2.21141 -0.623857 44
-5.73122 -5.41411 1.80924 12
-3.3092 -4.49831 1.48498 4
-5.72915 -5.41403 1.24013 12
-5.72453 -5.41154 0.686134 12
-3.29739 -4.45297 0.675109 1
-2.30487 -2.17922 0.0547569 36
-1.62717 -2.19016 0.141176 3
-1.18055 -1.58565 -0.0339013 14
-1.16867 -1.57016 -0.167875 12
-1.2567 -1.18659 -0.328554 9
-1.15631 -1.5557 -0.30186 12
-1.63607 -2.20849 -0.625541 44
-5.74327 -5.40844 1.81036 11
-3.30701 -4.47892 1.48045 1
-5.73945 -5.40672 1.24052 11
-5.73034 -5.39812 0.685698 12
-3.29847 -4.43982 0.673892 1
-2.32323 -2.18891 0.055106 36
-1.63657 -2.19562 0.1417 3
-1.18332 -1.58359 -0.0339013 14
-1.16695 -1.56212 -0.167223 14
-1.25519 -1.18103 -0.327602 8
-1.15608 -1.54972 -0.301077 14
-2.27543 -2.13647 -0.826388 11
-1.63954 -2.20592 -0.625541 41
-5.77507 -5.38162 1.81149 9
-3.30944 -4.435 1.47141 3
-5.7731 -5.38164 1.24169 9
-5.78127 -5.39113 0.68853 8
-2.34159 -2.18393 0.0552805 36
-1.65404 -2.195 0.142223 3
-1.19282 -1.57958 -0.0339449 14
-1.26295 -1.17633 -0.328078 9
-1.16566 -1.54562 -0.301468 14
-2.27029 -2.11014 -0.820569 8
-1.65982 -2.20901 -0.628911 42
-5.84422 -5.4289 1.83058 8
-3.28537 -4.38667 1.45719 14
-5.88924 -5.4707 1.26472 9
-5.88008 -5.46408 0.699207 11
-2.35639 -2.19005 0.0555423 36
-1.66538 -2.20208 0.142877 2
-0.719968 -0.670224 -0.0498847 30
-1.19557 -1.57749 -0.0339449 14
-1.2632 -1.17246 -0.327602 9
-1.16836 -1.54358 -0.301468 14
-2.2651 -2.09797 -0.817335 8
-1.66514 -2.20805 -0.629472 42
-5.91835 -5.4384 1.84462 9
-3.29373 -4.35014 1.45073 14
-5.91599 -5.43812 1.26433 9
-5.90494 -5.42985 0.698771 11
-2.37519 -2.18445 0.0557168 36
-1.67688 -2.19333 0.142877 2
-0.721629 -0.664756 -0.0497535 30
-1.20685 -1.57519 -0.0340322 14
-1.15246 -1.50438 -0.162439 3
-1.27656 -1.17246 -0.329507 9
-1.17792 -1.53941 -0.30186 15
-2.27784 -2.08771 -0.817982 8
-1.68257 -2.20706 -0.631718 42
-5.93587 -5.43733 1.84742 9
-3.28818 -4.32706 1.44491 14
-5.92183 -5.42445 1.26355 9
-5.92359 -5.42795 0.699861 9
-2.38084 -2.18199 0.0557604 36
-0.717263 -0.658438 -0.0493596 29
-1.21263 -1.57705 -0.0341195 14
-1.14904 -1.49445 -0.161569 3
-1.27679 -1.16858 -0.329031 11
-1.17911 -1.53539 -0.301468 14
-2.28861 -2.09024 -0.820569 4
-5.95437 -5.39532 1.84406 9
-5.94832 -5.39171 1.26316 9
-5.9427 -5.38849 0.698771 9
-2.40334 -2.17956 0.0560222 36
-0.717114 -0.651197 -0.0490971 30
-1.2224 -1.57265 -0.0341631 14
-2.40409 -2.17719 -0.393383 35
-1.14034 -1.46654 -0.159177 3
-1.28653 -1.16517 -0.329983 9
-1.19015 -1.5331 -0.302251 14
-2.29236 -2.07176 -0.817982 8
-5.9674 -5.38818 1.84518 9
-5.94855 -5.37304 1.2612 9
-5.93916 -5.36643 0.697246 8
-2.4168 -2.18332 0.0562404 35
-0.712689 -0.644927 -0.0487033 32
-1.22821 -1.57447 -0.0342503 14
-2.4171 -2.1813 -0.394904 36
-1.13832 -1.45865 -0.158524 3
-1.28856 -1.16292 -0.329983 11
-1.19282 -1.53102 -0.302251 14
-2.30172 -2.0722 -0.819922 4
-5.98306 -5.34571 1.26238 3
-2.43566 -2.17729 0.0564149 35
-0.721642 -0.646174 -0.0490971 32
-1.24443 -1.57763 -0.0344685 14
-2.43998 -2.1781 -0.396729 36
-1.14133 -1.44679 -0.157872 3
-1.2985 -1.1592 -0.330935 11
-1.20539 -1.53058 -0.303426 14
-2.31253 -2.06012 -0.819922 4
-2.44506 -2.17802 0.0565458 35
-0.713443 -0.636616 -0.0484407 32
-1.25337 -1.58331 -0.034643 14
-2.44896 -2.17921 -0.397642 36
-1.30052 -1.15693 -0.330935 11
-1.20806 -1.52848 -0.303426 14
-2.31432 -2.05448 -0.819275 8
-6.31762 -5.56768 1.3252 1
-6.54986 -5.77429 0.76087 2
-2.4673 -2.17553 0.0568076 35
-0.722277 -0.637947 -0.0488345 32
-1.26448 -1.58086 -0.0347303 14
-2.47152 -2.17619 -0.399467 35
-1.3082 -1.15196 -0.331411 9
-1.21758 -1.52407 -0.303817 14
-2.3265 -2.04433 -0.819922 8
-6.43473 -5.65094 1.96591 3
-6.32733 -5.55664 1.3252 1
-6.59923 -5.79737 0.765445 3
-2.47673 -2.17617 0.0569385 35
-0.719636 -0.633392 -0.048572 32
-1.27348 -1.58646 -0.0349048 14
-2.47904 -2.17515 -0.400076 35
-1.31206 -1.15129 -0.331888 11
-1.2264 -1.52966 -0.305383 14
-2.33007 -2.04027 -0.819922 9
-6.45969 -5.61125 1.96422 3
-6.3843 -5.54773 1.33105 2
-6.58437 -5.72353 0.760216 3
-2.49564 -2.16973 0.057113 33
-0.719173 -0.626342 -0.0483094 32
-1.28334 -1.58171 -0.0349484 14
-2.50352 -2.17352 -0.402206 35
-1.32549 -1.15083 -0.333792 9
-1.23284 -1.52129 -0.304992 12
-2.33524 -2.0233 -0.817982 9
-6.45376 -5.58835 1.95973 2
-6.3641 -5.51072 1.32481 2
-2.50698 -2.17192 0.0572875 32
-0.718377 -0.623452 -0.0481782 32
-1.29711 -1.59307 -0.0352539 14
-2.51294 -2.17402 -0.403118 35
-1.32935 -1.15012 -0.334268 9
-1.24792 -1.5345 -0.308124 12
-2.3406 -2.02079 -0.818629 8
-6.4691 -5.54067 1.95524 2
-6.47351 -5.54639 1.34159 1
-2.53009 -2.16807 0.0575493 35
-0.717946 -0.616309 -0.0479156 32
-1.30254 -1.58216 -0.0351666 14
-2.53938 -2.17373 -0.405552 35
-1.33928 -1.1461 -0.335221 9
-1.25907 -1.53176 -0.308907 12
-2.35517 -2.01124 -0.819922 9
-6.51026 -5.55625 1.96478 2
-6.48791 -5.53716 1.34237 3
-2.54756 -2.17457 0.0578547 33
-0.713429 -0.610071 -0.0475218 32
-1.3151 -1.59124 -0.0354284 14
-2.54732 -2.17207 -0.406161 35
-1.33774 -1.14035 -0.334268 9
-1.27297 -1.5427 -0.311648 12
-2.35535 -2.00358 -0.818629 9
-6.58596 -5.55363 1.9777 8
-6.53668 -5.51403 1.34588 1
-2.56922 -2.16836 0.0580729 35
-0.714916 -0.604468 -0.0473905 32
-1.32717 -1.58771 -0.0355156 14
-2.57308 -2.16855 -0.40829 35
-1.35724 -1.14392 -0.337602 11
-1.28657 -1.54104 -0.312822 12
-2.36835 -1.99195 -0.819275 9
-6.62638 -5.56992 1.98725 12
-6.5841 -5.53438 1.35369 4
-4.54957 -5.45307 0.866476 12
-2.58257 -2.17192 0.058291 35
-0.712147 -0.600007 -0.0471279 32
-1.33635 -1.59307 -0.0356902 14
-2.58446 -2.17044 -0.409507 35
-1.35547 -1.13839 -0.336649 11
-1.29084 -1.54069 -0.313214 12
-2.37738 -1.99247 -0.821215 8
-1.16641 -1.39435 -0.411038 4
-6.68827 -5.56046 1.99679 14
-6.48957 -5.39722 1.32832 1
-4.59 -5.45876 1.37831 11
-4.65319 -5.51838 0.880776 11
-2.60544 -2.16795 0.0585528 35
-1.83822 -2.17244 0.147326 9
-0.717199 -0.597866 -0.0472592 32
-1.34789 -1.58987 -0.0357774 14
-2.60724 -2.16639 -0.411333 35
-1.36708 -1.13598 -0.338078 11
-1.30499 -1.54169 -0.31478 14
-2.3915 -1.98307 -0.822508 9
-1.17526 -1.39009 -0.4116 8
-6.71013 -5.56083 2.00072 14
-6.68246 -5.53986 1.36617 14
-4.66436 -5.52768 1.39785 11
-6.68957 -5.54574 0.757166 12
-4.66345 -5.51296 0.88108 12
-2.62077 -2.17297 0.0588146 35
-1.84324 -2.17146 0.147457 4
-0.708627 -0.588652 -0.0466028 32
-1.35713 -1.59514 -0.035952 14
-2.62211 -2.17178 -0.413158 35
-1.37473 -1.13828 -0.339506 11
-1.31564 -1.54884 -0.316737 14
-2.39309 -1.97736 -0.821862 8
-1.16959 -1.37893 -0.408792 8
-6.66002 -5.46076 1.97714 12
-6.69801 -5.49383 1.36344 14
-4.69705 -5.50961 1.39928 12
-6.6983 -5.49601 0.754987 12
-4.69064 -5.48658 0.880776 14
-2.63946 -2.16602 0.0589891 33
-1.86108 -2.16937 0.14798 4
-0.713528 -0.58664 -0.0467341 32
-1.37331 -1.59775 -0.0361701 14
-2.64113 -2.16431 -0.414375 35
-1.38048 -1.13131 -0.339506 11
-1.32667 -1.54591 -0.31752 14
-2.40494 -1.96675 -0.822508 8
-1.17047 -1.36537 -0.406546 9
-6.61577 -5.40713 1.96141 11
-6.63972 -5.42861 1.34979 12
-4.70985 -5.50513 1.40023 11
-6.69053 -5.47013 0.753026 12
-4.7041 -5.48486 0.881688 12
-2.65292 -2.16931 0.0592073 33
-1.87098 -2.17402 0.148503 4
-0.710684 -0.582235 -0.0464716 33
-1.37935 -1.59914 -0.0362574 14
-2.65798 -2.17114 -0.416505 35
-1.3255 -1.53695 -0.174181 12
-1.38245 -1.1289 -0.339506 11
-1.3358 -1.5511 -0.319086 14
-2.41211 -1.9656 -0.823802 8
-1.16786 -1.35798 -0.404861 9
-6.63452 -5.36476 1.95861 11
-6.63541 -5.36738 1.34315 12
-4.74247 -5.4868 1.40166 9
-6.67359 -5.40017 0.748014 11
-4.72625 -5.45265 0.880471 11
-2.67553 -2.16529 0.0594691 33
-0.713622 -0.578631 -0.0464716 33
-1.38907 -1.59403 -0.036301 14
-2.6809 -2.16655 -0.41833 35
-1.34305 -1.54151 -0.175486 14
-1.39579 -1.12805 -0.341411 12
-1.34848 -1.54991 -0.320261 14
-2.42015 -1.95185 -0.823155 8
-1.17496 -1.35184 -0.404861 9
-6.62966 -5.34363 1.95468 11
-6.62845 -5.34455 1.34003 12
-4.744 -5.46923 1.39928 8
-6.64229 -5.35569 0.743438 12
-4.73481 -5.44522 0.880471 11
-2.68903 -2.16846 0.0596872 33
-0.716575 -0.57895 -0.0466028 33
-1.39677 -1.59726 -0.0364319 14
-2.6959 -2.17167 -0.420156 35
-1.34574 -1.53916 -0.175486 14
-1.3901 -1.11946 -0.339506 12
-1.35604 -1.55315 -0.321436 14
-2.42167 -1.94611 -0.822508 8
-1.16431 -1.33527 -0.400369 9
-6.6804 -5.32707 1.96141 9
-6.65634 -5.30977 1.34003 12
-4.7797 -5.45439 1.40166 8
-6.65374 -5.30958 0.741695 12
-4.76817 -5.42595 0.881384 9
-2.70974 -2.16261 0.0599054 33
-0.711687 -0.569091 -0.0460777 33
-1.41144 -1.59768 -0.0366064 14
-2.715 -2.16371 -0.421373 35
-1.40151 -1.117 -0.340935 12
-1.36714 -1.54998 -0.322219 14
-2.43527 -1.93683 -0.823802 8
-1.16005 -1.31633 -0.396438 3
-6.7231 -5.34385 1.97152 9
-6.69754 -5.32543 1.34666 12
-4.78598 -5.44235 1.40071 8
-6.67274 -5.30571 0.742785 9
-4.8062 -5.45198 0.88686 4
-2.72526 -2.16721 0.0601672 33
-0.71268 -0.567848 -0.0460777 33
-1.41753 -1.59896 -0.0366937 14
-2.73005 -2.16869 -0.423198 35
-1.37311 -1.55129 -0.323002 14
-2.44812 -1.94007 -0.827035 4
-1.14764 -1.29804 -0.391385 3
-6.78163 -5.33266 1.98051 8
-3.31223 -3.73904 1.3273 2
-6.75444 -5.31318 1.35252 12
-4.84604 -5.45477 1.41024 4
-6.75628 -5.31652 0.749104 9
-4.88746 -5.48606 0.896596 4
-2.74798 -2.16266 0.060429 32
-0.711619 -0.561148 -0.0458152 33
-1.4306 -1.59736 -0.0368246 14
-2.76089 -2.16969 -0.426241 32
-1.13985 -1.27563 -0.386331 4
-6.97792 -5.46925 2.03554 9
-3.28029 -3.6899 1.3118 1
-6.92698 -5.42932 1.3853 11
-4.9192 -5.51779 1.42883 8
-4.95487 -5.54231 0.907244 9
-2.76356 -2.16711 0.0606907 27
-0.710632 -0.558366 -0.0456839 33
-1.43505 -1.59673 -0.0368682 14
-2.77053 -2.16946 -0.427153 17
-1.13397 -1.26454 -0.383523 3
-3.29956 -3.67268 1.3118 4
-4.99562 -5.54486 1.44265 12
-5.00377 -5.53839 0.910895 11
-2.78672 -2.1618 0.0609525 23
-0.711572 -0.553108 -0.0455526 33
-1.44674 -1.5929 -0.0369555 14
-1.13732 -1.25497 -0.3824 4
-3.28658 -3.64537 1.30404 4
-5.01187 -5.54342 1.44456 11
-5.02176 -5.53885 0.912417 9
-2.80038 -2.16457 0.0611707 17
-0.716489 -0.554917 -0.0458152 33
-1.45456 -1.59592 -0.0370864 14
-1.14114 -1.25479 -0.382962 4
-3.2845 -3.60488 1.29564 4
-2.87803 -2.20058 0.566996 3
-5.06068 -5.53886 1.45028 11
-2.85653 -2.18494 0.311582 9
-5.05907 -5.52163 0.913938 11
-2.82955 -2.16353 0.0615634 15
-0.711543 -0.544972 -0.0452901 33
-1.46966 -1.59566 -0.0372609 14
-1.15098 -1.25239 -0.384085 3
-2.84575 -2.1673 0.816461 9
-3.28428 -3.59201 1.29306 8
-2.84846 -2.17013 0.560362 9
-5.07793 -5.53637 1.45218 8
-2.84053 -2.16486 0.309403 11
-5.09219 -5.53838 0.918197 9
-2.83768 -2.16113 0.0616506 12
-0.708519 -0.540707 -0.0450275 33
-1.47582 -1.59677 -0.0373481 14
-1.15152 -1.24859 -0.383523 4
-2.85938 -2.15333 0.817022 9
-2.85621 -2.15172 0.559582 11
-5.12852 -5.53312 1.45838 9
-2.83827 -2.13897 0.307878 14
-5.13728 -5.52712 0.920935 9
-2.83897 -2.13872 0.0614325 9
-0.711341 -0.536989 -0.0450275 35
-1.48614 -1.59059 -0.0373918 14
-1.15494 -1.23877 -0.3824 12
-2.87445 -2.15761 0.820391 8
-2.86947 -2.15464 0.561533 15
-5.16323 -5.55113 1.46553 8
-2.85595 -2.14448 0.309403 18
-5.16794 -5.54265 0.92489 9
-0.712277 -0.535747 -0.0450275 35
-1.49233 -1.59165 -0.037479 14
-1.15025 -1.22981 -0.380154 12
-2.88766 -2.14398 0.820953 2
-2.87278 -2.1337 0.559972 15
-5.1963 -5.5303 1.46696 8
-2.87076 -2.13296 0.309839 1
-5.18838 -5.50648 0.923369 1
-0.708964 -0.527673 -0.0446337 35
-1.50551 -1.58953 -0.0376099 14
-1.15501 -1.222 -0.379592 14
-2.8734 -2.12641 0.815899 2
-2.86657 -2.12134 0.558021 2
-5.23286 -5.5498 1.47458 1
-2.86447 -2.12055 0.308749 2
-5.19288 -5.492 0.922457 11
-0.705869 -0.523467 -0.0443712 35
-1.51515 -1.59416 -0.0377845 14
-0.869164 -0.642094 -0.279989 45
-1.15213 -1.21466 -0.377908 14
-2.90097 -2.12182 0.820391 2
-2.88997 -2.11454 0.560362 2
-5.23405 -5.49119 1.46648 8
-5.20538 -5.44588 0.919414 8
-0.708691 -0.51964 -0.0443712 35
-1.52376 -1.58594 -0.0377845 14
-0.87318 -0.639157 -0.128389 41
-0.862149 -0.63065 -0.200466 41
-0.868721 -0.634538 -0.278696 42
-1.15532 -1.20489 -0.376785 14
-0.707578 -0.516933 -0.0442399 36
-1.52825 -1.58508 -0.0378281 14
-0.862144 -0.629026 -0.126564 41
-0.863248 -0.629145 -0.200466 41
-0.865919 -0.630184 -0.277403 41
-1.15048 -1.19603 -0.374539 14
-0.716353 -0.517598 -0.0446337 35
-1.53974 -1.58091 -0.0379153 14
-0.86744 -0.625952 -0.126868 41
-0.866422 -0.624767 -0.200466 41
-0.869097 -0.625793 -0.277403 42
-1.15503 -1.18824 -0.373977 14
-0.715227 -0.514891 -0.0445024 36
-1.54598 -1.58181 -0.0380026 14
-0.868531 -0.624437 -0.126868 41
-0.859531 -0.617537 -0.198561 41
-0.868333 -0.622719 -0.276756 42
-1.15371 -1.18272 -0.372854 14
-0.707733 -0.503915 -0.0438461 35
-1.55978 -1.57877 -0.0381335 14
-0.865824 -0.615424 -0.125955 42
-1.5225 -1.5414 -0.186141 15
-0.860856 -0.611459 -0.198085 41
-0.865667 -0.61398 -0.274816 42
-1.15498 -1.17124 -0.37117 14
-3.09468 -2.19045 0.865875 2
-3.21903 -3.28132 1.22068 2
-3.09582 -2.19206 0.593921 3
-3.21114 -3.26191 0.882176 1
-3.07532 -2.17754 0.326616 9
-3.2244 -3.26746 0.558585 9
-0.706573 -0.501238 -0.0437148 35
-1.56429 -1.57782 -0.0381771 14
-0.862736 -0.6112 -0.125347 42
-1.52519 -1.53874 -0.186141 15
-0.863927 -0.61137 -0.198561 42
-1.53036 -1.54609 -0.339445 14
-0.862789 -0.609686 -0.273523 42
-1.15511 -1.16769 -0.370608 14
-3.10211 -2.17142 0.864752 8
-3.21692 -3.24609 1.21357 1
-3.0931 -2.16591 0.59119 9
-3.19822 -3.21601 0.874074 1
-3.07814 -2.15623 0.325745 11
-3.24321 -3.25229 0.558889 8
-0.705095 -0.49467 -0.0434522 36
-1.57402 -1.57165 -0.0382208 14
-0.86389 -0.605253 -0.125043 42
-1.53498 -1.53249 -0.186359 15
-0.858961 -0.60137 -0.196656 42
-1.54366 -1.54331 -0.34062 14
-0.865863 -0.605312 -0.273523 41
-1.1612 -1.16162 -0.370608 14
-3.08791 -2.15347 0.859698 9
-3.22938 -3.24733 1.21616 3
-3.08472 -2.15203 0.588848 9
-3.07782 -2.14801 0.325309 12
-0.703909 -0.492012 -0.043321 36
-1.58029 -1.57244 -0.038308 14
-0.860872 -0.600909 -0.124434 41
-1.54294 -1.53509 -0.187011 15
-0.857995 -0.598469 -0.19618 42
-1.54809 -1.54236 -0.341011 14
-0.859089 -0.598139 -0.270936 42
-1.15635 -1.1527 -0.368362 14
-3.10955 -2.14364 0.862506 8
-3.10242 -2.13951 0.590019 8
-3.08529 -2.12849 0.324873 12
-0.710588 -0.491152 -0.0435835 38
-0.853889 -0.58921 -0.122913 41
-1.55627 -1.53225 -0.187663 15
-0.859198 -0.592427 -0.195704 42
-1.56141 -1.53944 -0.342186 14
-0.8642 -0.595 -0.271583 42
-1.16084 -1.14471 -0.3678 14
-3.11893 -2.14289 0.864191 2
-3.10781 -2.13604 0.590409 2
-3.10543 -2.13439 0.326616 2
-5.48908 -5.41379 0.941015 12
-0.711444 -0.489911 -0.0435835 38
-0.85686 -0.589271 -0.123217 42
-1.55894 -1.52953 -0.187663 15
-0.856181 -0.588153 -0.194752 41
-1.57113 -1.54365 -0.343752 14
-0.859257 -0.589401 -0.269643 42
-1.1609 -1.14117 -0.367239 14
-3.13011 -2.12653 0.864191 2
-5.50044 -5.40218 2.05364 11
-3.11691 -2.11835 0.590019 2
-3.11001 -2.11444 0.325962 3
-5.5422 -5.40925 0.945275 12
-0.707718 -0.482097 -0.0431897 38
-0.851719 -0.579206 -0.122 42
-1.57201 -1.52684 -0.188316 15
-0.859147 -0.583812 -0.194752 42
-1.57212 -1.5285 -0.342186 12
-0.86223 -0.585044 -0.269643 42
-1.17034 -1.13848 -0.368362 14
-3.14354 -2.12844 0.866998 2
-5.53401 -5.41624 2.06269 11
-3.14514 -2.12951 0.594702 2
-3.1302 -2.12018 0.327706 3
-5.63163 -5.47748 0.958965 12
-0.704422 -0.478064 -0.0429271 38
-0.850672 -0.576329 -0.121696 41
-1.58003 -1.5293 -0.188968 15
-0.864233 -0.585058 -0.195704 44
-1.56771 -1.51887 -0.34062 11
-0.859244 -0.580839 -0.26835 41
-1.17407 -1.13814 -0.368923 15
-3.15906 -2.11411 0.868121 3
-5.65592 -5.47798 2.09758 8
-3.16241 -2.11713 0.595872 4
-5.67202 -5.47451 1.52415 12
-3.1516 -2.11068 0.328795 9
-5.67453 -5.46169 0.961399 14
-3.17174 -2.12336 0.0660137 14
-0.70484 -0.472982 -0.0427959 38
-0.855742 -0.573246 -0.122 41
-1.58981 -1.52273 -0.189186 15
-0.861161 -0.576437 -0.194276 41
-1.57386 -1.50893 -0.340228 11
-0.858254 -0.573654 -0.267057 42
-1.18177 -1.13367 -0.369485 15
-3.17048 -2.11454 0.870367 3
-5.69846 -5.49999 2.10986 9
-3.18048 -2.12119 0.598604 3
-5.68864 -5.47141 1.52605 12
-3.15735 -2.10656 0.329013 3
-5.67689 -5.4449 0.960182 12
-3.17128 -2.11504 0.0659265 14
-0.707742 -0.473135 -0.0429271 39
-0.848477 -0.566253 -0.120783 41
-1.59606 -1.5234 -0.18962 15
-0.856034 -0.570857 -0.192847 42
-1.56224 -1.4925 -0.337096 11
-0.857243 -0.570819 -0.26641 42
-1.18199 -1.12992 -0.368923 15
-3.19205 -2.10406 0.873175 3
-5.72718 -5.47007 2.10986 11
-3.19154 -2.10451 0.598604 3
-5.72076 -5.44493 1.52701 12
-3.1725 -2.09274 0.329449 3
-5.71072 -5.42023 0.961095 14
-3.16143 -2.08466 0.0654901 9
-0.70604 -0.466676 -0.0426646 39
-2.30651 -2.18069 -0.0548006 36
-0.85765 -0.565894 -0.121696 41
-1.61125 -1.52188 -0.19049 15
-0.859011 -0.566367 -0.192847 42
-1.56108 -1.4758 -0.335139 11
-0.858201 -0.564998 -0.265763 42
-1.18789 -1.12371 -0.368923 15
-5.74721 -5.47007 2.11374 11
-5.73915 -5.44339 1.52939 12
-3.17198 -2.08447 0.329013 3
-5.749 -5.43755 0.965963 12
-3.1588 -2.07502 0.0653593 3
-0.704766 -0.464074 -0.0425333 39
-2.3194 -2.18524 -0.0550187 35
-0.85241 -0.560315 -0.120783 41
-1.61752 -1.52249 -0.190925 15
-0.853839 -0.560833 -0.191419 41
-1.56545 -1.47477 -0.33553 11
-0.863228 -0.566142 -0.267057 42
-1.18985 -1.12164 -0.368923 15
-5.78983 -5.45315 2.11891 11
-5.75863 -5.40486 1.52701 11
-3.1745 -2.06241 0.328141 2
-5.7448 -5.37684 0.960487 9
-3.16752 -2.05709 0.0653156 2
-0.705092 -0.459019 -0.042402 39
-2.33994 -2.1816 -0.0552369 36
-0.857414 -0.557194 -0.121088 41
-1.63093 -1.5191 -0.191578 14
-0.856764 -0.556355 -0.191419 42
-1.56414 -1.45811 -0.333573 11
-0.85604 -0.555059 -0.263823 42
-1.19926 -1.11872 -0.370046 14
-5.79758 -5.44139 2.11826 9
-5.78776 -5.41325 1.53225 9
-3.17182 -2.05281 0.327488 2
-5.81584 -5.42438 0.970831 8
-3.16481 -2.04749 0.0651847 2
-0.703795 -0.456432 -0.0422708 39
-2.34923 -2.18263 -0.0553678 36
-0.845876 -0.547623 -0.119262 41
-1.64815 -1.52984 -0.193317 14
-0.853609 -0.552198 -0.190466 42
-1.56849 -1.45707 -0.333964 11
-0.859038 -0.554872 -0.26447 42
-1.20299 -1.11829 -0.370608 15
-5.87021 -5.45207 2.13441 9
-5.90063 -5.46128 1.55465 11
-3.18882 -2.0402 0.328141 2
-5.89519 -5.44101 0.979349 11
-3.1776 -2.03224 0.0652284 2
-0.706175 -0.452741 -0.0422708 39
-2.37165 -2.18047 -0.0556295 36
-0.855008 -0.54719 -0.120175 41
-1.65064 -1.51612 -0.192665 14
-0.856488 -0.547721 -0.190466 42
-1.57972 -1.45219 -0.334747 11
-0.857857 -0.547773 -0.263177 42
-1.20704 -1.11032 -0.370046 15
-5.97005 -5.52553 2.16737 12
-5.91917 -5.45929 1.55703 9
-3.15876 -2.01322 0.324655 9
-5.91198 -5.43744 0.980566 11
-3.16849 -2.01864 0.0649666 12
-0.700645 -0.447487 -0.0418769 39
-2.38282 -2.18309 -0.0558041 36
-0.851773 -0.543035 -0.119566 42
-1.65695 -1.51661 -0.1931 4
-0.851228 -0.542278 -0.189038 42
-1.5768 -1.44441 -0.333573 11
-0.858811 -0.546275 -0.263177 42
-1.21077 -1.10987 -0.370608 14
-6.00424 -5.49909 2.16931 11
-5.93861 -5.41995 1.55465 9
-5.9367 -5.40307 0.979958 8
-3.1769 -2.00069 0.064923 21
-0.703056 -0.44369 -0.0418769 39
-2.40346 -2.17899 -0.0560222 35
-0.850402 -0.535928 -0.118958 41
-0.84782 -0.533899 -0.187609 41
-1.58434 -1.43613 -0.333573 11
-0.857568 -0.539205 -0.261884 42
-1.21836 -1.10516 -0.37117 14
-6.03879 -5.51141 2.17836 11
-5.95082 -5.41019 1.55513 9
-5.93326 -5.38102 0.977828 8
-3.1659 -1.98529 0.0646175 24
-0.705945 -0.443787 -0.0420082 41
-2.41282 -2.17983 -0.0561531 35
-0.849233 -0.533126 -0.118654 41
-0.850831 -0.53372 -0.188085 41
-1.58868 -1.43503 -0.333964 11
-0.852455 -0.533722 -0.259944 42
-1.22209 -1.10467 -0.371731 14
-6.08286 -5.49162 2.18353 11
-7.31379 -4.53109 1.35408 41
-5.96631 -5.36746 1.55179 9
-7.41556 -4.59589 0.760216 38
-3.16988 -1.96474 0.0644866 26
-0.706137 -0.438771 -0.0418769 41
-2.43202 -2.17341 -0.0563276 35
-0.852105 -0.528524 -0.118654 41
-0.855794 -0.530399 -0.188562 42
-1.58907 -1.41981 -0.332398 11
-0.861404 -0.533055 -0.261884 42
-1.22986 -1.09967 -0.372293 14
-7.32097 -4.51789 1.97489 35
-6.11397 -5.50039 2.19128 9
-7.31118 -4.51183 1.35213 42
-7.39602 -4.56594 0.757383 33
-3.16905 -1.95658 0.0643994 26
-0.706901 -0.437537 -0.0418769 41
-2.44886 -2.18082 -0.0566331 36
-0.850913 -0.525734 -0.118349 41
-0.850448 -0.525045 -0.187133 41
-1.5897 -1.41539 -0.332007 11
-0.858218 -0.529022 -0.26059 42
-1.23359 -1.09914 -0.372854 14
-7.31541 -4.46174 1.96703 33
-6.16336 -5.48866 2.19903 11
-7.32127 -4.46706 1.34979 41
-7.40628 -4.52066 0.756076 32
-6.59847 -5.83964 1.0761 2
-3.16611 -1.93271 0.0641376 27
-0.707051 -0.432531 -0.0417456 41
-2.46923 -2.17668 -0.0568512 35
-0.849325 -0.518839 -0.117741 41
-0.848902 -0.518182 -0.186181 41
-1.60054 -1.4106 -0.33279 12
-0.854693 -0.52091 -0.25865 42
-1.24278 -1.09612 -0.373977 14
-7.30028 -4.43506 1.96085 30
-6.1964 -5.49874 2.20744 11
-7.30373 -4.43888 1.3451 36
-7.39713 -4.49738 0.754333 32
-6.56959 -5.79363 1.06971 2
-3.16768 -1.92533 0.064094 29
-0.703536 -0.428705 -0.0414831 41
-2.48428 -2.18228 -0.057113 35
-0.848107 -0.516069 -0.117437 41
-0.854002 -0.519244 -0.187133 42
-1.59745 -1.4029 -0.331615 11
-0.851559 -0.516768 -0.257357 41
-1.25017 -1.09879 -0.375662 14
-7.30537 -4.38421 1.9558 35
-6.2569 -5.49224 2.21842 9
-7.30435 -4.38533 1.34081 35
-6.50777 -5.6927 1.67237 3
-7.40214 -4.44575 0.752372 32
-6.5915 -5.74984 1.06819 3
-3.17128 -1.90486 0.0639631 29
-0.705771 -0.425016 -0.0414831 44
-2.50359 -2.17537 -0.0572875 35
-0.84663 -0.508922 -0.116828 41
-0.854694 -0.513355 -0.186657 41
-1.59733 -1.38802 -0.330049 12
-0.856326 -0.513541 -0.258004 42
-1.25793 -1.09361 -0.376223 14
-7.29343 -4.36148 1.95075 30
-6.28646 -5.49881 2.22553 9
-7.30064 -4.36751 1.33886 32
-6.53988 -5.70069 1.67809 3
-7.39492 -4.42388 0.750847 30
-6.58742 -5.72807 1.06606 3
-3.17031 -1.89675 0.0638758 30
-0.706512 -0.423783 -0.0414831 44
-2.5187 -2.18083 -0.0575493 35
-0.847429 -0.507592 -0.116828 41
-2.49047 -2.15706 -0.284648 26
-0.849265 -0.508092 -0.185228 41
-1.59975 -1.38523 -0.330049 12
-0.848921 -0.507104 -0.255417 41
-1.26516 -1.09644 -0.377908 14
-7.30358 -4.3158 1.94738 30
-6.33976 -5.48907 2.23458 9
-7.30002 -4.3154 1.33457 33
-6.5928 -5.68837 1.68428 4
-7.40007 -4.37626 0.749104 32
-6.60792 -5.6854 1.06454 3
-3.17342 -1.87687 0.0637449 30
-0.704422 -0.417539 -0.0412205 44
-2.5354 -2.17295 -0.0576802 35
-0.847937 -0.501887 -0.116524 41
-2.53195 -2.16997 -0.288127 30
-0.849711 -0.50254 -0.184752 41
-1.5995 -1.3704 -0.328483 12
-0.847314 -0.500351 -0.254124 41
-1.27457 -1.09298 -0.379031 14
-7.288 -4.28946 1.9412 30
-6.37126 -5.49694 2.24233 9
-7.2969 -4.29639 1.33262 33
-6.61859 -5.68851 1.6881 4
-7.39053 -4.35322 0.74736 32
-6.61595 -5.67224 1.06423 3
-3.1684 -1.8657 0.0635704 30
-0.705149 -0.416309 -0.0412205 44
-2.54868 -2.17665 -0.0578984 35
-0.844533 -0.497892 -0.115916 41
-2.54898 -2.17689 -0.28965 32
-0.848471 -0.499814 -0.184276 41
-1.60001 -1.366 -0.328091 12
-0.850357 -0.499944 -0.254771 42
-1.28017 -1.09393 -0.380154 14
-7.30057 -4.24385 1.93839 29
-6.42661 -5.48435 2.25138 9
-7.30082 -4.24568 1.3291 33
-6.63333 -5.64105 1.68428 3
-7.3989 -4.30441 0.745835 33
-6.54629 -5.55125 1.04811 2
-3.16732 -1.84281 0.0633522 32
-0.703002 -0.410103 -0.040958 44
-2.57186 -2.17252 -0.0581601 35
-0.845069 -0.49207 -0.115611 41
-2.57174 -2.17317 -0.290954 29
-0.855409 -0.497678 -0.185228 41
-1.59961 -1.35121 -0.326525 12
-0.848783 -0.493065 -0.253477 42
-1.29164 -1.09172 -0.381839 14
-7.28404 -4.21895 1.93222 29
-6.4656 -5.49818 2.26172 9
-7.29253 -4.22555 1.32637 33
-6.55334 -5.55326 1.66141 2
-7.39347 -4.284 0.744528 33
-6.5872 -5.56821 1.05328 2
-3.15971 -1.83101 0.0631341 32
-0.703717 -0.408875 -0.040958 44
-2.5852 -2.17609 -0.0583783 35
-0.843692 -0.489499 -0.115307 39
-2.58314 -2.17511 -0.291824 24
-0.84565 -0.490047 -0.182848 41
-1.60197 -1.34841 -0.326525 12
-0.847551 -0.490377 -0.252831 42
-1.29893 -1.09442 -0.383523 14
-7.28277 -4.16744 1.92604 29
-6.51735 -5.48561 2.27012 9
-7.29312 -4.17504 1.32247 30
-6.57573 -5.51528 1.65998 2
-7.40209 -4.2391 0.743221 32
-6.63909 -5.55276 1.05693 1
-3.1646 -1.81251 0.0630468 32
-0.703681 -0.403946 -0.0408267 44
-2.60385 -2.16939 -0.0585528 35
-0.841935 -0.482613 -0.114699 39
-2.60596 -2.17113 -0.293129 27
-0.848119 -0.485761 -0.182848 41
-1.59386 -1.32733 -0.323393 12
-0.854218 -0.488472 -0.254124 42
-1.30464 -1.0876 -0.383523 14
-7.27733 -4.14749 1.92267 26
-6.54726 -5.49131 2.27723 9
-7.28109 -4.1513 1.31896 33
-6.6616 -5.56563 1.67904 9
-7.39217 -4.21631 0.741477 32
-6.46396 -5.38696 1.02742 1
-3.1659 -1.8052 0.0630032 33
-0.702216 -0.401482 -0.0406954 44
-2.623 -2.17764 -0.0589019 33
-0.847089 -0.483597 -0.115307 41
-2.6174 -2.17296 -0.293999 29
-0.840432 -0.479428 -0.180943 41
-1.59238 -1.32139 -0.32261 12
-0.850953 -0.484448 -0.252831 42
-1.30841 -1.08689 -0.384085 14
-7.27843 -4.09611 1.91705 24
-6.61032 -5.48358 2.28886 9
-7.28622 -4.10216 1.31584 32
-6.71523 -5.55101 1.68524 14
-7.39318 -4.16403 0.739299 32
-6.69588 -5.51933 1.05967 14
-3.16006 -1.78001 0.0626978 33
-2.64632 -2.17295 -0.0591637 33
-0.843203 -0.475361 -0.114394 39
-2.64604 -2.17347 -0.295956 33
-0.840873 -0.473672 -0.180467 41
-1.59737 -1.31146 -0.322219 12
-0.855585 -0.481166 -0.253477 44
-1.32366 -1.08755 -0.386892 12
-7.26786 -4.07515 1.91256 21
-6.63662 -5.48589 2.29467 9
-7.27974 -4.08346 1.31349 33
-6.64917 -5.47683 1.66617 14
-7.3874 -4.14381 0.737991 33
-6.67963 -5.48831 1.05571 14
-3.1588 -1.77205 0.0626105 33
-2.65591 -2.17308 -0.0592945 33
-0.848279 -0.47646 -0.115003 41
-2.65753 -2.17517 -0.296826 33
-0.845983 -0.474599 -0.181419 41
-1.59393 -1.30397 -0.321044 12
-0.854315 -0.478495 -0.252831 44
-1.32912 -1.08857 -0.388015 12
-7.25926 -4.02052 1.9047 18
-6.6942 -5.47672 2.30501 8
-7.28158 -4.03452 1.30998 32
-6.68251 -5.44776 1.6676 11
-7.39085 -4.09671 0.736248 33
-6.67556 -5.42663 1.05054 12
-3.1568 -1.74999 0.0623923 33
-0.700515 -0.389246 -0.0403016 45
-2.67852 -2.16907 -0.0595563 33
-0.842076 -0.467209 -0.113786 42
-2.68049 -2.17065 -0.29813 33
-0.846226 -0.469124 -0.180943 42
-1.59882 -1.29404 -0.320653 12
-0.850382 -0.470666 -0.250891 44
-1.34614 -1.09083 -0.391385 12
-7.25133 -3.99961 1.90077 17
-6.72994 -5.4864 2.31406 9
-7.28212 -4.01823 1.30881 33
-6.63583 -5.38848 1.65331 12
-7.3849 -4.07659 0.734941 33
-6.63876 -5.37746 1.04324 12
-3.15796 -1.74272 0.0623487 33
-0.699007 -0.386818 -0.0401703 45
-2.68813 -2.1691 -0.0596872 32
-0.845064 -0.466935 -0.11409 42
-2.69008 -2.17067 -0.298783 33
-0.842743 -0.46528 -0.179991 41
-1.59149 -1.28348 -0.318695 12
-0.851284 -0.469032 -0.250891 44
-1.34993 -1.09001 -0.391946 12
-7.24505 -3.94517 1.89347 15
-6.79147 -5.4757 2.32504 9
-7.29074 -3.97168 1.30647 33
-6.65057 -5.34289 1.64997 11
-7.38717 -4.02585 0.73298 32
-6.65522 -5.33331 1.04141 14
-3.16046 -1.72257 0.0622178 33
-0.69883 -0.381959 -0.0400391 47
-2.71739 -2.16858 -0.0600799 33
-0.845317 -0.461318 -0.113786 44
-2.71696 -2.169 -0.300522 32
-0.845248 -0.460714 -0.179991 42
-0.855851 -0.46572 -0.251538 44
-7.22554 -3.91985 1.88673 14
-6.81796 -5.47746 2.33086 9
-7.28395 -3.95316 1.30413 33
-6.66754 -5.33742 1.65188 9
-7.38473 -4.00949 0.732108 33
-6.66839 -5.32479 1.04202 12
-3.15687 -1.71348 0.0620869 33
-0.695106 -0.378359 -0.0397765 47
-2.7247 -2.16743 -0.0601672 33
-0.850485 -0.462206 -0.114394 42
-2.72815 -2.17095 -0.301392 20
-0.845971 -0.459386 -0.179991 42
-0.858706 -0.465523 -0.252184 44
-7.21737 -3.86828 1.87943 14
-6.87865 -5.47115 2.34249 8
-7.28863 -3.90808 1.3014 33
-6.73392 -5.3368 1.66188 9
-7.38298 -3.96029 0.729929 32
-6.72445 -5.31406 1.04659 12
-3.163 -1.69685 0.0620433 35
-0.697012 -0.374836 -0.0397765 47
-2.75133 -2.166 -0.0605162 33
-0.841874 -0.452042 -0.112873 42
-2.75707 -2.17052 -0.303349 14
-0.85045 -0.456255 -0.180467 42
-0.848268 -0.454348 -0.248304 42
-7.18327 -3.83389 1.86876 14
-6.90521 -5.47265 2.34831 8
-7.28237 -3.88837 1.29906 33
-6.76918 -5.34365 1.66808 11
-7.3789 -3.94153 0.72884 33
-6.75125 -5.31614 1.04932 11
-3.15964 -1.68724 0.0619124 35
-0.697665 -0.373619 -0.0397765 47
-2.76297 -2.16738 -0.0606907 33
-0.844852 -0.451739 -0.113177 42
-2.76282 -2.16725 -0.303567 11
-0.842579 -0.450157 -0.178562 42
-0.849139 -0.452719 -0.248304 44
-7.17589 -3.78021 1.86146 15
-6.97272 -5.46502 2.36123 8
-7.28801 -3.84086 1.29632 33
-7.38469 -3.89342 0.727315 32
-3.15516 -1.66369 0.0616506 35
-0.697403 -0.368798 -0.0396452 47
-2.78846 -2.16314 -0.0609962 33
-0.842891 -0.444851 -0.112569 42
-0.845002 -0.445591 -0.178562 42
-0.847221 -0.446023 -0.247011 44
-7.15593 -3.75535 1.85472 15
-7.27502 -3.81781 1.29281 33
-7.38265 -3.8759 0.726443 33
-3.15806 -1.65818 0.0616506 35
-0.695834 -0.366421 -0.039514 47
-2.80409 -2.16746 -0.0612579 38
-0.843666 -0.443379 -0.112569 42
-0.845779 -0.444116 -0.178562 44
-0.847998 -0.444543 -0.247011 44
-7.16316 -3.70986 1.85136 18
-7.28614 -3.77512 1.29125 33
-7.37852 -3.82459 0.724046 33
-2.86372 -2.19454 0.438106 3
-3.16004 -1.63817 0.0615197 36
-0.693309 -0.360477 -0.0392514 49
-2.81738 -2.15427 -0.0613016 47
-0.837159 -0.434397 -0.111352 42
-0.866312 -0.658468 -0.0919833 35
-0.850273 -0.440808 -0.179038 44
-0.858812 -0.653389 -0.165612 27
-0.85246 -0.441204 -0.247658 44
-7.15599 -3.69191 1.84799 20
-7.27735 -3.75448 1.28852 33
-2.86646 -2.195 0.694398 4
-7.37191 -3.80485 0.722739 33
-2.84194 -2.16992 0.434151 9
-3.15845 -1.63036 0.0614325 36
-0.698375 -0.361554 -0.039514 49
-2.82312 -2.15087 -0.0613452 35
-0.83571 -0.4318 -0.111048 42
-0.869439 -0.658467 -0.0922008 47
-0.844494 -0.435955 -0.17761 42
-0.863873 -0.65489 -0.166395 32
-0.848933 -0.437509 -0.246365 44
-7.15849 -3.64429 1.84349 21
-2.87298 -2.18406 0.956383 8
-7.27931 -3.70736 1.2854 33
-2.8486 -2.15769 0.687249 11
-7.37619 -3.75829 0.721214 33
-2.84733 -2.15052 0.433238 14
