# .PCD v0.7 - Point Cloud Data file format
VERSION 0.7
FIELDS x y z intensity
SIZE 4 4 4 4
TYPE F F F F
COUNT 1 1 1 1
WIDTH 1535
HEIGHT 1
VIEWPOINT 0 0 0 1 0 0 0
POINTS 1535
DATA ascii
-0.656264 0.0208429 -0.0326876 82
-0.793845 0.0259131 -0.0930975 71
-0.673463 -0.0919686 -0.0563208 45
-0.807597 0.0266622 -0.149992 58
-0.807235 -0.111598 -0.123719 50
-0.800031 0.0269402 -0.20498 52
-0.808843 -0.112652 -0.18025 49
-7.15037 0.277028 1.64134 33
-7.19312 -1.02135 1.93474 33
-7.25736 0.279938 1.14219 36
-6.9609 -0.975883 1.35829 1
-7.26944 0.279148 0.633404 29
-7.04906 -0.978305 0.868302 1
-3.10471 0.11897 0.0536225 3
-0.656146 0.0242788 -0.0326876 82
-0.793703 0.0299307 -0.0930975 74
-0.671468 -0.0880997 -0.0561033 45
-0.804999 0.0306519 -0.149516 58
-0.80779 -0.107511 -0.123719 50
-0.799884 0.0309892 -0.20498 53
-0.80699 -0.108218 -0.179689 50
-7.14744 0.289408 1.64078 33
-7.18772 -1.00779 1.9328 33
-7.25686 0.292604 1.14219 35
-6.95547 -0.961504 1.35686 1
-7.26894 0.291835 0.633404 30
-7.04584 -0.965324 0.867693 1
-3.06004 -0.414345 0.160017 9
-0.651114 0.0252201 -0.0324251 86
-0.791171 0.0312138 -0.0927933 73
-0.669153 -0.0865905 -0.0558859 47
-0.802493 0.0319549 -0.14904 55
-0.810422 -0.106437 -0.124111 50
-0.802236 0.0326272 -0.205627 52
-0.799938 -0.105807 -0.178004 49
-7.1482 0.328187 1.64134 33
-7.19067 -0.968558 1.93215 32
-7.25517 0.331863 1.14219 33
-6.95798 -0.924747 1.35639 1
-7.27721 0.331615 0.634276 30
-7.04358 -0.926213 0.866781 1
-3.05481 -0.396806 0.159625 9
-0.653467 0.0287439 -0.0325564 89
-0.788512 0.0353784 -0.092489 77
-0.662189 -0.082113 -0.0552335 47
-0.80476 0.0364115 -0.149516 55
-0.801177 -0.1009 -0.122545 50
-0.802054 0.0368272 -0.205627 53
-0.802914 -0.101799 -0.178566 49
-7.15011 0.339531 1.64191 36
-7.18996 -0.955686 1.93151 32
-7.25958 0.343493 1.14297 33
-6.95228 -0.91164 1.35496 1
-7.28408 0.34467 0.63493 27
-7.04502 -0.915148 0.866781 1
-3.05048 -0.391364 0.159363 9
-0.655909 0.0300037 -0.0326876 90
-0.793412 0.0368559 -0.0930975 80
-0.662332 -0.0809571 -0.0552335 47
-0.802243 0.0376965 -0.14904 58
-0.8038 -0.0998201 -0.122936 50
-0.797165 0.0379885 -0.204334 53
-0.803073 -0.100537 -0.178566 50
-6.8855 0.363057 1.58126 1
-7.18752 -0.91836 1.92957 32
-7.25521 0.38137 1.14258 35
-6.9495 -0.875514 1.35353 1
-7.27727 0.381272 0.634494 27
-7.28362 -0.907548 0.895683 33
-3.04753 -0.37477 0.159101 9
-0.655743 0.0334377 -0.0326876 90
-0.788252 0.0407447 -0.092489 79
-0.662746 -0.077488 -0.0552335 47
-0.804493 0.0418884 -0.149516 58
-0.799412 -0.094998 -0.122153 50
-0.796963 0.0420228 -0.204334 53
-0.798754 -0.0957222 -0.177443 50
-7.1427 0.389174 1.64078 35
-7.18911 -0.905813 1.92957 32
-7.25947 0.3943 1.14336 38
-6.94873 -0.861867 1.35305 1
-7.28157 0.394243 0.63493 27
-7.04385 -0.86503 0.865868 1
-3.04818 -0.36945 0.159101 9
-0.655684 0.0345821 -0.0326876 90
-0.665353 -0.0766339 -0.0554509 49
-0.806869 0.0434286 -0.149992 58
-0.802027 -0.0939044 -0.122545 50
-0.794469 0.0434168 -0.203687 53
-0.801338 -0.0946282 -0.178004 50
-7.14292 0.42796 1.64134 33
-7.18671 -0.866032 1.92763 32
-7.25476 0.433424 1.14297 36
-6.95072 -0.825181 1.35257 1
-7.27435 0.433337 0.634494 29
-7.04596 -0.826616 0.865564 1
-3.05757 -0.353825 0.159494 11
-0.653002 0.0378649 -0.0325564 90
-0.665745 -0.0731491 -0.0554509 50
-0.804173 0.0476441 -0.149516 58
-0.797603 -0.0891259 -0.121762 50
-0.794231 0.047576 -0.203687 53
-0.804257 -0.0905784 -0.178566 50
-7.14468 0.43933 1.64191 33
-7.18821 -0.853487 1.92763 32
-7.25654 0.444971 1.14336 38
-6.94727 -0.812475 1.35162 1
-7.27607 0.446185 0.634712 32
-7.27648 -0.842231 0.893858 33
-3.05813 -0.349022 0.159494 11
-0.655427 0.0391588 -0.0326876 90
-0.79282 0.0479301 -0.0930975 83
-0.663397 -0.0717016 -0.0552335 50
-0.804088 0.0490476 -0.149516 58
-0.80021 -0.0880183 -0.122153 50
-0.798967 0.0492679 -0.20498 53
-0.801979 -0.0890316 -0.178004 50
-7.14471 0.476896 1.64247 33
-7.19244 -0.817094 1.92763 32
-7.25165 0.482795 1.14297 38
-6.94885 -0.777027 1.35114 1
-7.26875 0.482676 0.634276 32
-7.04156 -0.777541 0.864347 1
-3.05495 -0.332457 0.159232 11
-0.652721 0.0424228 -0.0325564 90
-0.790083 0.0519135 -0.0927933 85
-0.663764 -0.0682271 -0.0552335 50
-0.798933 0.0527847 -0.148564 58
-0.803114 -0.084099 -0.122545 50
-0.796298 0.0531461 -0.204334 53
-0.804855 -0.0851019 -0.178566 50
-7.14143 0.489198 1.64191 33
-7.18665 -0.803729 1.92569 32
-7.25818 0.495958 1.14414 38
-6.94546 -0.763145 1.35019 1
-7.25796 0.494682 0.633404 33
-7.27971 -0.791142 0.893554 33
-3.05056 -0.326585 0.15897 11
-0.650156 0.0433904 -0.0324251 95
-0.792466 0.0534638 -0.0930975 86
-0.666358 -0.0673366 -0.0554509 50
-0.801288 0.0543493 -0.14904 58
-0.795896 -0.0818946 -0.12137 52
-0.796195 0.0546748 -0.204334 53
-0.802581 -0.0834306 -0.178004 50
-7.14111 0.528009 1.64247 33
-7.1861 -0.76432 1.9244 32
-7.25293 0.535039 1.14375 39
-6.94447 -0.726254 1.34924 1
-7.25269 0.533761 0.633186 33
-7.27648 -0.750975 0.892641 33
-3.04732 -0.309563 0.158709 11
-0.652409 0.0469786 -0.0325564 98
-0.792165 0.0577506 -0.0930975 86
-0.666701 -0.0638467 -0.0554509 50
-0.798534 0.0585003 -0.148564 59
-0.79877 -0.0779809 -0.121762 50
-0.793489 0.0586605 -0.203687 52
-0.795752 -0.0783269 -0.17632 50
-7.14027 0.539226 1.64247 35
-7.18502 -0.751524 1.92375 32
-7.24962 0.546245 1.14336 38
-6.94329 -0.71388 1.34876 1
-7.24927 0.54623 0.632969 35
-7.27025 -0.738786 0.891728 33
-3.05028 -0.305028 0.15884 11
-0.652326 0.0481172 -0.0325564 101
-0.789599 0.0588062 -0.0927933 86
-0.659378 -0.0619305 -0.0547986 50
-0.805772 0.0604575 -0.149992 58
-0.793992 -0.0760859 -0.120979 52
-0.798201 0.0604184 -0.20498 53
-0.798297 -0.0773264 -0.176881 50
-7.13978 0.576801 1.64303 35
-7.17671 -0.713944 1.92052 29
-7.2442 0.583997 1.14297 38
-6.94437 -0.678488 1.34828 1
-7.24889 0.583115 0.633186 33
-7.27896 -0.701189 0.892337 33
-3.05184 -0.289053 0.15884 11
-0.657042 0.051936 -0.0328189 104
-0.791754 0.0631413 -0.0930975 88
-0.664652 -0.0589529 -0.0552335 50
-0.80301 0.0643349 -0.149516 58
-0.794379 -0.0719275 -0.120979 50
-0.795478 0.064259 -0.204334 53
-0.80354 -0.0736192 -0.178004 52
-6.87413 0.567365 1.58182 1
-7.17554 -0.701181 1.91987 30
-7.24071 0.596437 1.14258 38
-6.94566 -0.665154 1.34828 1
-7.24786 0.595766 0.633186 33
-7.2777 -0.688248 0.892032 33
-3.05731 -0.284196 0.159101 11
-0.654463 0.0528764 -0.0326876 107
-0.791642 0.0645231 -0.0930975 89
-0.659794 -0.0573257 -0.0547986 50
-0.805342 0.0659408 -0.149992 58
-0.79942 -0.0710074 -0.121762 50
-0.795354 0.0657861 -0.204334 52
-0.793967 -0.0712861 -0.175758 50
-7.14032 0.628305 1.64415 36
-7.17683 -0.662124 1.91923 30
-7.23983 0.63582 1.14297 38
-6.94172 -0.628109 1.34686 1
-7.24701 0.63519 0.633404 33
-7.2739 -0.648196 0.89112 33
-3.0588 -0.26765 0.159101 12
-0.65169 0.0560831 -0.0325564 110
-0.78881 0.0685861 -0.0927933 90
-0.662566 -0.0540908 -0.055016 52
-0.79764 0.0696439 -0.148564 58
-0.80224 -0.0670411 -0.122153 50
-0.794998 0.0699496 -0.204334 52
-0.796768 -0.0672088 -0.17632 50
-7.12477 0.638214 1.64078 26
-7.18038 -0.649817 1.91987 32
-7.2462 0.647853 1.14414 38
-6.93791 -0.615556 1.3459 1
-7.24589 0.647837 0.633404 33
-7.27738 -0.636988 0.891424 33
-3.05176 -0.262192 0.158709 12
-0.654078 0.0574441 -0.0326876 115
-0.78623 0.0696019 -0.092489 88
-0.66266 -0.0529343 -0.055016 52
-0.802405 0.0714799 -0.149516 58
-0.794977 -0.0649926 -0.120979 50
-0.794875 0.071337 -0.204334 53
-0.801725 -0.0663886 -0.177443 49
-7.16433 -0.611808 1.9147 29
-6.94583 -0.580844 1.34686 1
-7.27567 -0.598465 0.890815 33
-3.05309 -0.24621 0.158709 12
-0.661224 0.061578 -0.0330815 121
-0.790795 0.0741898 -0.0930975 90
-0.660446 -0.0492607 -0.0547986 53
-0.804476 0.0757747 -0.149992 58
-0.792845 -0.0606261 -0.120587 52
-0.797207 -0.0617839 -0.17632 50
-7.16538 -0.599303 1.9147 27
-6.93471 -0.566501 1.34447 1
-7.27176 -0.585364 0.890207 33
-3.05102 -0.24068 0.158578 12
-0.65863 0.062491 -0.0329502 126
-0.798074 0.0762911 -0.0940102 90
-0.663013 -0.0483068 -0.055016 53
-0.797015 0.0764628 -0.148564 58
-0.790489 -0.0590433 -0.120196 52
-0.799741 -0.0605912 -0.176881 50
-2.85342 0.290435 0.653056 47
-7.17093 -0.560716 1.91535 29
-6.93758 -0.530183 1.34447 1
-7.27482 -0.546012 0.890207 33
-3.05228 -0.224169 0.158578 12
-0.658294 0.0659387 -0.0329502 130
-0.792712 0.0801004 -0.0934018 90
-0.65829 -0.0444629 -0.0545811 55
-0.801472 0.0812776 -0.149516 58
-0.788325 -0.0547176 -0.119804 52
-0.797628 -0.0560777 -0.17632 50
-2.85296 0.294917 0.653056 47
-7.16226 -0.547457 1.91277 29
-6.9336 -0.517705 1.34352 1
-7.27072 -0.534217 0.889599 33
-3.05263 -0.219375 0.158578 12
-0.658178 0.0670875 -0.0329502 134
-0.792586 0.0813455 -0.0934018 90
-0.66085 -0.0434954 -0.0547986 55
-0.798888 0.0824202 -0.14904 58
-0.793344 -0.053705 -0.120587 52
-0.796203 0.0826819 -0.20498 53
-0.800145 -0.0550065 -0.176881 50
-2.84895 0.309586 0.652495 47
-7.16013 -0.510851 1.91147 29
-6.93368 -0.482432 1.34304 1
-7.27589 -0.496311 0.889903 33
-3.05374 -0.203388 0.158578 12
-0.660299 0.0708042 -0.0330815 135
-0.794615 0.0857649 -0.093706 90
-0.656099 -0.0396976 -0.0543637 55
-0.798461 0.0864626 -0.14904 58
-0.793615 -0.0495503 -0.120587 52
-0.793374 0.086445 -0.204334 53
-0.795561 -0.050478 -0.175758 50
-2.84841 0.314558 0.652495 49
-7.15619 -0.498015 1.91018 27
-6.93704 -0.469287 1.34352 1
-7.27179 -0.483279 0.889294 33
-3.05409 -0.198058 0.158578 12
-0.655212 0.0714051 -0.0328189 140
-0.745733 -0.0444821 -0.0124348 8
-0.789532 0.0866019 -0.0930975 90
-0.658653 -0.0387166 -0.0545811 55
-0.79587 0.0875834 -0.148564 58
-0.798627 -0.0484941 -0.12137 52
-0.790807 0.0876975 -0.203687 53
-0.793218 -0.0489246 -0.175197 52
-2.84425 0.329683 0.651933 50
-7.15637 -0.459133 1.90953 27
-2.8581 0.330803 0.449148 52
-6.94185 -0.433113 1.344 1
-2.87737 0.332546 0.250355 55
-7.26935 -0.443622 0.888686 33
-3.05262 -0.181379 0.158447 14
-0.659789 0.0754122 -0.0330815 146
-0.740973 -0.0401441 -0.0123476 8
-0.786587 0.0905842 -0.0927933 90
-0.658846 -0.0352674 -0.0545811 55
-0.800259 0.09246 -0.149516 58
-0.791484 -0.0437189 -0.120196 52
-0.790337 0.091837 -0.203687 53
-0.793471 -0.0446322 -0.175197 52
-2.84614 0.334436 0.652495 50
-7.15234 -0.446338 1.90824 26
-2.86488 0.336659 0.450319 55
-6.93525 -0.420546 1.34257 1
-2.86936 0.336693 0.249701 55
-7.27011 -0.430934 0.888686 33
-3.05293 -0.176051 0.158447 14
-0.659657 0.0765636 -0.0330815 148
-0.743537 -0.0389977 -0.0123912 8
-0.788892 0.0922494 -0.0930975 90
-0.653935 -0.0338238 -0.0541462 55
-0.79766 0.0935664 -0.14904 58
-0.789095 -0.0421906 -0.119804 52
-0.792573 0.0935034 -0.204334 53
-0.793548 -0.0432472 -0.175197 52
-2.83946 0.349233 0.651372 50
-6.97375 -0.398425 1.85978 1
-2.86062 0.351353 0.449929 55
-6.93246 -0.383953 1.34161 1
-2.86509 0.351408 0.249483 56
-7.26731 -0.392591 0.888077 33
-0.630258 0.0763249 0.0104714 3
-3.05631 -0.160198 0.158578 14
-0.656769 0.0797105 -0.0329502 146
-0.741235 -0.0349702 -0.0123476 8
-0.790861 0.0966842 -0.0934018 90
-0.659077 -0.030667 -0.0545811 56
-0.797159 0.0977416 -0.14904 58
-0.794229 -0.0384649 -0.120587 50
-0.78728 0.0970525 -0.203041 53
-0.793763 -0.0390917 -0.175197 49
-2.8389 0.353693 0.651372 50
-6.97926 -0.386523 1.86107 1
-2.86252 0.356152 0.450319 55
-6.92822 -0.371586 1.34066 1
-2.862 0.356099 0.249265 56
-7.2704 -0.381307 0.888382 32
-0.630124 0.0774248 0.0104714 3
-3.05157 -0.155136 0.158316 14
-0.659106 0.081167 -0.0330815 142
-0.741295 -0.0336764 -0.0123476 9
-0.788246 0.0976171 -0.0930975 89
-0.651668 -0.0291282 -0.0539288 55
-0.801857 0.0997471 -0.149992 58
-0.794295 -0.0370787 -0.120587 50
-0.791901 0.0990343 -0.204334 52
-0.793823 -0.0378448 -0.175197 50
-2.84185 0.369183 0.652495 50
-6.9763 -0.350947 1.85978 1
-2.85817 0.370816 0.449929 55
-6.93246 -0.336636 1.34114 1
-2.86016 0.370581 0.249265 55
-7.2723 -0.343234 0.888382 33
-0.639639 0.0819044 0.010646 3
-3.05483 -0.139273 0.158447 14
-0.656211 0.0841791 -0.0329502 134
-0.728972 -0.0293396 -0.0121294 11
-0.785264 0.101421 -0.0927933 90
-0.656782 -0.0260632 -0.0543637 55
-0.798908 0.103485 -0.149516 58
-0.787079 -0.0325677 -0.119413 50
-0.788996 0.102725 -0.203687 53
-0.789144 -0.0334515 -0.174073 50
-2.83885 0.373327 0.651933 50
-6.97932 -0.338889 1.86042 1
-2.85507 0.375481 0.449538 55
-6.92323 -0.32407 1.33923 1
-2.86939 0.376874 0.250137 55
-7.26545 -0.330198 0.887469 32
-0.639495 0.0830206 0.010646 3
-3.05008 -0.133715 0.158185 14
-0.651113 0.08467 -0.0326876 124
-0.731519 -0.0281798 -0.0121731 11
-0.785086 0.102791 -0.0927933 88
-0.659315 -0.0250294 -0.0545811 56
-0.798727 0.104879 -0.149516 58
-0.789601 -0.0313068 -0.119804 50
-0.786421 0.103782 -0.203041 53
-0.789201 -0.0320741 -0.174073 50
-2.83196 0.388018 0.65081 50
-6.97617 -0.302129 1.85913 1
-2.84572 0.389417 0.448368 52
-6.93219 -0.288126 1.34066 1
-2.85751 0.390539 0.249265 50
-7.27452 -0.292456 0.888382 32
-0.648957 0.0877283 0.0108205 3
-3.05573 -0.117943 0.158447 15
-0.653134 0.0884181 -0.0328189 115
-0.731656 -0.0243492 -0.0121731 11
-0.784537 0.1069 -0.0927933 88
-0.659437 -0.0215769 -0.0545811 56
-0.800597 0.109396 -0.149992 58
-0.792222 -0.027272 -0.120196 50
-0.790651 0.108564 -0.204334 53
-0.791793 -0.0280426 -0.174635 50
-2.83858 0.393473 0.652495 50
-6.9791 -0.290055 1.85978 1
-2.84504 0.394383 0.448368 49
-7.17544 -0.285862 1.38784 35
-2.85435 0.395183 0.249048 50
-7.26758 -0.279468 0.887469 33
-0.646327 0.0885164 0.0107769 3
-3.05094 -0.112418 0.158185 15
-0.650506 0.0892135 -0.0326876 111
-0.786806 0.108613 -0.0930975 86
-0.661962 -0.0205211 -0.0547986 56
-0.790683 0.10943 -0.148088 55
-0.794735 -0.025985 -0.120587 50
-0.788069 0.109606 -0.203687 52
-0.789406 -0.0265637 -0.174073 49
-2.82918 0.407779 0.65081 47
-6.9757 -0.25333 1.85848 1
-2.8356 0.408215 0.447197 47
-7.16948 -0.248028 1.38641 35
-2.84238 0.4087 0.248176 44
-7.2739 -0.241579 0.888077 33
-0.650802 0.0926141 0.0108641 4
-3.05149 -0.0964421 0.158185 15
-0.652501 0.0929757 -0.0328189 111
-0.786227 0.112731 -0.0930975 83
-0.657082 -0.0168906 -0.0543637 56
-0.792528 0.113922 -0.148564 58
-0.787457 -0.0215752 -0.119413 50
-0.789874 0.114081 -0.204334 52
-0.789534 -0.0224301 -0.174073 50
-2.82372 0.411517 0.649687 49
-6.98095 -0.241325 1.85978 1
-2.83489 0.413163 0.447197 49
-7.16745 -0.235433 1.38594 35
-2.84413 0.414021 0.248394 49
-7.26935 -0.228724 0.887469 33
-0.648166 0.0933881 0.0108205 4
-3.05415 -0.0911945 0.158316 17
-0.649868 0.0937527 -0.0326876 103
-0.781119 0.113382 -0.092489 82
-0.657111 -0.0157437 -0.0543637 56
-0.7899 0.114948 -0.148088 55
-0.789961 -0.0202792 -0.119804 52
-0.789674 0.115459 -0.204334 52
-0.784703 -0.0208922 -0.17295 50
-2.82626 0.42752 0.65081 47
-6.97488 -0.204552 1.85784 1
-2.83268 0.428001 0.447197 49
-7.17104 -0.19797 1.38641 35
-2.83946 0.428534 0.248176 49
-7.27045 -0.190659 0.887469 33
-0.657554 0.0982792 0.010995 4
-3.05209 -0.0751365 0.158185 17
-0.654287 0.0980175 -0.0329502 101
-0.782968 0.117844 -0.0927933 80
-0.659676 -0.0122525 -0.0545811 56
-0.798992 0.120564 -0.149992 58
-0.787589 -0.0160772 -0.119413 50
-0.789058 0.119592 -0.204334 52
-0.792107 -0.0169848 -0.174635 49
-2.81829 0.431343 0.649126 49
-6.97523 -0.192378 1.85784 1
-2.82949 0.43257 0.446807 49
-7.17631 -0.184332 1.38737 35
-2.83871 0.433489 0.248176 50
-7.27325 -0.178032 0.887773 32
-0.654894 0.099162 0.0109514 4
-3.04722 -0.0696875 0.157924 15
-0.64918 0.0984006 -0.0326876 98
-0.780308 0.118832 -0.092489 79
-0.659696 -0.0111012 -0.0545811 56
-0.793929 0.121209 -0.14904 55
-0.792552 -0.014825 -0.120196 52
-0.791213 0.121478 -0.20498 52
-0.787265 -0.0154764 -0.173512 50
-2.8111 0.445819 0.648003 49
-6.96651 -0.154415 1.85525 1
-2.82711 0.447873 0.446807 49
-7.17227 -0.146651 1.38641 35
-2.83632 0.448841 0.248176 50
-7.27411 -0.138677 0.887773 32
-0.671646 0.105336 0.0112568 8
-3.05255 -0.0532945 0.158185 17
-0.643725 0.101014 -0.0324251 96
-0.779654 0.123052 -0.092489 76
-0.657255 -0.00759992 -0.0543637 56
-0.793262 0.125503 -0.14904 58
-0.785213 -0.0105302 -0.119021 52
-0.792951 0.126002 -0.205627 52
-0.784901 -0.0111669 -0.17295 50
-2.81521 0.451008 0.649126 50
-6.97642 -0.14246 1.85784 1
-2.82396 0.451921 0.446416 49
-7.17252 -0.134133 1.38641 33
-2.83308 0.453396 0.247958 52
-7.25447 -0.126891 0.885339 29
-0.671461 0.106508 0.0112568 8
-3.05263 -0.0484995 0.158185 20
-0.646012 0.102534 -0.0325564 95
-0.781909 0.124672 -0.0927933 77
-0.654777 -0.00641018 -0.0541462 56
-0.795465 0.127279 -0.149516 56
-0.790168 -0.00924766 -0.119804 52
-0.787962 0.126611 -0.204334 52
-0.787354 -0.00997993 -0.173512 52
-2.808 0.464943 0.648003 49
-7.00362 -0.107574 1.86495 1
-2.81669 0.465893 0.445636 50
-2.82829 0.467323 0.24774 55
-0.675845 0.110723 0.0113441 4
-3.04535 -0.0324239 0.157793 21
-0.645467 0.105915 -0.0325564 92
-0.778798 0.128356 -0.092489 76
-0.659783 -0.00304082 -0.0545811 58
-0.792389 0.130899 -0.14904 55
-0.790205 -0.00511025 -0.119804 52
-0.789693 0.130997 -0.20498 52
-0.784959 -0.00582408 -0.17295 50
-2.80959 0.470247 0.648564 49
-2.81344 0.4704 0.445246 50
-2.82501 0.471847 0.247522 55
-0.685492 0.113676 0.0115186 4
-3.0454 -0.0271087 0.157793 21
-0.645281 0.107041 -0.0325564 90
-0.785914 0.130952 -0.0934018 73
-0.657297 -0.00186407 -0.0543637 56
-0.79458 0.13269 -0.149516 55
-0.790213 -0.00373107 -0.119804 53
-0.794202 0.133321 -0.206274 50
-0.787404 -0.00448297 -0.173512 52
-2.8022 0.484609 0.647441 50
-2.81572 0.486458 0.446026 52
-3.1121 -0.017432 0.597649 9
-2.82242 0.487125 0.247522 59
-3.0967 -0.013034 0.375432 8
-0.684887 0.117264 0.0115186 4
-3.05299 -0.010669 0.158185 23
-0.639792 0.109565 -0.0322938 90
-0.787639 0.135627 -0.093706 73
-0.657297 0.00157754 -0.0543637 56
-0.791432 0.136566 -0.14904 55
-0.790222 0.000406503 -0.119804 52
-0.791114 0.137061 -0.205627 52
-0.784981 -0.000206925 -0.17295 50
-2.79904 0.48859 0.646879 50
-2.81495 0.490881 0.446026 53
-3.08759 -0.0118675 0.592883 1
-2.82402 0.492479 0.24774 65
-3.05701 -0.00800344 0.370565 3
-0.69453 0.120183 0.0116931 4
-3.04801 -0.00585597 0.157924 18
-0.644518 0.111543 -0.0325564 90
-0.78498 0.136435 -0.0934018 68
-0.657293 0.00272474 -0.0543637 56
-0.79361 0.138373 -0.149516 55
-0.79022 0.0017857 -0.119804 53
-0.788496 0.138021 -0.20498 52
-0.787416 0.00101422 -0.173512 52
-2.79884 0.503671 0.647441 50
-2.80748 0.504737 0.445246 53
-3.05816 0.00377055 0.587164 8
-2.82394 0.507208 0.247958 71
-3.04708 0.00799267 0.369348 11
-0.693913 0.123697 0.0116931 4
-3.048 0.0101034 0.157924 18
-0.646402 0.115248 -0.0326876 90
-0.784255 0.140544 -0.0934018 71
-0.657271 0.00605155 -0.0543637 58
-0.790485 0.14195 -0.14904 55
-0.78773 0.00591979 -0.119413 53
-0.785411 0.141577 -0.204334 52
-0.784964 0.00513623 -0.17295 50
-2.79805 0.508067 0.647441 52
-2.80902 0.510078 0.445636 55
-3.05324 0.00910118 0.586211 4
-2.82305 0.512136 0.247958 65
-3.0421 0.013297 0.368739 11
-0.696155 0.125356 0.0117367 8
-3.04798 0.0154232 0.157924 24
-0.643744 0.115928 -0.0325564 90
-0.78645 0.142358 -0.093706 68
-0.65726 0.00719869 -0.0543637 56
-0.787822 0.142887 -0.148564 55
-0.787719 0.00729463 -0.119413 53
-0.789913 0.143821 -0.205627 52
-0.78739 0.00651135 -0.173512 52
-2.79286 0.522749 0.646879 52
-2.80631 0.524779 0.445636 50
-3.07033 0.0252016 0.589547 8
-2.81298 0.525534 0.247304 59
-3.04447 0.029245 0.369043 11
-0.688119 0.127617 0.0116058 9
-3.05035 0.0314038 0.158055 26
-0.780816 0.145556 -0.0930975 62
-0.654721 0.0107321 -0.0541462 58
-0.789474 0.147465 -0.14904 55
-0.790139 0.0114397 -0.119804 53
-0.791522 0.148405 -0.206274 52
-0.784909 0.0106161 -0.17295 52
-2.78955 0.527169 0.646318 52
-2.80054 0.528758 0.444856 44
-3.06046 0.0310123 0.587641 3
-2.81206 0.530443 0.247304 58
-3.04442 0.0345586 0.369043 11
-0.690329 0.129403 0.0116495 11
-3.05029 0.0367277 0.158055 24
-0.785437 0.147845 -0.093706 62
-0.657191 0.0119017 -0.0543637 56
-0.791627 0.149302 -0.149516 55
-0.78518 0.0127687 -0.119021 53
-0.791236 0.149924 -0.206274 52
-0.782453 0.0119639 -0.172389 52
-2.78905 0.542721 0.646879 50
-2.79279 0.542957 0.444075 39
-3.07989 0.047307 0.591453 3
-2.80915 0.54565 0.247304 56
-3.08885 0.0517081 0.37452 2
-0.687188 0.132538 0.0116058 12
-3.04756 0.0531911 0.157924 23
-0.647158 0.124852 -0.0328189 90
-0.784625 0.152093 -0.093706 61
-0.65463 0.0153026 -0.0541462 58
-0.78599 0.152638 -0.148564 55
-0.792509 0.0169935 -0.120196 55
-0.79044 0.154065 -0.206274 52
-0.779941 0.0161619 -0.171827 52
-2.7858 0.546631 0.646318 50
-2.7992 0.548772 0.445246 49
-2.80331 0.549591 0.246869 58
-0.686956 0.133737 0.0116058 12
-3.04996 0.0580217 0.158055 23
-0.646939 0.125981 -0.0328189 90
-0.789255 0.154286 -0.0943145 61
-0.657092 0.0164895 -0.0543637 58
-0.78813 0.154486 -0.14904 53
-0.78754 0.0182922 -0.119413 55
-0.787801 0.154974 -0.205627 52
-0.779915 0.017387 -0.171827 52
-2.78052 0.560727 0.645756 49
-2.78903 0.561955 0.444075 53
-2.80293 0.564266 0.247087 61
-0.68382 0.136717 0.0115622 11
-3.04463 0.0738771 0.157793 23
-0.643846 0.12876 -0.0326876 89
-0.78114 0.156937 -0.0934018 59
-0.654511 0.0197581 -0.0541462 58
-0.787338 0.158473 -0.14904 55
-0.792371 0.0225258 -0.120196 55
-0.789373 0.159442 -0.206274 52
-0.777378 0.0214185 -0.171266 53
-2.77486 0.564121 0.644633 50
-2.79289 0.567808 0.444856 50
-7.16451 0.164923 1.38498 32
-2.80438 0.569654 0.247304 76
-7.25094 0.176947 0.885035 29
-0.686029 0.13841 0.0116058 9
-3.04449 0.0791909 0.157793 23
-0.643621 0.129883 -0.0326876 85
-0.785727 0.159295 -0.0940102 59
-0.651985 0.0208392 -0.0539288 59
-0.789465 0.16034 -0.149516 53
-0.789862 0.0238492 -0.119804 55
-0.786728 0.160333 -0.205627 52
-0.777339 0.0227753 -0.171266 52
-2.77166 0.57961 0.644633 50
-6.89331 0.184198 1.83587 1
-2.78735 0.582404 0.444465 52
-7.15615 0.203479 1.38355 30
-2.80614 0.585839 0.24774 90
-7.25484 0.21632 0.885643 30
-0.680378 0.141095 0.0115186 8
-3.04652 0.0957364 0.157924 23
-0.645352 0.133876 -0.0328189 80
-0.782425 0.163033 -0.093706 59
-0.649374 0.0242917 -0.0537113 59
-0.790987 0.165115 -0.149992 53
-0.794662 0.0281294 -0.120587 55
-0.783486 0.164088 -0.20498 52
-0.774769 0.0269115 -0.170704 52
-2.77313 0.584466 0.645195 52
-6.92677 0.197167 1.84491 1
-2.78885 0.587292 0.444856 56
-7.15824 0.216041 1.38403 30
-2.80024 0.589707 0.247304 106
-7.25945 0.227868 0.886252 30
-0.685022 0.143315 0.0116058 4
-3.04387 0.100443 0.157793 23
-0.635347 0.132936 -0.0322938 74
-0.631586 0.0249594 -0.0104278 8
-0.782168 0.164262 -0.093706 59
-0.654309 0.0255832 -0.0541462 64
-0.788297 0.165985 -0.149516 53
-0.799548 0.0296697 -0.12137 58
-0.783199 0.165455 -0.20498 52
-0.779596 0.0282747 -0.171827 52
-2.77242 0.599495 0.645756 52
-6.92086 0.232065 1.84362 1
-2.7785 0.600318 0.443685 55
-7.16687 0.252609 1.38594 32
-2.79965 0.604399 0.247522 113
-7.26807 0.266232 0.887469 33
-0.674515 0.144664 0.0114313 4
-3.04579 0.116471 0.157924 23
-0.632226 0.135621 -0.0321625 68
-0.631452 0.0281558 -0.0104278 8
-0.783722 0.168882 -0.0940102 59
-0.654171 0.0288946 -0.0541462 64
-0.787447 0.169973 -0.149516 55
-0.791979 0.0335868 -0.120196 55
-0.784711 0.169932 -0.205627 52
-0.774568 0.0321845 -0.170704 53
-2.76909 0.603329 0.645195 50
-6.92286 0.244227 1.84427 1
-2.77745 0.605166 0.443685 39
-7.16151 0.264939 1.38498 32
-2.80102 0.609816 0.24774 105
-7.25768 0.278543 0.886252 32
-0.679146 0.146908 0.0115186 4
-3.04559 0.121787 0.157924 24
-0.631989 0.136724 -0.0321625 62
-0.631402 0.0292579 -0.0104278 8
-0.783426 0.17025 -0.0940102 59
-0.654119 0.0300363 -0.0541462 65
-0.784752 0.170821 -0.14904 55
-0.796854 0.0351569 -0.120979 58
-0.786771 0.171821 -0.206274 52
-0.77938 0.0337165 -0.171827 52
-2.76579 0.618302 0.645195 52
-6.92631 0.280664 1.84556 1
-2.77665 0.62024 0.444075 55
-7.16002 0.302432 1.38498 30
-2.79293 0.623386 0.247304 88
-7.25612 0.31654 0.886252 35
-0.673489 0.14937 0.0114313 3
-3.04491 0.137732 0.157924 23
-0.63124 0.140142 -0.0321625 62
-0.63124 0.0325635 -0.0104278 8
-0.784945 0.174893 -0.0943145 59
-0.653947 0.033575 -0.0541462 67
-0.79103 0.176544 -0.150468 53
-0.799126 0.0394355 -0.12137 58
-0.785861 0.175938 -0.206274 52
-0.776758 0.037694 -0.171266 52
-2.76233 0.622592 0.644633 50
-6.92581 0.292752 1.84556 1
-2.77556 0.625086 0.444075 52
-7.16188 0.316285 1.38546 30
-2.78698 0.627164 0.246869 59
-7.25804 0.329315 0.886556 33
-0.680515 0.152315 0.0115622 3
-3.04466 0.143046 0.157924 24
-0.630994 0.141243 -0.0321625 61
-0.631182 0.0336652 -0.0104278 8
-0.789479 0.177359 -0.094923 59
-0.6514 0.0346024 -0.0539288 71
-0.785934 0.176838 -0.149516 53
-0.799056 0.0408302 -0.12137 58
-0.785522 0.177446 -0.206274 52
-0.771824 0.0388354 -0.170143 52
-2.75892 0.637528 0.644633 50
-6.92171 0.330107 1.84491 1
-2.77214 0.640094 0.444075 53
-7.16503 0.354019 1.38641 33
-2.78597 0.642795 0.247087 62
-7.25119 0.368331 0.885948 35
-0.679709 0.155876 0.0115622 3
-0.627814 0.143982 -0.0320313 61
-0.633487 0.0372074 -0.0104714 8
-0.788508 0.181628 -0.094923 58
-0.653697 0.0381395 -0.0541462 73
-0.782575 0.180532 -0.14904 53
-0.798831 0.0450135 -0.12137 58
-0.789285 0.182654 -0.207567 50
-0.774036 0.0431311 -0.170704 53
-2.76028 0.642414 0.645195 52
-6.92595 0.342422 1.84621 1
-2.77113 0.644447 0.444075 56
-7.15705 0.366152 1.38498 35
-2.7897 0.648787 0.247522 90
-7.25556 0.379977 0.886556 33
-0.629993 0.145645 -0.0321625 61
-0.635917 0.0384452 -0.0105151 8
-0.788222 0.182866 -0.094923 56
-0.65363 0.0392804 -0.0541462 76
-0.787038 0.183018 -0.149992 53
-0.798751 0.0464076 -0.12137 58
-0.788965 0.184031 -0.207567 52
-0.773967 0.0443469 -0.170704 53
-2.74977 0.655161 0.64351 50
-6.92171 0.377343 1.84556 1
-2.76292 0.657802 0.443295 49
-7.15265 0.402236 1.38451 35
-2.78153 0.661743 0.247087 125
-7.24356 0.417397 0.885339 33
-0.63165 0.149522 -0.0322938 61
-0.63821 0.0418081 -0.0105587 8
-0.78484 0.186413 -0.0946187 58
-0.650928 0.042558 -0.0539288 80
-0.783715 0.186427 -0.149516 53
-0.798497 0.0505892 -0.12137 58
-0.783328 0.186893 -0.206274 52
-0.776156 0.0485356 -0.171266 53
-2.75573 0.661669 0.645195 52
-6.92105 0.389423 1.84556 1
-2.76176 0.662623 0.443295 44
-7.14942 0.415827 1.38403 35
-2.78279 0.667179 0.247304 132
-7.2453 0.430184 0.885643 33
-0.628961 0.150039 -0.0321625 61
-0.62067 0.0418781 -0.0102533 8
-0.789338 0.188946 -0.0952272 58
-0.650853 0.043694 -0.0539288 85
-0.790545 0.189523 -0.150945 53
-0.795943 0.0518372 -0.120979 58
-0.785314 0.188966 -0.20692 50
-0.776071 0.0498902 -0.171266 53
-2.74738 0.675404 0.644072 42
-6.91161 0.426423 1.84362 1
-2.76773 0.679917 0.444856 56
-7.15449 0.453716 1.38546 35
-2.77914 0.682225 0.247304 110
-7.24534 0.469538 0.885948 33
-0.623318 0.152136 -0.0319 59
-0.625423 0.0455608 -0.0103405 8
-0.785895 0.192619 -0.094923 56
-0.64813 0.0469397 -0.0537113 86
-0.787126 0.193208 -0.150468 53
-0.79566 0.056004 -0.120979 58
-0.78197 0.192494 -0.206274 50
-0.775789 0.0540884 -0.171266 52
-2.74632 0.679718 0.644072 44
-6.91326 0.438636 1.84427 1
-2.76426 0.683669 0.444465 56
-7.14634 0.465729 1.38403 35
-2.78037 0.687674 0.247522 100
-7.24707 0.481081 0.886252 33
-3.03851 0.206612 0.157793 18
-0.625475 0.153825 -0.0320313 59
-0.622848 0.0464854 -0.0102969 8
-0.785592 0.193854 -0.094923 56
-0.645562 0.0479049 -0.0534938 89
-0.784406 0.193988 -0.149992 53
-0.795562 0.0573926 -0.120979 58
-0.783976 0.194444 -0.20692 50
-0.775703 0.0553069 -0.171266 53
-2.74272 0.694089 0.644072 39
-6.91095 0.473622 1.84427 1
-2.75825 0.697527 0.444075 56
-7.15368 0.502575 1.38594 33
-2.78168 0.70296 0.247958 98
-7.2395 0.518668 0.885643 33
-3.03987 0.222697 0.157924 20
-0.624661 0.157098 -0.0320313 59
-0.622605 0.0496373 -0.0102969 4
-0.784566 0.197964 -0.094923 56
-0.645303 0.0512844 -0.0534938 90
-0.785792 0.198562 -0.150468 53
-0.792787 0.0613817 -0.120587 58
-0.782982 0.198409 -0.20692 50
-0.772973 0.0591969 -0.170704 52
-2.74387 0.699478 0.644633 49
-6.91493 0.486018 1.84556 1
-2.75224 0.701119 0.443295 55
-7.14781 0.515958 1.38498 35
-2.77079 0.705352 0.247087 112
-7.23859 0.531303 0.885643 33
-3.04197 0.228185 0.158055 18
-0.626804 0.158806 -0.0321625 59
-0.617532 0.050356 -0.0102097 4
-0.784219 0.199333 -0.094923 56
-0.645212 0.0524106 -0.0534938 90
-0.785444 0.199933 -0.150468 53
-0.797604 0.0631252 -0.12137 58
-0.787277 0.201116 -0.208214 50
-0.775298 0.0607209 -0.171266 53
-2.74004 0.714313 0.644633 52
-6.9122 0.523424 1.84556 1
-2.74841 0.715999 0.443295 56
-7.14012 0.553001 1.38403 35
-2.77176 0.72159 0.247522 118
-7.24055 0.570846 0.886252 35
-2.78409 0.725326 0.0496085 1
-3.0382 0.244444 0.157924 20
-0.625964 0.162086 -0.0321625 59
-0.622234 0.0540913 -0.0102969 4
-0.78553 0.204202 -0.0952272 55
-0.644929 0.0557881 -0.0534938 90
-0.791473 0.206047 -0.151897 52
-0.789878 0.066722 -0.120196 58
-0.788549 0.205849 -0.20886 50
-0.77253 0.0647266 -0.170704 53
-2.7342 0.717377 0.64351 33
-6.91128 0.535487 1.84556 1
-2.75206 0.721571 0.444075 56
-7.14403 0.565846 1.38498 35
-2.77531 0.727692 0.247958 102
-7.24212 0.582416 0.886556 33
-2.78765 0.731455 0.0496957 1
-3.03781 0.249216 0.157924 18
-0.623266 0.162543 -0.0320313 59
-0.629613 0.0557825 -0.0104278 4
-0.787608 0.206068 -0.0955314 55
-0.639866 0.0565125 -0.0530589 90
-0.786367 0.206175 -0.150945 52
-0.794683 0.0684948 -0.120979 58
-0.783519 0.205989 -0.207567 49
-0.774856 0.066132 -0.171266 53
-2.73747 0.733579 0.645195 45
-6.90607 0.570265 1.84491 1
-2.74109 0.73405 0.442904 52
-7.13619 0.601589 1.38403 36
-2.76919 0.741085 0.24774 96
-7.2365 0.620117 0.886252 33
-2.79116 0.747498 0.0498266 9
-3.03647 0.265118 0.157924 18
-0.624817 0.166452 -0.0321625 59
-0.629323 0.0589685 -0.0104278 3
-0.784122 0.209544 -0.0952272 55
-0.639561 0.059862 -0.0530589 90
-0.782943 0.209514 -0.150468 52
-0.794313 0.0726548 -0.120979 58
-0.787129 0.211212 -0.20886 50
-0.772071 0.0699835 -0.170704 52
-2.73383 0.73772 0.644633 49
-6.91469 0.583122 1.8475 1
-2.74695 0.740766 0.444075 53
-7.15458 0.616962 1.38784 33
-2.76068 0.743969 0.247087 77
-7.23541 0.632746 0.886252 32
-2.78489 0.751551 0.0497394 11
-3.03849 0.270635 0.158055 17
-0.624526 0.167543 -0.0321625 59
-0.626729 0.0598481 -0.0103842 3
-0.78615 0.211561 -0.0955314 53
-0.644418 0.061414 -0.0534938 90
-0.782576 0.21088 -0.150468 52
-0.796645 0.0742554 -0.12137 58
-0.789052 0.213357 -0.209507 50
-0.774375 0.0715399 -0.171266 52
-2.7298 0.7525 0.644633 52
-2.74052 0.75496 0.443685 55
-2.75421 0.758233 0.246869 61
-2.77369 0.764127 0.0496085 12
-2.99969 0.283605 0.156092 17
-0.62364 0.17081 -0.0321625 59
-0.628884 0.0634703 -0.0104278 3
-0.782602 0.21515 -0.0952272 52
-0.649047 0.0652492 -0.0539288 90
-0.783789 0.215766 -0.150945 52
-0.798704 0.0786528 -0.121762 58
-0.783271 0.216192 -0.208214 50
-0.771551 0.0755065 -0.170704 52
-2.72627 0.756135 0.644072 50
-2.74171 0.759925 0.444075 55
-2.75288 0.763039 0.246869 58
-2.77476 0.769636 0.0496521 14
-3.03155 0.291371 0.157793 17
-0.625746 0.172567 -0.0322938 59
-0.631261 0.0648044 -0.0104714 3
-0.779873 0.215713 -0.094923 50
-0.646452 0.0661466 -0.0537113 90
-0.783411 0.217134 -0.150945 50
-0.791191 0.0793521 -0.120587 58
-0.780567 0.216908 -0.207567 47
-0.776282 0.0771701 -0.171827 52
-2.71993 0.769735 0.64351 49
-2.74245 0.775616 0.444856 56
-2.87466 0.285711 0.554279 45
-2.74899 0.776963 0.246869 64
-2.87619 0.28988 0.350181 42
-2.77083 0.78367 0.0496521 15
-2.89335 0.293602 0.150597 32
-0.622433 0.17516 -0.0321625 59
-0.620976 0.0670021 -0.0102969 3
-0.78112 0.220472 -0.0952272 50
-0.646097 0.0695305 -0.0537113 90
-0.784663 0.221768 -0.151421 50
-0.793221 0.0837381 -0.120979 58
-0.781781 0.221519 -0.208214 47
-0.775868 0.0812337 -0.171827 53
-2.71624 0.773812 0.642949 49
-2.73872 0.779724 0.444465 52
-2.91074 0.294879 0.561428 45
-2.75481 0.783807 0.247522 112
-2.87815 0.295148 0.350485 49
-2.76451 0.787616 0.0495648 23
-2.8978 0.299156 0.150858 49
-0.629328 0.178303 -0.0325564 59
-0.780734 0.221835 -0.0952272 49
-0.64102 0.070153 -0.0532764 90
-0.786634 0.223813 -0.151897 49
-0.790617 0.0848737 -0.120587 58
-0.785997 0.224353 -0.209507 47
-0.773301 0.0823449 -0.171266 52
-2.71201 0.788497 0.642949 50
-2.72972 0.79315 0.443685 50
-2.87987 0.307043 0.555709 45
-2.75053 0.798701 0.247522 152
-2.87158 0.310191 0.349876 49
-2.76035 0.80208 0.0495648 30
-2.89118 0.314299 0.150597 49
-0.623591 0.180199 -0.0322938 59
-0.779522 0.226055 -0.0952272 49
-0.64312 0.0737739 -0.0534938 90
-0.792602 0.089412 -0.120979 58
-0.770421 0.0862717 -0.170704 52
-2.71077 0.792756 0.642949 52
-2.72833 0.797913 0.443685 50
-2.86712 0.310767 0.553326 50
-2.75391 0.8049 0.247958 90
-2.8661 0.314669 0.349268 49
-2.75895 0.806897 0.0495648 41
-2.89311 0.319615 0.150728 50
-0.625672 0.18199 -0.0324251 58
-0.783888 0.228814 -0.0958357 47
-0.64299 0.0748962 -0.0534938 90
-0.78999 0.090529 -0.120587 56
-0.77027 0.0876162 -0.170704 52
-2.70658 0.806939 0.642949 50
-2.84734 0.318265 0.757352 47
-2.72425 0.811713 0.443685 50
-2.86551 0.325274 0.553326 50
-2.73787 0.815269 0.246869 55
-2.86447 0.329172 0.349268 49
-2.75483 0.820851 0.0495648 50
-2.88153 0.333123 0.150204 49
-0.627102 0.185978 -0.0325564 58
-0.645064 0.0785446 -0.0537113 90
-0.794428 0.0950837 -0.12137 58
-0.772237 0.0917861 -0.171266 53
-2.7075 0.812363 0.64351 49
-2.84678 0.323234 0.757352 47
-2.72283 0.816466 0.443685 55
-2.86001 0.33022 0.552373 50
-2.73644 0.820046 0.246869 53
-2.86882 0.334738 0.349876 53
-2.88094 0.338152 0.150204 49
-0.626777 0.187072 -0.0325564 58
-0.642452 0.0793833 -0.0534938 90
-0.786902 0.0956212 -0.120196 58
-0.767235 0.0925806 -0.170143 53
-2.70307 0.827 0.64351 49
-2.84259 0.33835 0.756706 49
-2.71365 0.829739 0.442904 56
-2.8558 0.344901 0.551896 49
-2.7272 0.833381 0.246433 52
-2.86204 0.349661 0.349268 55
-2.87412 0.353134 0.149943 50
-0.623402 0.18962 -0.0324251 58
-0.642027 0.082746 -0.0534938 90
-0.788842 0.100036 -0.120587 58
-0.769142 0.09702 -0.170704 52
-2.70176 0.831245 0.64351 47
-2.84199 0.343311 0.756706 49
-2.70999 0.833274 0.442514 52
-2.85763 0.350179 0.552373 50
-2.7305 0.839606 0.246869 55
-2.86149 0.354156 0.349268 53
-2.87604 0.357952 0.150073 49
-0.62307 0.190708 -0.0324251 58
-0.644354 0.0841708 -0.0537113 90
-0.793568 0.102013 -0.12137 58
-0.773825 0.0988151 -0.171827 52
-2.70667 0.848298 0.645756 49
-2.83782 0.357393 0.756059 49
-2.7103 0.848931 0.443295 49
-2.85095 0.364025 0.551419 50
-2.72384 0.852671 0.246651 59
-2.85959 0.369134 0.349268 52
-2.87412 0.373006 0.150073 49
-0.622063 0.193967 -0.0324251 56
-0.641434 0.0872262 -0.0534938 90
-0.788125 0.105541 -0.120587 56
-0.773297 0.102865 -0.171827 52
-2.70519 0.853021 0.645756 52
-2.8348 0.362044 0.755413 50
-2.71117 0.854403 0.443685 49
-2.85268 0.369809 0.551896 52
-2.72235 0.857423 0.246651 155
-2.85402 0.373489 0.348659 49
-2.86852 0.377379 0.149812 49
-0.621723 0.195053 -0.0324251 56
-0.64375 0.0886672 -0.0537113 90
-0.790388 0.107233 -0.120979 58
-0.7707 0.103905 -0.171266 52
-2.70053 0.867645 0.645756 53
-2.8328 0.377376 0.755413 50
-2.70651 0.869059 0.443685 49
-2.85314 0.385064 0.552373 50
-2.72241 0.873664 0.247087 86
-2.85442 0.389256 0.348964 49
-2.86891 0.393228 0.149943 49
-0.627823 0.2006 -0.0328189 58
-0.645745 0.0923712 -0.0539288 90
-0.789796 0.111508 -0.120979 56
-0.772541 0.108396 -0.171827 50
-2.69685 0.871136 0.645195 52
-2.83213 0.38232 0.755413 50
-2.70968 0.875302 0.444465 50
-2.85247 0.390043 0.552373 50
-2.84882 0.393567 0.348355 49
-0.629847 0.202464 -0.0329502 58
-0.640648 0.0928203 -0.0534938 90
-0.792047 0.113221 -0.12137 58
-0.767523 0.109089 -0.170704 53
-2.68978 0.884952 0.644633 50
-2.83488 0.397807 0.756706 49
-2.70272 0.888706 0.444075 49
-2.84309 0.40395 0.550943 49
-2.84672 0.408477 0.348355 49
-0.631149 0.206541 -0.0330815 58
-0.637688 0.0958217 -0.0532764 90
-0.789019 0.116881 -0.120979 58
-0.766941 0.113106 -0.170704 52
-2.68376 0.887644 0.64351 49
-2.83179 0.402418 0.756059 49
-2.7107 0.896055 0.445636 55
-2.84238 0.408912 0.550943 49
-2.84362 0.412596 0.348051 47
-0.626049 0.206071 -0.0328189 58
-0.644914 0.0980028 -0.0539288 90
-0.788814 0.118258 -0.120979 58
-0.769174 0.114655 -0.171266 52
-2.67908 0.901684 0.64351 47
-2.82493 0.41605 0.754767 47
-2.69895 0.90787 0.444465 55
-2.84028 0.423293 0.550943 49
-2.84142 0.42748 0.348051 47
-0.632058 0.21174 -0.0332127 58
-0.646855 0.101747 -0.0541462 90
-0.785742 0.122023 -0.120587 58
-0.775793 0.119751 -0.17295 52
-2.67058 0.904011 0.641826 47
-2.82181 0.420628 0.754121 47
-2.70204 0.914164 0.445246 50
-2.8346 0.42802 0.54999 49
-2.83576 0.4317 0.347442 47
-0.626959 0.211239 -0.0329502 58
-0.641752 0.102129 -0.0537113 90
-0.778203 0.122289 -0.119413 55
-0.773173 0.120744 -0.172389 52
-2.66565 0.918447 0.641826 47
-2.82188 0.436254 0.754767 47
-2.69005 0.926355 0.444075 49
-2.83233 0.442857 0.54999 49
-2.83093 0.446654 0.347138 49
-2.81071 0.44549 0.147326 38
-0.623484 0.213704 -0.0328189 58
-0.68786 0.112921 -0.0115622 4
-0.638748 0.105102 -0.0534938 90
-0.779991 0.126743 -0.119804 55
-0.767694 0.124178 -0.171266 52
-2.6573 0.920238 0.640141 49
-2.81635 0.440441 0.753475 47
-2.68859 0.930579 0.444075 47
-2.8267 0.447041 0.549036 50
-2.82533 0.450327 0.34653 49
-2.8248 0.452248 0.148111 38
-0.625469 0.215611 -0.0329502 58
-0.687662 0.114122 -0.0115622 4
-0.638564 0.106217 -0.0534938 90
-0.782208 0.128489 -0.120196 55
-0.772312 0.126139 -0.172389 52
-2.64785 0.932518 0.639018 49
-2.8117 0.454309 0.752828 49
-2.67902 0.943002 0.443295 47
-2.8244 0.461342 0.549036 49
-2.82538 0.465513 0.346834 49
-2.83718 0.469453 0.148896 53
-0.622015 0.217943 -0.0328189 56
-0.689543 0.118006 -0.0116058 3
-0.640476 0.10985 -0.0537113 90
-0.779088 0.132185 -0.119804 55
-0.769236 0.12979 -0.171827 50
-2.65097 0.938305 0.640141 50
-2.80613 0.458445 0.751536 49
-2.67272 0.946026 0.442514 45
-2.82117 0.465875 0.54856 50
-2.81966 0.469637 0.346225 49
-2.83882 0.474812 0.149027 59
-0.62634 0.220698 -0.0330815 56
-0.689336 0.119209 -0.0116058 4
-0.640283 0.110968 -0.0537113 90
-0.781292 0.133947 -0.120196 55
-0.77622 0.132316 -0.173512 52
-2.64357 0.951807 0.63958 50
-2.80607 0.473529 0.752182 49
-2.65843 0.956658 0.440953 45
-2.81385 0.479823 0.547607 47
-2.81472 0.483977 0.345921 50
-2.83629 0.48967 0.149027 58
-0.622788 0.223236 -0.0329502 56
-0.683774 0.121973 -0.0115186 4
-1.42898 0.514676 -0.181936 4
-0.639673 0.114431 -0.0537113 88
-0.78058 0.138036 -0.120196 55
-0.770713 0.135565 -0.172389 52
-2.63961 0.95559 0.639018 50
-2.80286 0.478024 0.751536 49
-2.6614 0.962979 0.441734 47
-2.8105 0.484812 0.54713 49
-2.81876 0.489731 0.34653 53
-1.43388 0.518434 0.0260041 4
-2.83297 0.494194 0.148896 59
-0.627091 0.226025 -0.0332127 56
-0.693412 0.124871 -0.0116931 8
-1.43741 0.520558 -0.183153 4
-0.637019 0.115122 -0.0534938 88
-0.777904 0.138979 -0.119804 55
-0.770475 0.13691 -0.172389 52
-2.63669 0.9707 0.63958 50
-2.80023 0.493182 0.751536 49
-2.65384 0.97651 0.441344 47
-2.80793 0.499521 0.54713 50
-2.81851 0.505408 0.346834 55
-1.44287 0.530256 0.0262222 4
-2.83026 0.509515 0.148896 67
-0.625899 0.229306 -0.0332127 56
-0.690266 0.128181 -0.0116495 8
-1.42992 0.526608 -0.182544 4
-0.638859 0.118894 -0.0537113 88
-0.779597 0.143482 -0.120196 55
-0.767324 0.140652 -0.171827 52
-2.63288 0.973994 0.639018 50
-2.79223 0.496811 0.749597 49
-2.6523 0.980678 0.441344 49
-2.80464 0.503991 0.546653 49
-2.81772 0.509835 0.346834 55
-1.43726 0.531036 0.026135 4
-2.82454 0.513076 0.148634 55
-0.625498 0.230398 -0.0332127 58
-0.690041 0.129386 -0.0116495 9
-1.43839 0.532307 -0.183761 4
-0.63865 0.120008 -0.0537113 85
-1.3054 0.483724 -0.26332 4
-0.776915 0.144406 -0.119804 55
-0.764704 0.141429 -0.171266 52
-2.62546 0.986908 0.638457 50
-2.79206 0.511369 0.750244 50
-2.6402 0.991943 0.440173 50
-2.80929 0.519506 0.548083 52
-2.81013 0.523681 0.346225 53
-1.44859 0.543586 0.0263968 4
-2.82427 0.528313 0.148765 55
-0.624283 0.23367 -0.0332127 58
-0.691835 0.133333 -0.0116931 8
-1.4263 0.536329 -0.182544 4
-0.635565 0.122896 -0.0534938 79
-1.30294 0.490325 -0.26332 4
-0.776148 0.148472 -0.119804 53
-0.768745 0.146312 -0.172389 52
-2.62601 0.992351 0.639018 50
-2.79116 0.516241 0.750244 50
-2.63615 0.995676 0.439783 50
-2.80588 0.524452 0.547607 52
-2.80921 0.528584 0.346225 52
-1.44988 0.547251 0.0264404 4
-2.82089 0.532782 0.148634 56
-0.621539 0.233875 -0.0330815 56
-0.684231 0.133158 -0.0115622 9
-1.43 0.540576 -0.183153 4
-0.640245 0.124923 -0.0539288 79
-1.29749 0.490857 -0.262367 3
-0.780742 0.150733 -0.120587 55
-0.773279 0.148543 -0.173512 50
-2.61151 1.00305 0.636772 50
-2.78833 0.531335 0.750244 50
-2.63073 1.00992 0.439783 50
-2.80309 0.539136 0.547607 50
-1.47447 0.565104 0.135091 4
-2.80387 0.543308 0.345921 50
-1.447 0.554835 0.0264404 4
-2.82287 0.548982 0.148896 58
-0.620306 0.237126 -0.0330815 55
-0.678592 0.135911 -0.011475 8
-1.434 0.550982 -0.184065 4
-0.637136 0.127802 -0.0537113 77
-1.2994 0.499637 -0.26332 4
-0.775066 0.154022 -0.119804 53
-0.770071 0.152267 -0.17295 52
-2.6122 1.00803 0.637333 50
-2.7874 0.536201 0.750244 49
-2.62666 1.01362 0.439392 52
-2.80215 0.544028 0.547607 50
-1.47813 0.569471 0.135527 4
-2.80048 0.547728 0.345617 50
-1.44369 0.556458 0.0263968 4
-2.81946 0.553431 0.148765 61
-0.626877 0.240909 -0.0334753 58
-0.680807 0.137573 -0.0115186 8
-1.43304 0.553484 -0.184065 4
-0.639357 0.12939 -0.0539288 77
-1.29395 0.500129 -0.262367 3
-0.774796 0.155375 -0.119804 53
-0.769804 0.153611 -0.17295 50
-2.61369 1.02436 0.639018 50
-2.77991 0.549374 0.748951 49
-2.62149 1.02691 0.439392 50
-2.79213 0.556776 0.546177 49
-1.47291 0.576036 0.135309 4
-2.79524 0.561411 0.345313 50
-1.44551 0.565584 0.026484 4
-2.81662 0.567694 0.148765 70
-0.623283 0.243276 -0.033344 58
-0.680102 0.141017 -0.0115186 4
-1.43022 0.56073 -0.184065 4
-0.636229 0.132247 -0.0537113 74
-1.29596 0.50847 -0.26332 3
-0.771578 0.158811 -0.119413 52
-0.766627 0.157031 -0.172389 52
-2.60963 1.02803 0.638457 50
-2.77894 0.554225 0.748951 49
-2.6174 1.03057 0.439002 52
-2.79106 0.562136 0.546177 50
-1.47654 0.580432 0.135745 4
-2.80156 0.567756 0.346225 55
-1.4514 0.57111 0.0266149 4
-2.81807 0.573103 0.148896 90
-0.62518 0.24528 -0.0334753 58
-0.677405 0.141709 -0.011475 4
-1.42231 0.56049 -0.183153 4
-0.638438 0.13385 -0.0539288 74
-1.29964 0.512536 -0.264272 3
-0.776141 0.161132 -0.120196 52
-0.766352 0.158369 -0.172389 50
-2.60403 1.04213 0.638457 50
-2.77591 0.569252 0.748951 49
-2.60949 1.0438 0.438612 52
-2.79289 0.577728 0.54713 50
-1.47569 0.589338 0.135963 4
-2.8033 0.583909 0.346834 59
-1.44143 0.575913 0.026484 4
-2.81737 0.588848 0.149027 98
-0.62157 0.247621 -0.033344 58
-0.688865 0.147913 -0.0116931 4
-1.41926 0.568177 -0.183153 4
-0.63529 0.136685 -0.0537113 73
-1.30368 0.522305 -0.265701 4
-0.770451 0.164194 -0.119413 52
-0.763098 0.162022 -0.171827 52
-2.60465 1.04713 0.639018 49
-2.77254 0.573611 0.748305 49
-2.61014 1.04882 0.439002 53
-2.78947 0.582104 0.546653 52
-1.47004 0.590053 0.135527 4
-2.79995 0.587806 0.34653 61
-1.4381 0.577495 0.0264404 4
-2.81156 0.592252 0.148765 98
-0.628084 0.251504 -0.0337378 58
-0.68616 0.148602 -0.0116495 3
-1.42757 0.574117 -0.18437 4
-0.637488 0.138304 -0.0539288 70
-1.29821 0.522742 -0.264748 3
-0.774997 0.166547 -0.120196 53
-0.767613 0.16421 -0.17295 50
-2.59462 1.05891 0.637895 50
-2.7696 0.587637 0.748305 49
-2.60004 1.06061 0.438222 52
-2.78649 0.596215 0.546653 52
-1.47164 0.599369 0.135963 4
-2.80169 0.603495 0.347138 68
-1.43285 0.583821 0.0263968 4
-2.80842 0.606965 0.148765 103
-0.626758 0.254789 -0.0337378 58
-0.690287 0.153123 -0.0117367 3
-1.41536 0.577824 -0.183153 4
-0.636755 0.14164 -0.0539288 70
-1.30237 0.532097 -0.266177 4
-0.774115 0.170602 -0.120196 52
-0.769125 0.168735 -0.173512 50
-2.59728 1.06529 0.639018 50
-2.76857 0.59247 0.748305 50
-2.59818 1.06514 0.438222 52
-2.78534 0.601564 0.546653 52
-1.46368 0.599101 0.135309 4
-2.79578 0.607339 0.34653 61
-1.43635 0.58847 0.026484 4
-2.81224 0.612921 0.149027 90
-0.624004 0.254934 -0.0336066 58
-0.687575 0.153799 -0.0116931 3
-1.41665 0.581238 -0.183457 4
-0.641375 0.143805 -0.0543637 68
-1.29917 0.533435 -0.265701 3
-0.768989 0.170911 -0.119413 52
-0.766448 0.169565 -0.17295 52
-2.59148 1.07932 0.639018 49
-2.76297 0.606926 0.747659 49
-2.58783 1.07728 0.437441 52
-2.77975 0.615613 0.546177 50
-1.46961 0.610843 0.136181 4
-2.79003 0.62192 0.346225 55
-1.43786 0.597906 0.0265713 4
-2.804 0.627046 0.148765 65
-0.627269 0.260119 -0.0338691 58
-0.686733 0.157516 -0.0116931 3
-1.41577 0.58985 -0.183761 4
-0.635751 0.146082 -0.0539288 67
-1.28947 0.537616 -0.264272 3
-0.770463 0.175603 -0.119804 52
-0.767898 0.174234 -0.173512 52
-2.75954 0.611229 0.747013 50
-2.59277 1.08466 0.438612 52
-2.77388 0.619402 0.545224 49
-1.46855 0.613407 0.136181 4
-2.78168 0.625169 0.345313 50
-1.44143 0.602347 0.0266585 4
-2.80047 0.631394 0.148634 59
-0.624511 0.260249 -0.0337378 58
-0.684018 0.158168 -0.0116495 3
-1.42618 0.597122 -0.185282 4
-0.637925 0.147735 -0.0541462 65
-1.29079 0.540817 -0.264748 3
-0.770156 0.176948 -0.119804 52
-0.767593 0.175574 -0.173512 52
-2.75631 0.62567 0.747013 49
-2.58479 1.09726 0.438222 50
-2.77299 0.634461 0.5457 50
-1.4699 0.623035 0.136617 4
-2.78078 0.640278 0.345617 52
-1.43135 0.606952 0.0265277 4
-2.79956 0.646606 0.148765 76
-0.625437 0.264492 -0.0338691 58
-0.680744 0.161188 -0.0116058 3
-1.4139 0.600692 -0.184065 4
-0.637143 0.151073 -0.0541462 64
-1.27891 0.543718 -0.262844 3
-0.764436 0.179743 -0.119021 50
-0.764288 0.17905 -0.17295 50
-2.75757 0.631014 0.747659 49
-2.63529 1.12362 0.447197 50
-2.77428 0.639847 0.546177 52
-1.46194 0.622666 0.135963 4
-2.78219 0.645202 0.345921 61
-1.43029 0.609449 0.0265277 8
-2.80097 0.651565 0.148896 90
-0.620383 0.263621 -0.0336066 58
-0.687768 0.164067 -0.0117367 3
-1.41524 0.603888 -0.18437 4
-0.639305 0.152746 -0.0543637 64
-1.28247 0.547882 -0.263796 4
-0.768933 0.182186 -0.119804 52
-0.768755 0.181339 -0.174073 52
-2.74963 0.64387 0.746366 50
-2.61125 1.12955 0.444075 42
-2.76622 0.652762 0.545224 50
-1.46562 0.633026 0.136617 4
-2.77636 0.659191 0.345617 71
-1.42719 0.616681 0.0265277 8
-2.79023 0.664498 0.148503 116
-0.623576 0.268852 -0.0338691 58
-0.686928 0.167546 -0.0117367 3
-1.41205 0.61129 -0.18437 4
-0.636073 0.155518 -0.0541462 64
-1.28869 0.558277 -0.265701 3
-0.767969 0.186209 -0.119804 50
-0.978118 0.424159 -0.276109 3
-0.767795 0.185362 -0.174073 50
-2.75085 0.649219 0.747013 49
-2.74512 1.19323 0.467489 17
-2.76735 0.658636 0.5457 52
-1.45995 0.633596 0.136181 4
-2.77762 0.664609 0.345921 73
-1.43746 0.624409 0.0267458 4
-2.78907 0.669367 0.148503 115
-0.627683 0.271934 -0.0341317 58
-1.41554 0.615737 -0.184978 4
-0.638223 0.157206 -0.0543637 64
-1.28771 0.560526 -0.265701 4
-0.767643 0.18755 -0.119804 52
-0.981726 0.427972 -0.277403 3
-0.769841 0.187263 -0.174635 50
-2.84684 1.25644 0.709209 27
-2.74965 0.664656 0.747659 45
-2.7183 1.19908 0.463977 15
-2.76148 0.67254 0.545224 50
-1.46106 0.643498 0.136617 4
-2.7764 0.680214 0.346225 71
-1.43874 0.633947 0.0268331 4
-2.78541 0.684448 0.148503 104
-0.623967 0.274208 -0.0340004 58
-1.41218 0.623387 -0.184978 3
-0.639811 0.161136 -0.0545811 62
-1.27793 0.564503 -0.264272 4
-0.769049 0.19215 -0.120196 50
-0.975057 0.431148 -0.276109 4
-0.766449 0.190851 -0.174073 50
-2.82037 1.25004 0.703032 29
-2.74849 0.669455 0.747659 33
-2.72093 1.20536 0.464757 11
-2.76507 0.67852 0.546177 52
-1.45765 0.645037 0.136399 4
-2.77291 0.683984 0.345921 56
-1.43535 0.635443 0.0267894 4
-2.78918 0.690013 0.148765 96
-0.625769 0.27631 -0.0341317 58
-1.418 0.628628 -0.185891 4
-0.639528 0.162252 -0.0545811 62
-1.28591 0.570724 -0.266177 3
-0.763917 0.192316 -0.119413 50
-0.98092 0.435799 -0.278049 4
-0.770881 0.193211 -0.175197 49
-2.76713 1.24379 0.69124 24
-2.74506 0.683357 0.747659 49
-2.71908 1.22161 0.465537 12
-2.75922 0.691914 0.5457 52
-1.4521 0.651385 0.136181 4
-2.77411 0.699699 0.34653 65
-1.42984 0.641675 0.0267458 4
-2.78553 0.704608 0.148765 99
-0.619761 0.277532 -0.0338691 58
-1.41243 0.635024 -0.185587 4
-0.63867 0.165599 -0.0545811 61
-1.27853 0.575207 -0.265224 3
-0.767689 0.197515 -0.120196 50
-0.9721 0.437775 -0.276109 3
-0.767495 0.196654 -0.174635 49
-2.74054 1.23758 0.685063 53
-2.74387 0.688147 0.747659 45
-2.7237 1.22941 0.466708 15
-2.75789 0.69721 0.5457 50
-1.44869 0.652893 0.135963 4
-2.77288 0.70454 0.34653 79
-1.42177 0.641329 0.0266149 8
-2.78187 0.708856 0.148634 104
-0.623825 0.280672 -0.0341317 58
-1.41358 0.638512 -0.185891 4
-0.640794 0.167325 -0.0547986 59
-1.26858 0.573385 -0.26332 3
