# .PCD v0.7 - Point Cloud Data file format
VERSION 0.7
FIELDS x y z intensity
SIZE 4 4 4 4
TYPE F F F F
COUNT 1 1 1 1
WIDTH 1550
HEIGHT 1
VIEWPOINT 0 0 0 1 0 0 0
POINTS 1550
DATA ascii
0.0983459 -2.28896 -0.197014 61
-0.301462 -2.27294 -0.438073 52
0.100157 -2.29421 -0.35863 50
-0.302076 -2.26561 -0.602656 59
0.102013 -2.28334 -0.518851 45
0.250098 -5.79394 1.54249 12
0.231547 -5.59342 1.08044 26
-0.305255 -2.23572 0.194357 12
0.223967 -5.59848 0.682715 29
-0.310495 -2.27098 0.0393988 77
0.0873848 -2.29489 0.118541 79
-0.310174 -2.26571 -0.118411 65
0.0864012 -2.29018 -0.0393988 90
-0.312541 -2.27415 -0.277163 55
0.0870578 -2.29689 -0.197666 61
-0.312626 -2.26896 -0.437596 50
0.0881432 -2.2947 -0.35863 52
-0.312874 -2.25927 -0.601362 59
0.0902588 -2.28871 -0.519974 45
-0.784868 -5.65201 1.30724 18
0.230502 -5.56997 1.48239 14
0.22099 -5.57419 1.07663 24
-0.309842 -2.24012 0.194793 12
0.214972 -5.61869 0.685149 20
-0.315147 -2.27539 0.0394861 73
0.0832835 -2.29254 0.11841 83
-0.314472 -2.26764 -0.118542 61
0.0822138 -2.28534 -0.0393115 90
-0.31651 -2.2736 -0.277163 55
0.0829536 -2.29455 -0.197449 64
-0.317607 -2.2757 -0.439025 52
0.0839468 -2.28992 -0.357847 49
-0.319175 -2.27546 -0.605889 56
0.0860703 -2.284 -0.518851 45
-0.817878 -5.66455 1.31117 21
0.200888 -5.55904 1.47916 14
-0.814228 -5.64619 0.895955 30
0.192579 -5.59735 1.08092 14
-0.321923 -2.24093 0.195011 11
0.187733 -5.68422 0.693059 26
-0.326699 -2.27123 0.0394424 71
0.0711959 -2.29045 0.118279 88
-0.327413 -2.27337 -0.118936 64
0.0703288 -2.28823 -0.0393552 90
-0.328054 -2.26946 -0.276859 56
0.0709383 -2.29496 -0.197449 64
-0.328812 -2.26915 -0.438073 52
0.071873 -2.28786 -0.357455 50
-0.330386 -2.26898 -0.604595 59
0.0741944 -2.28685 -0.519413 45
-0.822545 -5.63434 1.30443 15
0.192377 -5.59317 1.48821 14
-0.82158 -5.62766 0.893223 27
0.185194 -5.66881 1.09474 15
-0.326194 -2.24283 0.195229 12
0.176856 -5.65478 0.689408 38
-0.331024 -2.27313 0.0394861 70
0.0671982 -2.29057 0.118279 88
-0.33138 -2.2728 -0.118936 61
0.0662573 -2.28585 -0.0393115 90
-0.332375 -2.27133 -0.277163 53
0.0668549 -2.29259 -0.197231 64
-0.333487 -2.27343 -0.439025 50
0.0680366 -2.29292 -0.358238 50
-0.334346 -2.2684 -0.604595 58
0.0700431 -2.28211 -0.51829 47
-0.850824 -5.61535 1.30106 15
0.164611 -5.64479 1.50178 14
-0.848074 -5.60375 0.890101 26
0.156204 -5.69423 1.0995 26
-0.337932 -2.24109 0.195229 11
0.148379 -5.6978 0.694581 35
-0.343671 -2.27631 0.0395733 67
0.0552039 -2.29089 0.118279 90
-0.343276 -2.27103 -0.118936 59
0.0542877 -2.28617 -0.0393115 90
-0.344263 -2.26956 -0.277163 53
0.0547853 -2.29042 -0.197014 68
-0.345015 -2.26922 -0.438549 52
0.0559646 -2.29077 -0.357847 50
-0.346219 -2.26662 -0.604595 58
0.0580931 -2.28245 -0.51829 47
-0.857058 -5.59715 1.29713 15
0.156329 -5.70059 1.51664 20
-0.857479 -5.59982 0.889711 27
0.14633 -5.69695 1.09998 23
-0.341089 -2.23558 0.194793 11
0.138185 -5.68813 0.693364 29
-0.346886 -2.27077 0.0394861 61
0.0512665 -2.29348 0.11841 90
-0.347997 -2.27536 -0.119198 59
0.0503577 -2.28876 -0.0393552 90
-0.34709 -2.2616 -0.27625 50
0.0507877 -2.29051 -0.197014 70
-0.34935 -2.27104 -0.439025 50
0.0519664 -2.29087 -0.357847 52
-0.350174 -2.26601 -0.604595 58
0.0541094 -2.28254 -0.51829 47
-0.884652 -5.57559 1.2932 15
0.126256 -5.69168 1.51406 17
-0.883303 -5.5733 0.886199 26
0.116238 -5.68537 1.0976 15
-0.35396 -2.24114 0.195447 11
0.107857 -5.66148 0.690017 23
-0.359554 -2.27386 0.0395733 59
0.0392092 -2.29122 0.118279 90
-0.359911 -2.27098 -0.119067 58
0.0384203 -2.29149 -0.0393988 90
-0.36088 -2.27201 -0.277771 53
0.0383473 -2.28826 -0.196796 71
-0.361236 -2.26918 -0.439025 50
0.0398742 -2.28617 -0.357064 52
-0.363182 -2.2713 -0.606535 56
0.0421573 -2.2828 -0.51829 47
-0.89245 -5.56201 1.29039 15
0.115859 -5.67016 1.50824 14
-0.851541 -5.31331 0.844835 1
0.104704 -5.65368 1.0914 14
-0.357082 -2.2356 0.195011 11
0.0973004 -5.62444 0.685453 30
-0.363522 -2.27069 0.0395297 58
0.0352538 -2.29378 0.11841 90
-0.363477 -2.26789 -0.118936 56
0.0344636 -2.29405 -0.0394424 90
-0.36366 -2.26402 -0.276859 52
0.0343108 -2.28583 -0.196579 71
-0.365979 -2.2734 -0.439977 50
0.035928 -2.28871 -0.357455 52
-0.36793 -2.27298 -0.607182 56
0.038173 -2.28287 -0.51829 47
-0.926925 -5.58354 1.29657 15
0.0846041 -5.63448 1.49855 14
-0.929231 -5.60338 0.892053 18
0.0744413 -5.60753 1.08235 20
-0.369173 -2.23364 0.195011 11
0.0668363 -5.62241 0.685149 32
-0.374588 -2.26383 0.0394424 55
0.0227827 -2.28895 0.118148 90
-0.376985 -2.2758 -0.119461 56
0.0220511 -2.29421 -0.0394424 90
-0.376313 -2.26447 -0.277163 52
0.0223418 -2.28598 -0.196579 73
-0.378274 -2.27138 -0.439977 50
0.0239439 -2.28886 -0.357455 52
-0.379026 -2.26626 -0.605889 58
0.0258538 -2.28548 -0.518851 47
-0.940534 -5.61091 1.3033 15
0.074053 -5.58391 1.48498 14
-0.944566 -5.64088 0.898296 20
0.0648367 -5.62237 1.0852 23
-0.373894 -2.2379 0.195447 11
0.0581709 -5.63739 0.686975 30
-0.37978 -2.27057 0.0395733 56
0.0192394 -2.29398 0.11841 90
-0.380956 -2.27514 -0.119461 56
0.0180221 -2.29174 -0.0393988 90
-0.380693 -2.26877 -0.277771 52
0.018352 -2.28602 -0.196579 73
-0.381829 -2.2683 -0.439501 52
0.0199491 -2.2889 -0.357455 52
-0.383385 -2.26798 -0.606535 58
0.0222059 -2.28064 -0.517728 47
-0.974059 -5.62991 1.30892 15
0.0458114 -5.58663 1.48562 15
-0.980406 -5.67235 0.90415 26
0.0364506 -5.63245 1.08711 24
-0.383944 -2.22862 0.194793 11
0.0287854 -5.65995 0.689713 30
-0.389988 -2.26122 0.0394424 55
0.00721494 -2.29155 0.118279 90
-0.39204 -2.27072 -0.11933 55
0.00642233 -2.2918 -0.0393988 90
-0.391293 -2.25941 -0.276859 50
0.00679387 -2.28857 -0.196796 76
-0.393305 -2.26634 -0.439501 50
0.0079504 -2.2865 -0.357064 52
-0.395275 -2.26839 -0.607182 58
0.0102642 -2.28073 -0.517728 47
-0.991295 -5.67637 1.32015 23
0.0361847 -5.6036 1.49015 15
-0.995409 -5.69982 0.908832 32
0.0266886 -5.64477 1.08949 23
-0.387833 -2.22794 0.194793 11
0.0189692 -5.67488 0.691538 30
-0.393934 -2.26054 0.0394424 53
0.00322414 -2.29405 0.11841 90
-0.396433 -2.27249 -0.119461 53
0.00242237 -2.29181 -0.0393988 92
-0.395665 -2.26117 -0.277163 50
0.00279129 -2.28609 -0.196579 79
-0.397685 -2.26806 -0.439977 50
0.00395969 -2.28651 -0.357064 53
-0.399654 -2.27007 -0.607829 56
0.0062717 -2.2783 -0.517167 47
-1.02286 -5.67571 1.32127 21
0.00686418 -5.61338 1.49273 14
-1.01954 -5.66294 0.903759 20
-0.00286077 -5.66447 1.09331 21
-0.399934 -2.22833 0.195011 9
-0.0107653 -5.69476 0.693972 35
-0.405765 -2.25845 0.0394424 53
-0.00878748 -2.29404 0.11841 90
-0.40877 -2.27284 -0.119592 53
-0.00958274 -2.29429 -0.0394424 96
-0.408825 -2.26639 -0.278076 50
-0.00917384 -2.28358 -0.196362 82
-0.410431 -2.27078 -0.44093 50
-0.00801247 -2.2865 -0.357064 53
-0.411102 -2.26557 -0.607182 56
-0.00565836 -2.28074 -0.517728 47
-1.02566 -5.64055 1.31341 14
-0.00291869 -5.65444 1.50372 14
-1.02058 -5.61256 0.895955 15
-0.0127848 -5.69145 1.09855 21
-0.404714 -2.23253 0.195447 9
-0.0207877 -5.72451 0.697623 36
-0.411945 -2.27003 0.0396606 53
-0.0127913 -2.29402 0.11841 90
-0.412289 -2.26967 -0.119461 53
-0.0135678 -2.28927 -0.0393552 96
-0.412333 -2.26323 -0.277771 50
-0.0131594 -2.28356 -0.196362 82
-0.414836 -2.27247 -0.441406 50
-0.0120109 -2.28896 -0.357455 52
-0.416366 -2.27198 -0.609122 58
-0.00963389 -2.27829 -0.517167 47
-1.0495 -5.59403 1.30387 14
-0.0336586 -5.68332 1.51147 15
-1.04592 -5.58026 0.891662 15
-0.0436951 -5.70848 1.10189 27
-0.414951 -2.22052 0.194575 9
-0.0517394 -5.72183 0.697319 32
-0.42376 -2.26531 0.039617 53
-0.0252029 -2.29392 0.11841 90
-0.424563 -2.26741 -0.119461 52
-0.0259769 -2.29167 -0.0393988 97
-0.425491 -2.26585 -0.27838 49
-0.025537 -2.28595 -0.196579 82
-0.42576 -2.26296 -0.439977 49
-0.023975 -2.28639 -0.357064 53
-0.427303 -2.26257 -0.607182 56
-0.021997 -2.28308 -0.51829 47
-1.05239 -5.56126 1.29657 14
-0.0437093 -5.70257 1.51664 18
-0.0535113 -5.69121 1.09855 17
-0.420679 -2.22958 0.195447 9
-0.0605817 -5.70685 0.695493 26
-0.428178 -2.26703 0.0396606 53
-0.0288062 -2.29387 0.11841 90
-0.42945 -2.27157 -0.119723 52
-0.030004 -2.29412 -0.0394424 97
-0.42905 -2.26518 -0.27838 50
-0.0295267 -2.2859 -0.196579 82
-0.431087 -2.26945 -0.441406 50
-0.0279654 -2.28635 -0.357064 53
-0.431705 -2.26419 -0.607829 56
-0.0255611 -2.28061 -0.517728 47
-1.07777 -5.53654 1.29207 15
-0.072314 -5.68054 1.51083 15
-0.0820156 -5.66878 1.09426 15
-0.43291 -2.23231 0.195883 9
-0.438692 -2.25992 0.0395733 49
-0.0408164 -2.29369 0.11841 90
-0.44086 -2.26684 -0.119592 50
-0.041575 -2.29144 -0.0393988 98
-0.440428 -2.26046 -0.278076 50
-0.0414952 -2.28571 -0.196579 83
-0.44304 -2.26964 -0.441882 50
-0.0399363 -2.28617 -0.357064 53
-0.444092 -2.26672 -0.609122 56
-0.0374671 -2.27801 -0.517167 47
-1.10107 -5.60397 1.30836 14
-0.0818338 -5.65143 1.50307 14
-1.10122 -5.60988 0.897906 21
-0.0924413 -5.63917 1.08854 15
-0.436806 -2.23155 0.195883 9
-0.443512 -2.26153 0.039617 53
-0.044776 -2.29112 0.118279 90
-0.444816 -2.26607 -0.119592 50
-0.0455743 -2.29136 -0.0393988 98
-0.444853 -2.26212 -0.27838 49
-0.0454845 -2.28564 -0.196579 86
-0.446524 -2.26646 -0.441406 50
-0.0438841 -2.28363 -0.356672 53
-0.448913 -2.26823 -0.609768 56
-0.0414429 -2.27794 -0.517167 47
-1.12461 -5.5645 1.3005 14
-0.112088 -5.634 1.49855 14
-1.12324 -5.56269 0.891272 20
-0.121355 -5.60916 1.08282 15
-0.451339 -2.24136 0.196972 8
-0.0550666 -2.26726 0.273816 9
-0.456338 -2.26408 0.0397042 52
-0.0571715 -2.29085 0.118279 90
-0.456674 -2.26371 -0.119592 50
-0.057913 -2.28858 -0.0393552 99
-0.456593 -2.25725 -0.278076 47
-0.0574514 -2.28537 -0.196579 86
-0.458781 -2.26401 -0.441406 50
-0.0558405 -2.28337 -0.356672 53
-0.461748 -2.27058 -0.611062 58
-0.0537147 -2.27524 -0.516605 47
-1.13091 -5.55079 1.29769 14
-0.121219 -5.59999 1.4895 14
-1.13494 -5.57544 0.893613 14
-0.130647 -5.58686 1.07853 15
-0.45326 -2.23081 0.1961 8
-0.0587457 -2.27213 0.274425 11
-0.460788 -2.26572 0.0397479 52
-0.0608918 -2.29574 0.118541 90
-0.462123 -2.27024 -0.119986 50
-0.0619072 -2.28848 -0.0393552 98
-0.46163 -2.26383 -0.278988 50
-0.0613783 -2.28277 -0.196362 86
-0.463717 -2.26802 -0.442358 50
-0.0597662 -2.2808 -0.356281 53
-0.466197 -2.27214 -0.611708 56
-0.0572886 -2.27516 -0.516605 47
-1.2079 -5.7737 1.3516 3
-0.148875 -5.57275 1.48239 14
-1.21975 -5.83529 0.936538 2
-0.160006 -5.62538 1.08616 15
-0.467094 -2.24068 0.19719 8
-0.070498 -2.26683 0.273816 11
-0.472762 -2.26581 0.0397915 50
-0.0727633 -2.2904 0.118279 90
-0.474004 -2.26779 -0.119986 50
-0.0735644 -2.29063 -0.0393988 99
-0.473476 -2.26138 -0.278988 49
-0.0733299 -2.28242 -0.196362 86
-0.475696 -2.26804 -0.442834 50
-0.0717075 -2.28045 -0.356281 53
-0.476195 -2.26266 -0.609768 56
-0.0692694 -2.27726 -0.517167 47
-1.2215 -5.78826 1.35553 26
-0.1594 -5.60145 1.49015 14
-1.22178 -5.79449 0.930295 21
-0.172398 -5.67903 1.09664 15
-0.471004 -2.23986 0.19719 4
-0.074378 -2.26423 0.273512 9
-0.477112 -2.2649 0.0397915 52
-0.0767607 -2.29027 0.118279 90
-0.477961 -2.26696 -0.119986 49
-0.0774034 -2.2855 -0.0393115 99
-0.477937 -2.26298 -0.279293 49
-0.0773134 -2.28229 -0.196362 89
-0.479145 -2.26481 -0.442358 50
-0.0757642 -2.28279 -0.356672 53
-0.0732438 -2.27714 -0.517167 47
-0.191138 -5.64396 1.50178 14
-0.483643 -2.23971 0.197408 4
-0.488964 -2.26237 0.0397915 50
-0.0890592 -2.28733 0.118148 90
-0.489824 -2.26443 -0.119986 50
-0.0901396 -2.29504 -0.0394861 99
-0.491756 -2.26763 -0.280205 49
-0.0892623 -2.28185 -0.196362 86
-0.492958 -2.26938 -0.443787 50
-0.0881142 -2.28235 -0.356672 53
-0.0854769 -2.27427 -0.516605 47
-0.20275 -5.6943 1.51535 17
-0.48702 -2.23643 0.19719 8
-0.492912 -2.26151 0.0397915 50
-0.0931475 -2.28967 0.118279 90
-0.493775 -2.26357 -0.119986 49
-0.0940478 -2.29238 -0.0394424 99
-0.49465 -2.26192 -0.279597 49
-0.0932448 -2.28169 -0.196362 89
-0.495865 -2.26372 -0.442834 50
-0.0920975 -2.28219 -0.356672 53
-0.0895366 -2.27655 -0.517167 47
-0.231501 -5.66662 1.50824 14
-0.497635 -2.22899 0.196754 4
-0.504746 -2.2589 0.0397915 50
-0.105463 -2.29663 0.118672 90
-0.505074 -2.25852 -0.119855 49
-0.106049 -2.29186 -0.0394424 99
-0.505942 -2.25688 -0.279293 49
-0.105409 -2.28615 -0.196796 88
-0.507711 -2.26109 -0.442834 50
-0.103861 -2.28663 -0.357455 52
-0.101765 -2.28335 -0.518851 47
-0.237261 -5.56727 1.48175 12
-0.503718 -2.23783 0.197626 4
-0.509239 -2.26045 0.0398351 50
-0.108844 -2.29147 0.11841 90
-0.508465 -2.2552 -0.119723 49
-0.110049 -2.29167 -0.0394424 99
-0.508938 -2.25366 -0.278988 30
-0.109399 -2.28596 -0.196796 89
-0.511657 -2.2602 -0.442834 8
-0.107741 -2.28398 -0.357064 53
-0.10503 -2.27589 -0.517167 47
-0.266114 -5.58047 1.48562 15
-0.515038 -2.23526 0.197626 4
-0.518984 -2.25054 0.0397042 35
-0.120967 -2.29336 0.118541 90
-0.518013 -2.24278 -0.119198 11
-0.121647 -2.29109 -0.0394424 99
-0.51961 -2.24613 -0.27838 30
-0.121621 -2.29033 -0.197231 86
-0.521424 -2.25041 -0.441406 8
-0.119822 -2.28585 -0.357455 52
-0.117185 -2.28018 -0.51829 45
-0.275971 -5.58241 1.48627 15
-0.518374 -2.23193 0.197408 4
-0.295406 -5.62001 0.685758 29
-0.523872 -2.25198 0.0397479 3
-0.124969 -2.29315 0.118541 90
-0.521927 -2.24187 -0.119198 11
-0.125514 -2.28837 -0.0393988 98
-0.5224 -2.24039 -0.277771 3
-0.125224 -2.28266 -0.196579 82
-0.524791 -2.24711 -0.44093 4
-0.123426 -2.27824 -0.356281 53
-0.120668 -2.27024 -0.516044 45
-0.305129 -5.56155 1.4811 15
-0.53102 -2.23151 0.197626 4
-0.332745 -5.73972 0.700665 36
-0.532172 -2.23461 0.0394861 8
-0.137518 -2.29493 0.118672 90
-0.533077 -2.23668 -0.119067 11
-0.138038 -2.29016 -0.0394424 99
-0.536247 -2.24477 -0.278684 4
-0.137463 -2.28694 -0.197014 86
-0.535224 -2.23708 -0.439501 8
-0.136176 -2.28493 -0.357455 53
-0.133499 -2.27928 -0.51829 47
-0.318329 -5.6237 1.4979 14
-0.333574 -5.71856 1.1057 24
-0.53375 -2.22574 0.19719 11
-0.341887 -5.72427 0.69884 29
-0.536072 -2.23368 0.0394861 9
-0.141227 -2.2897 0.11841 90
-0.535811 -2.23089 -0.118804 11
-0.142035 -2.28991 -0.0394424 98
-0.539582 -2.24142 -0.27838 9
-0.141157 -2.28173 -0.196579 82
-0.542011 -2.24807 -0.441882 9
-0.140164 -2.28469 -0.357455 52
-0.137052 -2.27175 -0.516605 45
-0.352475 -5.69909 1.51858 20
-0.363051 -5.70938 1.10427 21
-0.543611 -2.21566 0.196536 9
-0.368995 -5.67783 0.693364 27
-0.545967 -2.22356 0.0393552 11
-0.153375 -2.29142 0.118541 90
-0.549276 -2.23532 -0.119198 12
-0.154186 -2.29163 -0.0394861 98
-0.550121 -2.23374 -0.277771 11
-0.153425 -2.28593 -0.197014 82
-0.553774 -2.2452 -0.441882 9
-0.152125 -2.28393 -0.357455 52
-0.149562 -2.28072 -0.518851 47
-0.361665 -5.68642 1.51535 15
-0.369856 -5.65976 1.09474 15
-0.546879 -2.21229 0.196318 9
-0.375315 -5.6227 0.68667 21
-0.549847 -2.22261 0.0393552 11
-0.157042 -2.28617 0.118279 90
-0.550771 -2.22467 -0.118673 11
-0.158018 -2.28886 -0.0394424 97
-0.554618 -2.23519 -0.278076 9
-0.157249 -2.28317 -0.196796 82
-0.555912 -2.23708 -0.440453 11
-0.155784 -2.27873 -0.356672 53
-0.153225 -2.2756 -0.517728 45
-0.389468 -5.65553 1.5076 14
-0.396412 -5.61368 1.08616 14
-0.558455 -2.2094 0.196318 9
-0.402989 -5.59591 0.683628 30
-0.561477 -2.2197 0.0393552 11
-0.169189 -2.28781 0.11841 90
-0.564254 -2.22902 -0.119067 12
-0.170001 -2.28801 -0.0394424 97
-0.565702 -2.22985 -0.277771 8
-0.169022 -2.27983 -0.196579 80
-0.568829 -2.2389 -0.441406 8
-0.167491 -2.28038 -0.357064 52
-0.164967 -2.27233 -0.517167 47
-0.397321 -5.62593 1.49984 12
-0.405859 -5.60808 1.0852 18
-0.56539 -2.22048 0.197408 9
-0.413038 -5.61259 0.685758 29
-0.567206 -2.22598 0.0394861 11
-0.1726 -2.28505 0.118279 90
-0.570617 -2.2377 -0.119592 11
-0.173994 -2.28771 -0.0394424 97
-0.173001 -2.27953 -0.196579 82
-0.572126 -2.23552 -0.44093 8
-0.171651 -2.28254 -0.357455 52
-0.168536 -2.27207 -0.517167 45
-0.422007 -5.57328 1.48627 14
-0.435363 -5.62064 1.08806 17
-0.578506 -2.22482 0.198061 8
-0.445314 -5.64746 0.690321 26
-0.580359 -2.23034 0.039617 11
-0.184562 -2.28411 0.118279 90
-0.579802 -2.22502 -0.119067 9
-0.185373 -2.2843 -0.0393988 94
-0.184934 -2.2786 -0.196579 77
-0.584056 -2.23497 -0.441406 4
-0.183407 -2.27915 -0.357064 53
-0.180243 -2.26873 -0.516605 45
-0.432655 -5.58457 1.4895 15
-0.445961 -5.61734 1.08759 15
-0.584285 -2.23104 0.198715 8
-0.458327 -5.68625 0.695189 27
-0.582733 -2.22197 0.0394861 9
-0.188348 -2.2813 0.118148 82
-0.586225 -2.23366 -0.119592 9
-0.189561 -2.28647 -0.0394424 91
-0.188911 -2.27827 -0.196579 77
-0.58733 -2.23158 -0.44093 3
-0.187385 -2.27883 -0.357064 53
-0.184394 -2.27084 -0.517167 45
-0.464641 -5.60381 1.49532 14
-0.479876 -5.66873 1.09807 15
-0.596993 -2.23025 0.198933 4
-0.491192 -5.70841 0.698231 33
-0.595655 -2.22371 0.0395733 9
-0.200688 -2.28025 0.118148 80
-0.59856 -2.23298 -0.119723 4
-0.201715 -2.28292 -0.0393988 91
-0.201265 -2.28221 -0.197014 76
-0.600034 -2.23074 -0.441406 3
-0.199922 -2.28024 -0.357455 52
-0.601517 -2.23012 -0.609122 3
-0.196267 -2.26495 -0.516044 45
-0.477244 -5.63668 1.50436 14
-0.492907 -5.70457 1.10522 23
-0.599585 -2.22439 0.198497 4
-0.502444 -5.72238 0.700057 39
-0.60084 -2.22749 0.0396606 8
-0.20445 -2.27741 0.118018 73
-0.599197 -2.21988 -0.119067 4
-0.205699 -2.28256 -0.0393988 90
-0.20503 -2.27938 -0.196796 71
-0.603283 -2.22732 -0.44093 3
-0.203687 -2.27743 -0.357064 52
-0.607946 -2.23838 -0.611708 3
-0.200848 -2.27189 -0.517728 45
-0.510259 -5.68471 1.51793 17
-0.522438 -5.70933 1.10665 24
-0.610175 -2.21893 0.198279 8
-0.529354 -5.69752 0.697319 29
-0.610113 -2.2172 0.0395297 3
-0.216205 -2.27883 0.118148 65
-0.612141 -2.22152 -0.11933 4
-0.217249 -2.28149 -0.0393988 90
-0.216962 -2.27827 -0.196796 73
-0.616514 -2.23133 -0.442358 4
-0.215439 -2.27883 -0.357455 52
-0.616683 -2.22597 -0.609122 4
-0.212123 -2.26842 -0.517167 45
-0.521924 -5.70306 1.5231 21
-0.530457 -5.67655 1.10046 15
-0.618042 -2.23226 0.199587 14
-0.535588 -5.65706 0.692451 18
-0.61303 -2.2112 0.0394424 3
-0.220182 -2.27845 0.118148 59
-0.612004 -2.20602 -0.118542 11
-0.220995 -2.27862 -0.0393552 90
-0.220938 -2.27789 -0.196796 71
-0.616452 -2.21607 -0.439501 3
-0.219415 -2.27845 -0.357455 52
-0.620956 -2.22478 -0.609122 4
-0.216308 -2.27047 -0.517728 45
-0.550231 -5.6737 1.516 14
-0.557064 -5.64194 1.09426 14
-0.627395 -2.2193 0.198715 9
-0.56104 -5.60223 0.686062 20
-0.622554 -2.20075 0.0393115 12
-0.233003 -2.28219 0.11841 56
-0.624909 -2.20759 -0.118804 11
-0.23357 -2.27988 -0.0393988 90
-0.232861 -2.2767 -0.196796 68
-0.631121 -2.22214 -0.441406 3
-0.23174 -2.27723 -0.357455 52
-0.635247 -2.23079 -0.611708 4
-0.228589 -2.26927 -0.517728 45
-0.555663 -5.62707 1.50372 12
-0.563504 -5.60677 1.08759 15
-0.630584 -2.21581 0.198497 8
-0.571066 -5.60371 0.686366 23
-0.62708 -2.20206 0.0393552 9
-0.236733 -2.2793 0.118279 52
-0.626019 -2.19689 -0.118279 9
-0.237294 -2.27698 -0.0393552 90
-0.237087 -2.27877 -0.197014 64
-0.633646 -2.21632 -0.440453 3
-0.235963 -2.27927 -0.357847 50
-0.641807 -2.23896 -0.614295 4
-0.232549 -2.26886 -0.517728 45
-0.582145 -5.59525 1.49596 14
-0.591317 -5.5891 1.08473 15
-0.640786 -2.20769 0.198061 8
-0.601711 -5.61298 0.687887 14
-0.637903 -2.19635 0.0393115 9
-0.248398 -2.27554 0.118148 49
-0.639608 -2.20077 -0.118673 9
-0.24948 -2.27819 -0.0393988 90
-0.249016 -2.2775 -0.197014 64
-0.651438 -2.23417 -0.444739 3
-0.247758 -2.28051 -0.358238 52
-0.655559 -2.24252 -0.616235 4
-0.244426 -2.26761 -0.517728 45
-0.592161 -5.59663 1.49661 14
-0.602372 -5.60026 1.08711 14
-0.644639 -2.20657 0.198061 4
-0.611326 -5.61943 0.6888 27
-0.642438 -2.19763 0.0393552 8
-0.251703 -2.27267 0.118018 44
-0.647662 -2.21403 -0.119461 8
-0.253185 -2.27527 -0.0393552 90
-0.25326 -2.27954 -0.197231 64
-0.656721 -2.23774 -0.445691 3
-0.251472 -2.27762 -0.357847 50
-0.662204 -2.25064 -0.618821 23
-0.248247 -2.26965 -0.51829 45
-0.628528 -5.57763 1.0833 17
-0.655087 -2.20089 0.197844 4
-0.643812 -5.64327 0.692147 27
-0.653553 -2.19435 0.0393552 4
-0.263034 -2.26636 0.117756 41
-0.66139 -2.21778 -0.119855 3
-0.264698 -2.27396 -0.0393552 90
-0.667446 -2.23522 -0.281727 11
-0.265192 -2.27818 -0.197231 64
-0.670152 -2.24144 -0.44712 49
-0.263394 -2.27627 -0.357847 52
-0.677755 -2.26114 -0.622701 61
-0.2604 -2.27074 -0.518851 47
-0.643674 -5.61543 1.09092 21
-0.656779 -2.19259 0.19719 3
-0.649408 -5.60516 0.687583 29
-0.667119 -2.22421 0.0399224 11
-0.267563 -2.27086 0.118018 41
-0.671013 -2.23575 -0.120905 29
-0.268954 -2.27598 -0.0393988 90
-0.672777 -2.23881 -0.282335 53
-0.269455 -2.28019 -0.197449 61
-0.675481 -2.24497 -0.448072 53
-0.267649 -2.27826 -0.358238 49
-0.682095 -2.25983 -0.622701 62
-0.264086 -2.26786 -0.51829 45
-0.671616 -5.5998 1.08854 23
-0.670819 -2.19615 0.197844 4
-0.680615 -5.60896 0.688496 29
-0.685344 -2.2422 0.0403151 52
-0.279845 -2.26938 0.118018 38
-0.690026 -2.25608 -0.122218 53
-0.280963 -2.27201 -0.0393552 90
-0.689979 -2.25174 -0.284465 56
-0.28109 -2.27627 -0.197231 61
-0.690502 -2.25066 -0.449977 53
-0.279279 -2.27437 -0.357847 49
-0.694629 -2.25854 -0.623348 62
-0.275773 -2.26156 -0.517167 45
-0.679622 -5.584 1.08568 21
-0.675384 -2.19735 0.198061 4
-0.687019 -5.58818 0.686062 26
-0.692201 -2.25055 0.0404896 53
-0.283105 -2.26646 0.117887 35
-0.694698 -2.25726 -0.122349 53
-0.284928 -2.27151 -0.0393552 88
-0.695712 -2.25776 -0.285377 56
-0.285063 -2.27578 -0.197231 61
-0.69588 -2.25414 -0.450929 53
-0.283548 -2.27633 -0.358238 49
-0.69714 -2.25271 -0.622054 68
-0.279912 -2.26596 -0.51829 45
-0.696733 -5.56997 1.49273 15
-0.70665 -5.57075 1.08378 20
-0.688733 -2.20104 0.198715 3
-0.718778 -5.60419 0.688496 20
-0.70508 -2.25179 0.0405768 52
-0.295286 -2.26742 0.118018 32
-0.707256 -2.25597 -0.12248 55
-0.29674 -2.27252 -0.0393988 85
-0.706035 -2.24936 -0.284769 55
-0.297292 -2.27672 -0.197449 59
-0.708017 -2.25293 -0.451405 55
-0.295463 -2.27482 -0.358238 49
-0.709986 -2.25376 -0.623348 64
-0.291773 -2.26447 -0.51829 45
-1.68439 -5.33713 1.28197 1
-0.704944 -5.55677 1.4895 15
-1.69144 -5.36268 0.883077 1
-0.722326 -5.60833 1.0914 14
-0.693323 -2.20221 0.198933 3
-0.733326 -5.63985 0.693059 23
-0.710908 -2.2552 0.0406641 55
-0.299243 -2.2669 0.118018 27
-0.711192 -2.25473 -0.12248 55
-0.300706 -2.272 -0.0393988 80
-0.712205 -2.25522 -0.285682 53
-0.301587 -2.27867 -0.197666 58
-0.713431 -2.25637 -0.452358 61
-0.299433 -2.2743 -0.358238 49
-0.715043 -2.25469 -0.623994 59
-0.296035 -2.26637 -0.518851 45
-1.72369 -5.3604 1.28983 1
-0.73972 -5.58879 1.49919 14
-1.73102 -5.38636 0.888541 1
-0.754923 -5.6288 1.09617 15
-0.702941 -2.19131 0.198279 3
-0.767142 -5.66039 0.696102 29
-0.723472 -2.25383 0.0407077 55
-0.311168 -2.26277 0.117887 23
-0.722988 -2.25098 -0.12248 52
-0.313666 -2.27529 -0.0394861 76
-0.724397 -2.25133 -0.285682 56
-0.313514 -2.27706 -0.197666 58
-0.725628 -2.25248 -0.452358 55
-0.311667 -2.27515 -0.35863 49
-0.727583 -2.25321 -0.624641 61
-0.308293 -2.26473 -0.518851 45
-1.7411 -5.3855 1.29657 1
-0.754258 -5.6234 1.50889 14
-1.82533 -5.64914 0.932636 27
-0.768358 -5.65422 1.10141 20
-0.708297 -2.19482 0.198715 4
-0.778378 -5.67639 0.698231 35
-0.729713 -2.2597 0.0408386 90
-0.314722 -2.26228 0.117887 20
-0.726146 -2.24734 -0.122349 55
-0.317637 -2.27474 -0.0394861 74
-0.729463 -2.25491 -0.28629 56
-0.317149 -2.27404 -0.197449 58
-0.729559 -2.25121 -0.452358 53
-0.315971 -2.27705 -0.359021 49
-0.733009 -2.25653 -0.625934 61
-0.31185 -2.26425 -0.518851 45
-1.85616 -5.64009 1.36058 24
-0.786353 -5.64582 1.516 15
-1.76841 -5.3768 0.888931 1
-0.799011 -5.66484 1.10427 24
-0.72251 -2.20067 0.199587 3
-0.806697 -5.66241 0.697014 30
-0.739578 -2.25123 0.0407514 55
-0.326563 -2.2606 0.117887 17
-0.742198 -2.25786 -0.123137 53
-0.329146 -2.27311 -0.0394861 70
-0.741259 -2.25106 -0.28629 55
-0.329006 -2.27487 -0.197666 55
-0.740944 -2.24749 -0.452358 53
-0.32789 -2.27536 -0.359021 47
-0.744421 -2.25279 -0.625934 62
-0.324041 -2.265 -0.519413 45
-1.85889 -5.61867 1.35609 15
-0.798218 -5.65879 1.51987 15
-1.77546 -5.36667 0.88776 1
-0.808896 -5.66344 1.10427 21
-0.727132 -2.20177 0.199805 3
-0.814465 -5.64625 0.695189 27
-0.743506 -2.24993 0.0407514 55
-0.329796 -2.25509 0.117625 15
-0.743782 -2.24945 -0.122743 53
-0.332756 -2.27005 -0.0394424 67
-0.745187 -2.24977 -0.28629 59
-0.332976 -2.2743 -0.197666 55
-0.746413 -2.25085 -0.45331 53
-0.33186 -2.27478 -0.359021 49
-0.749115 -2.25378 -0.626581 59
-0.327994 -2.26443 -0.519413 45
-1.88693 -5.6016 1.3544 15
-0.826445 -5.64498 1.51729 15
-1.80196 -5.35262 0.88698 1
-0.836393 -5.64456 1.10141 18
-0.739445 -2.20029 0.200022 3
-0.841462 -5.62473 0.693059 27
-0.756872 -2.25075 0.0408386 55
-0.341599 -2.25333 0.117625 15
-0.759134 -2.25486 -0.123268 53
-0.345378 -2.27322 -0.0395297 65
-0.758544 -2.25053 -0.286899 56
-0.345276 -2.27246 -0.197666 55
-0.758974 -2.24924 -0.453786 53
-0.343767 -2.27302 -0.359021 49
-0.76168 -2.25212 -0.627227 61
-0.340202 -2.26509 -0.519974 45
-1.89201 -5.58446 1.35103 15
-0.833128 -5.62202 1.51147 15
-1.80972 -5.34479 0.886199 1
-0.843967 -5.6211 1.09712 18
-0.744882 -2.20372 0.200458 3
-0.849431 -5.61098 0.691538 27
-0.758784 -2.24219 0.0407077 52
-0.345905 -2.2552 0.117756 14
-0.76387 -2.25589 -0.123399 53
-0.349345 -2.27262 -0.0395297 62
-0.764865 -2.25626 -0.287811 58
-0.349988 -2.27678 -0.198101 53
-0.763689 -2.25023 -0.454262 53
-0.347733 -2.27241 -0.359021 47
-0.767561 -2.25522 -0.628521 61
-0.343794 -2.26208 -0.519413 45
-1.91345 -5.54881 1.34486 15
-0.862439 -5.61027 1.50953 15
-1.83297 -5.31858 0.883468 1
-0.870762 -5.59962 1.09378 17
-0.756795 -2.19965 0.200458 3
-0.878246 -5.5965 0.690321 27
-0.772959 -2.24527 0.0408386 53
-0.358488 -2.25576 0.117887 14
-0.775671 -2.25186 -0.123399 52
-0.362024 -2.27316 -0.0395733 61
-0.777061 -2.25208 -0.287811 61
-0.361132 -2.27 -0.197666 50
-0.776655 -2.24839 -0.454738 53
-0.360008 -2.273 -0.359413 47
-0.78015 -2.25345 -0.629167 59
-0.35715 -2.26741 -0.521097 45
-1.92376 -5.5504 1.34598 15
-0.870384 -5.59682 1.5063 15
-0.879017 -5.5884 1.09188 18
-0.759001 -2.19362 0.200022 3
-0.887036 -5.59511 0.690321 21
-0.776876 -2.24392 0.0408386 53
-0.363203 -2.26259 0.118279 12
-0.778782 -2.24815 -0.123268 50
-0.365991 -2.27253 -0.0395733 59
-0.781412 -2.2532 -0.288116 59
-0.365484 -2.27182 -0.197884 50
-0.782998 -2.25398 -0.456167 53
-0.36436 -2.27481 -0.359804 47
-0.784082 -2.25209 -0.629167 61
-0.359956 -2.26203 -0.519974 45
-1.9609 -5.56323 1.3516 15
-0.894128 -5.56373 1.49855 14
-0.905725 -5.57419 1.08997 15
-0.770922 -2.1921 0.20024 3
-0.923108 -5.63202 0.695493 23
-0.790717 -2.24703 0.0409695 55
-0.375448 -2.26312 0.11841 12
-0.791812 -2.24888 -0.12353 53
-0.377083 -2.26818 -0.0395297 59
-0.792373 -2.24674 -0.287811 90
-0.376978 -2.26994 -0.197884 52
-0.793578 -2.24768 -0.455691 53
-0.375868 -2.27043 -0.359413 45
-0.797085 -2.25264 -0.630461 64
-0.372185 -2.26252 -0.520536 45
-1.98347 -5.59917 1.36114 15
-0.904222 -5.56454 1.49919 14
-1.98318 -5.5983 0.933026 17
-0.92218 -5.61377 1.09807 15
-0.773915 -2.18841 0.200022 3
-0.936972 -5.65489 0.698536 24
-0.792967 -2.24093 0.0408823 52
-0.377359 -2.25015 0.117756 11
-0.795735 -2.2475 -0.12353 53
-0.381451 -2.26999 -0.0395733 58
-0.797954 -2.25003 -0.28842 56
-0.381753 -2.2742 -0.198319 50
-0.798322 -2.2486 -0.456167 53
-0.380634 -2.27464 -0.360196 47
-0.801826 -2.25352 -0.631107 62
-0.376528 -2.26427 -0.521097 45
-2.02448 -5.61815 1.36844 15
-0.93971 -5.59785 1.50953 14
-2.02921 -5.6343 0.940831 23
-0.958505 -5.65 1.10617 15
-0.790427 -2.19838 0.20133 3
-0.972813 -5.6866 0.703099 27
-0.80808 -2.24616 0.0410568 53
-0.389135 -2.24814 0.117756 11
-0.808339 -2.24565 -0.123662 53
-0.393753 -2.27042 -0.039617 55
-0.809724 -2.24582 -0.28842 55
-0.393236 -2.26971 -0.198101 50
-0.811754 -2.249 -0.457119 53
-0.392124 -2.27019 -0.359804 45
-0.813615 -2.24929 -0.631107 59
-0.388378 -2.26227 -0.521097 45
-2.04493 -5.64703 1.3763 21
-0.954703 -5.62716 1.51793 14
-2.04577 -5.64932 0.943952 30
-0.974141 -5.68219 1.11285 20
-0.795111 -2.19934 0.201548 3
-0.987364 -5.71179 0.706446 33
-0.811999 -2.24474 0.0410568 53
-0.393483 -2.24992 0.117887 11
-0.815662 -2.25362 -0.124187 55
-0.397715 -2.26973 -0.039617 55
-0.813643 -2.24441 -0.28842 55
-0.397621 -2.27148 -0.198319 49
-0.816517 -2.24989 -0.457595 53
-0.396086 -2.2695 -0.359804 45
-0.819193 -2.25241 -0.6324 61
-0.392737 -2.26399 -0.521659 45
-2.07475 -5.63095 1.37518 20
-0.991357 -5.65759 1.52763 15
-2.07033 -5.62195 0.941221 27
-1.00785 -5.69376 1.11618 27
-0.809581 -2.20202 0.202201 3
-1.01652 -5.69659 0.705229 23
-0.826725 -2.24735 0.0411877 55
-0.404774 -2.24284 0.117625 9
-0.827843 -2.24918 -0.124187 52
-0.40999 -2.26754 -0.039617 53
-0.829213 -2.24928 -0.289637 53
-0.409905 -2.26929 -0.198319 49
-0.828678 -2.24544 -0.457595 53
-0.40926 -2.27469 -0.360979 45
-0.832206 -2.25021 -0.633047 61
-0.40583 -2.26663 -0.522782 45
-2.07767 -5.61169 1.37125 17
-1.00751 -5.69153 1.53732 20
-2.07573 -5.60943 0.93966 24
-1.01392 -5.67024 1.11189 18
-0.813423 -2.2006 0.202201 3
-1.01452 -5.63393 0.697623 15
-0.832383 -2.2506 0.0412749 49
-0.408297 -2.2422 0.117625 9
-0.833503 -2.25241 -0.124449 52
-0.41439 -2.26929 -0.0396606 52
-0.832745 -2.24798 -0.289637 53
-0.415191 -2.27592 -0.198971 49
-0.832595 -2.24399 -0.457595 55
-0.41192 -2.26668 -0.359804 42
-0.836975 -2.25101 -0.633694 61
-0.408961 -2.26359 -0.52222 44
-2.1053 -5.59618 1.37013 15
-1.03027 -5.65309 1.52827 15
-2.10159 -5.58924 0.938099 23
-1.03376 -5.61676 1.10236 15
-0.825427 -2.19879 0.202419 2
-1.03995 -5.60658 0.694885 15
-0.842003 -2.24168 0.0411877 52
-0.420941 -2.24495 0.117887 8
-0.845285 -2.24802 -0.124449 52
-0.425871 -2.26716 -0.0396606 52
-0.84538 -2.24591 -0.289941 53
-0.426647 -2.27127 -0.198754 49
-0.846543 -2.24664 -0.459024 55
-0.42513 -2.27177 -0.360979 45
-0.848358 -2.24675 -0.633694 85
-0.420808 -2.26142 -0.52222 44
-2.11076 -5.5811 1.36732 15
-1.03622 -5.6299 1.52246 14
-2.10348 -5.56477 0.934587 21
-1.03829 -5.58098 1.09569 15
-0.831906 -2.20433 0.203073 2
-1.04746 -5.59256 0.693364 18
-0.84719 -2.24239 0.0412313 50
-0.426696 -2.25402 0.11841 4
-0.850091 -2.24887 -0.124581 52
-0.429827 -2.26641 -0.0396606 50
-0.852816 -2.25371 -0.291158 53
-0.431528 -2.27542 -0.199188 49
-0.852204 -2.24974 -0.459976 52
-0.429094 -2.27103 -0.360979 45
-0.856105 -2.25414 -0.63628 65
-0.425644 -2.26547 -0.523343 45
-2.13305 -5.54914 1.36227 15
-1.05771 -5.57675 1.50953 14
-2.12735 -5.53718 0.931855 21
-1.06336 -5.55377 1.0914 15
-0.844714 -2.20212 0.203291 3
-1.09455 -5.67454 0.704316 18
-0.861611 -2.24493 0.0413622 52
-0.439357 -2.25413 0.118541 3
-0.861854 -2.24439 -0.124581 52
-0.443031 -2.26896 -0.0397479 49
-0.863214 -2.24443 -0.290549 52
-0.442965 -2.27068 -0.198971 47
-0.865247 -2.24739 -0.460452 52
-0.441911 -2.2736 -0.361762 45
-0.866155 -2.24513 -0.634987 82
-0.436979 -2.25835 -0.52222 44
-2.13386 -5.52533 1.35721 15
-1.06292 -5.55118 1.50307 14
-2.12804 -5.5131 0.928343 24
-1.07815 -5.57842 1.09664 15
-0.848556 -2.20065 0.203291 3
-1.09544 -5.63139 0.699144 15
-0.865527 -2.24342 0.0413622 50
-0.440992 -2.24364 0.118018 3
-0.868471 -2.24987 -0.124974 52
-0.447947 -2.27309 -0.0398351 49
-0.866738 -2.24307 -0.290549 52
-0.447403 -2.27235 -0.199188 45
-0.869168 -2.24588 -0.460452 53
-0.443527 -2.26071 -0.359804 42
-0.872695 -2.25036 -0.636927 71
-0.440526 -2.25766 -0.52222 45
-2.16276 -5.51408 1.35721 14
-1.0924 -5.55283 1.50501 14
-2.1677 -5.52947 0.933026 15
-1.11065 -5.59455 1.10093 15
-0.860592 -2.19864 0.203509 3
-1.12055 -5.60368 0.696406 15
-0.878697 -2.24366 0.0414495 50
-0.453712 -2.24619 0.118279 2
-0.881152 -2.24761 -0.125106 50
-0.458956 -2.26835 -0.0397915 49
-0.880286 -2.24312 -0.291158 53
-0.459784 -2.27242 -0.199406 45
-0.882322 -2.24602 -0.461405 52
-0.45729 -2.26804 -0.36137 42
-0.883188 -2.24367 -0.63628 61
-0.453289 -2.2601 -0.523343 45
-2.19294 -5.56242 1.37013 15
-1.10724 -5.57698 1.51212 14
-2.22083 -5.63594 0.951757 27
-1.11563 -5.56353 1.09521 14
-0.866255 -2.20177 0.203944 3
-0.883003 -2.24197 0.0414495 50
-0.456645 -2.2405 0.118018 3
-0.885074 -2.24607 -0.125106 50
-0.462914 -2.26754 -0.0397915 49
-0.886936 -2.24851 -0.292071 53
-0.463256 -2.26917 -0.199188 45
-0.887143 -2.24675 -0.461881 52
-0.461248 -2.26724 -0.36137 44
-0.888384 -2.24422 -0.636927 61
-0.457711 -2.2617 -0.523905 45
-2.25201 -5.62283 1.3881 20
-1.13355 -5.55198 1.50695 14
-2.2467 -5.61238 0.949806 27
-1.1551 -5.6081 1.10522 9
-0.877229 -2.19474 0.203727 3
-0.896589 -2.24196 0.0415367 52
-0.471801 -2.25267 0.118803 2
-0.897751 -2.24372 -0.125237 50
-0.475684 -2.26745 -0.0398351 47
-0.900937 -2.24828 -0.292679 52
-0.475131 -2.26671 -0.199188 45
-0.900201 -2.2442 -0.462357 52
-0.472113 -2.25995 -0.360587 42
-0.902829 -2.24625 -0.638867 59
-0.469942 -2.25919 -0.523905 45
-2.25174 -5.59669 1.38248 17
-2.24998 -5.5951 0.947464 26
-1.21162 -5.83198 1.15002 2
-0.884777 -2.20245 0.204598 3
-0.9005 -2.24039 0.0415367 50
-0.474317 -2.24704 0.118541 2
-0.903531 -2.24679 -0.125499 50
-0.479641 -2.26662 -0.0398351 47
-0.903539 -2.24456 -0.292375 53
-0.479597 -2.26832 -0.199406 44
-0.905954 -2.24718 -0.463309 52
-0.478073 -2.2688 -0.362153 44
-0.908559 -2.24915 -0.64016 61
-0.472995 -2.25606 -0.523343 44
-2.27733 -5.5758 1.38023 15
-1.22451 -5.79701 1.57609 9
-2.27177 -5.56496 0.944343 26
-1.23349 -5.78976 1.14287 11
-0.895913 -2.19794 0.204598 3
-0.914664 -2.24275 0.0416676 52
-0.487123 -2.2494 0.118803 2
-0.915836 -2.2445 -0.125631 49
-0.492157 -2.26905 -0.0399224 47
-0.916219 -2.2421 -0.292679 53
-0.491594 -2.2683 -0.199623 44
-0.918247 -2.24483 -0.463785 52
-0.489946 -2.26626 -0.362153 42
-0.9236 -2.25346 -0.642746 59
-0.484801 -2.25355 -0.523343 44
-2.28053 -5.5587 1.37686 17
-1.23362 -5.79013 1.5748 24
-2.27585 -5.54728 0.942001 26
-1.23589 -5.75161 1.13572 14
-0.900694 -2.19868 0.204816 2
-0.918577 -2.24115 0.0416676 53
-0.489993 -2.24367 0.118541 2
-0.9207 -2.2452 -0.125762 50
-0.495587 -2.26574 -0.0398787 47
-0.921075 -2.24279 -0.292983 50
-0.495552 -2.26744 -0.199623 44
-0.924033 -2.24777 -0.464738 52
-0.493901 -2.2654 -0.362153 42
-0.924769 -2.24515 -0.640806 59
-0.489245 -2.25509 -0.523905 44
-2.30307 -5.52829 1.37237 18
-1.25159 -5.72696 1.55929 12
-2.30012 -5.52389 0.94005 24
-1.25493 -5.69472 1.12572 23
-0.911236 -2.19163 0.204598 2
-0.932222 -2.24092 0.0417549 52
-0.501734 -2.24107 0.118541 3
-0.933796 -2.24249 -0.125893 50
-0.507444 -2.26312 -0.0398787 45
-0.935674 -2.24481 -0.293896 53
-0.506193 -2.25743 -0.198971 44
-0.935789 -2.2429 -0.464738 52
-0.505755 -2.26279 -0.362153 41
-0.937444 -2.2425 -0.641453 59
-0.50157 -2.25487 -0.524467 39
-2.31084 -5.51977 1.37125 18
-1.25434 -5.69174 1.55024 21
-2.30976 -5.51986 0.94005 24
-0.918906 -2.19923 0.20547 3
-0.937488 -2.24143 0.0417985 52
-0.507279 -2.2475 0.118933 3
-0.938673 -2.24316 -0.126025 52
-0.509754 -2.25491 -0.0397479 35
-0.94055 -2.24546 -0.2942 52
-0.509588 -2.25411 -0.198754 18
-0.941603 -2.24579 -0.46569 52
-0.505939 -2.24503 -0.359413 11
-0.942685 -2.24292 -0.6421 67
-0.504976 -2.25162 -0.523905 2
-2.34448 -5.51615 1.3735 14
-2.34249 -5.5141 0.941221 15
-0.935661 -2.20568 0.206559 3
-0.950189 -2.23879 0.0418421 50
-0.516642 -2.23256 0.118279 3
-0.953337 -2.24511 -0.126418 50
-0.521388 -2.24968 -0.0397042 35
-0.951713 -2.23805 -0.293896 50
-0.52027 -2.24656 -0.198319 18
-0.95374 -2.24066 -0.46569 52
-0.518788 -2.24716 -0.360196 11
-0.955364 -2.24018 -0.642746 59
-0.514446 -2.23697 -0.521097 3
-2.37898 -5.57295 1.38866 14
-2.39187 -5.6058 0.95761 27
-0.940487 -2.20634 0.206777 3
-0.956059 -2.24173 0.0419294 50
-0.523518 -2.24634 0.119064 4
-0.960197 -2.25033 -0.126812 50
-0.522496 -2.23659 -0.0394861 9
-0.957179 -2.24112 -0.294505 52
-0.522507 -2.23837 -0.197666 9
-0.960548 -2.24576 -0.467119 50
-0.520491 -2.23663 -0.35863 9
-0.959273 -2.23851 -0.642746 59
-0.517415 -2.23379 -0.520536 8
-2.42944 -5.60959 1.40101 20
-2.42217 -5.59547 0.958 27
-0.953621 -2.20612 0.207213 3
-0.96938 -2.24145 0.0420167 52
-0.53355 -2.23628 0.118672 11
-0.970973 -2.24298 -0.126681 50
-0.534385 -2.23635 -0.0395297 12
-0.970876 -2.24063 -0.295113 52
-0.535367 -2.24045 -0.198101 9
-0.971903 -2.24087 -0.467119 52
-0.534464 -2.24349 -0.360196 8
-0.973481 -2.24027 -0.644686 59
-0.530775 -2.23816 -0.52222 8
-2.43728 -5.60087 1.39989 17
-2.43095 -5.58897 0.95761 26
-0.956476 -2.20217 0.206995 3
-0.534452 -2.22958 0.276859 9
-0.972684 -2.23729 0.041973 52
-0.538609 -2.2402 0.118933 11
-0.975884 -2.24357 -0.126812 50
-0.538868 -2.23785 -0.0395733 11
-0.974786 -2.23893 -0.295113 50
-0.538699 -2.23709 -0.197884 11
-0.976794 -2.24142 -0.467595 50
-0.536093 -2.23294 -0.35863 8
-0.977781 -2.23839 -0.644686 59
-0.532997 -2.23012 -0.520536 8
-2.46558 -5.58315 1.39876 15
-2.45217 -5.5554 0.954098 24
-0.971395 -2.2038 0.207649 3
-0.547094 -2.22907 0.277163 8
-0.987414 -2.23903 0.0421039 50
-0.548947 -2.22998 0.118541 11
-0.989636 -2.243 -0.127075 50
-0.548594 -2.22519 -0.0393988 12
-0.988893 -2.23816 -0.295722 52
-0.550405 -2.23424 -0.197884 11
-0.989901 -2.23834 -0.468071 50
-0.547777 -2.23011 -0.35863 9
-0.992426 -2.23987 -0.646626 59
-0.546203 -2.23194 -0.521659 8
-2.46644 -5.56146 1.39427 15
-2.45889 -5.54703 0.953318 23
-0.976249 -2.20437 0.207866 3
-0.550004 -2.2258 0.276859 8
-0.992335 -2.23958 0.0421476 50
-0.551853 -2.22669 0.11841 11
-0.994562 -2.24355 -0.127206 50
-0.55427 -2.23151 -0.0395297 12
-0.994423 -2.24114 -0.29633 52
-0.556683 -2.24295 -0.198754 11
-0.9968 -2.24334 -0.469499 50
-0.550492 -2.22435 -0.357847 9
-0.999284 -2.24475 -0.648566 59
-0.548553 -2.22635 -0.520536 8
-2.49353 -5.54402 1.39315 15
-2.4798 -5.51606 0.950196 18
-0.992501 -2.21076 0.208956 3
-0.562254 -2.22529 0.277163 9
-1.00366 -2.23453 0.0421476 52
-0.562896 -2.22135 0.118279 11
-1.0104 -2.24742 -0.127731 49
-0.564948 -2.22625 -0.0394861 12
-1.00614 -2.2359 -0.29633 52
-0.565381 -2.22792 -0.197666 11
-1.00814 -2.23826 -0.469499 50
-0.564534 -2.23102 -0.359413 8
-1.01063 -2.23966 -0.648566 58
-0.560793 -2.22581 -0.521097 4
-2.49417 -5.51968 1.3881 15
-2.49349 -5.52073 0.951757 24
-0.998408 -2.21357 0.209392 3
-0.564923 -2.2195 0.276554 9
-1.01104 -2.23944 0.0422784 52
-0.569222 -2.23004 0.118803 11
-1.01329 -2.24337 -0.1276 50
-0.570674 -2.23253 -0.039617 12
-1.01209 -2.23867 -0.296939 52
-0.569881 -2.22935 -0.197884 11
-1.01509 -2.24321 -0.470928 53
-0.570847 -2.2396 -0.360979 8
-1.01593 -2.23991 -0.649213 58
-0.567054 -2.23427 -0.523343 4
-2.52907 -5.51718 1.3909 15
-2.52744 -5.51613 0.953318 23
-1.01348 -2.21492 0.210045 3
-0.578783 -2.22362 0.277467 8
-1.02379 -2.23638 0.0423221 50
-0.580029 -2.2221 0.118541 9
-1.0271 -2.24258 -0.127862 49
-0.581491 -2.22457 -0.0395297 11
-1.02626 -2.23767 -0.297547 52
-0.58217 -2.22874 -0.198101 9
-1.02823 -2.23991 -0.471404 49
-0.583573 -2.23887 -0.36137 4
-1.03067 -2.24115 -0.651152 58
-0.579741 -2.23353 -0.523905 3
-2.54691 -5.53311 1.39596 14
-2.58665 -5.61937 0.972049 26
-1.02047 -2.21994 0.210699 3
-0.58516 -2.23221 0.278684 8
-1.02874 -2.23686 0.0423657 50
-0.584536 -2.2235 0.118672 9
-1.03101 -2.24078 -0.127862 50
-0.585373 -2.22355 -0.0395297 11
-1.0312 -2.23812 -0.297851 52
-0.587945 -2.23495 -0.198754 9
-1.03214 -2.23812 -0.471404 50
-0.586858 -2.23546 -0.360979 4
-1.03458 -2.23934 -0.651152 58
-0.581805 -2.22544 -0.52222 3
-2.62223 -5.61903 1.42123 15
-2.61506 -5.60621 0.972049 26
-1.02959 -2.21023 0.210263 3
-0.597087 -2.23162 0.278988 4
-1.04322 -2.23842 0.0424966 50
-0.596424 -2.22292 0.118803 8
-1.04485 -2.23987 -0.128125 50
-0.597907 -2.22539 -0.039617 11
-1.04357 -2.23512 -0.298155 50
-0.598357 -2.22703 -0.198319 8
-1.0445 -2.23509 -0.47188 50
-0.594995 -2.22053 -0.359021 4
-1.04796 -2.23845 -0.652446 58
-0.594931 -2.22954 -0.523905 2
-2.61858 -5.58578 1.41393 14
-2.61436 -5.57928 0.968146 18
-1.03767 -2.21745 0.211135 3
-0.600341 -2.22817 0.278684 4
-1.04645 -2.23415 0.042453 50
-0.601595 -2.2267 0.119064 9
-1.04981 -2.24031 -0.128256 50
-0.598551 -2.21227 -0.0393988 9
-1.04852 -2.23555 -0.29846 50
-0.602888 -2.22839 -0.198536 3
-1.05048 -2.2377 -0.472833 50
-0.59887 -2.21949 -0.359021 4
-1.05534 -2.24299 -0.654386 56
-0.59694 -2.22143 -0.52222 2
-2.63202 -5.53633 1.40494 14
-2.62436 -5.52268 0.960732 15
-1.05072 -2.21405 0.211353 3
-0.611081 -2.22011 0.278076 3
-1.06243 -2.23767 0.0426275 52
-0.609679 -2.20897 0.118279 12
-1.06153 -2.23478 -0.128256 50
-0.611172 -2.21141 -0.0394424 4
-1.06487 -2.2388 -0.299677 50
-0.611257 -2.21319 -0.197449 4
-1.06469 -2.23641 -0.473785 50
-0.611133 -2.2187 -0.359413 4
-1.07019 -2.24397 -0.656326 56
-0.60703 -2.21112 -0.520536 4
-2.64281 -5.53658 1.40606 14
-2.62771 -5.50741 0.958781 17
-1.05566 -2.21446 0.211571 3
-0.612595 -2.21197 0.277163 3
-1.06849 -2.24033 0.0427148 52
-0.615137 -2.21523 0.118672 9
-1.06866 -2.23968 -0.12865 50
-0.612371 -2.2007 -0.0392679 11
-1.07053 -2.2416 -0.300285 52
-0.613133 -2.20492 -0.196796 11
-1.07071 -2.23898 -0.474737 49
-0.611075 -2.20335 -0.357064 9
-1.07411 -2.2421 -0.656326 56
-0.611146 -2.21251 -0.521097 4
-2.65478 -5.48759 1.39708 14
-2.65759 -5.4958 0.959171 20
-1.07336 -2.22254 0.212878 3
-0.622829 -2.20395 0.276554 8
-1.0809 -2.23714 0.0427584 50
-0.621323 -2.19275 0.117625 11
-1.08146 -2.2363 -0.128781 50
-0.622147 -2.19276 -0.0391806 9
-1.08225 -2.23597 -0.300285 52
-0.623994 -2.19928 -0.196579 9
-1.08096 -2.23132 -0.474261 50
-0.621936 -2.19774 -0.356672 8
-1.08966 -2.24532 -0.658912 55
-0.620099 -2.1999 -0.518851 4
-2.66649 -5.48733 1.3982 15
-2.67473 -5.5067 0.961903 23
-1.0805 -2.22739 0.213532 3
-0.623979 -2.19331 0.275337 9
-1.08847 -2.2418 0.0428893 52
-0.626509 -2.19647 0.117887 9
-1.08754 -2.2389 -0.129044 49
-0.623929 -2.18446 -0.0390498 9
-1.08941 -2.24077 -0.301198 52
-0.628511 -2.20059 -0.196796 9
-1.087 -2.23385 -0.475213 50
-0.627114 -2.20141 -0.357455 8
-1.09185 -2.23888 -0.657619 55
-0.626577 -2.20819 -0.521097 4
-2.70475 -5.4903 1.4027 15
-2.70121 -5.4855 0.960732 26
-1.09254 -2.22151 0.213532 4
-1.09909 -2.23383 0.0428457 50
-0.638383 -2.19304 0.117887 9
-1.10036 -2.23542 -0.129175 49
-0.638517 -2.19066 -0.0392243 9
-1.10152 -2.23484 -0.301198 52
-0.637258 -2.18769 -0.195927 9
-1.10016 -2.23013 -0.47569 50
-0.643122 -2.21222 -0.359804 4
-1.10463 -2.2353 -0.658265 56
-0.641879 -2.21648 -0.523905 4
-2.71662 -5.49259 1.40438 15
-2.71188 -5.48299 0.961122 23
-1.10304 -2.23299 0.214839 4
-1.10742 -2.24087 0.0430202 52
-0.641513 -2.18953 0.117756 9
-1.10647 -2.23797 -0.129438 50
-0.643038 -2.19194 -0.0392679 9
-1.10652 -2.23514 -0.301502 52
-0.648728 -2.21288 -0.198319 8
-1.10623 -2.23261 -0.476642 49
-0.651112 -2.22532 -0.362153 4
-1.11176 -2.23986 -0.660205 56
-0.649807 -2.22939 -0.527274 8
-2.75722 -5.49959 1.40999 15
-2.75715 -5.50183 0.966976 21
-1.11471 -2.22719 0.214839 4
-1.11914 -2.23504 0.0430202 52
-0.657225 -2.2005 0.118541 8
-1.12041 -2.23661 -0.1297 50
-0.668018 -2.23407 -0.0400969 11
-1.12266 -2.23818 -0.302719 52
-0.665263 -2.22617 -0.199841 14
-1.11901 -2.22898 -0.477118 50
-0.66587 -2.23383 -0.364111 15
-1.12564 -2.23832 -0.661498 56
-0.664228 -2.23531 -0.52952 26
-2.77352 -5.51048 1.41393 14
-2.77578 -5.51734 0.970488 20
-1.1242 -2.23636 0.215928 4
-1.12641 -2.23978 0.0431511 52
-0.668527 -2.22578 0.11998 15
-1.12656 -2.23911 -0.129963 50
-0.67907 -2.25685 -0.0405332 36
-1.1273 -2.23863 -0.303023 52
-0.679833 -2.2608 -0.203103 52
-1.12621 -2.23359 -0.478547 50
-0.676109 -2.25397 -0.367635 52
-1.13173 -2.24066 -0.662792 56
-0.671202 -2.24594 -0.532328 50
-2.85437 -5.59788 1.44032 18
-2.85736 -5.60612 0.988828 27
-1.13664 -2.23286 0.216146 4
-1.13773 -2.23405 0.0431511 52
-0.691058 -2.25808 0.121943 49
-1.13827 -2.23318 -0.129963 49
-0.692667 -2.26056 -0.0406641 52
-1.139 -2.2327 -0.303023 52
-0.69311 -2.26198 -0.203538 52
-1.13862 -2.23005 -0.479023 50
-0.689335 -2.25512 -0.368418 52
-1.14635 -2.24135 -0.664732 56
-0.685067 -2.24939 -0.534012 50
-2.85969 -5.58421 1.43807 17
-2.86151 -5.59014 0.986877 24
-1.13826 -2.22644 0.21571 4
-1.14316 -2.23409 0.0431947 52
-0.695728 -2.25926 0.122074 47
-1.14444 -2.23563 -0.130225 49
-0.696611 -2.25935 -0.0406641 53
-1.14629 -2.23733 -0.303936 52
-0.698515 -2.26553 -0.203972 52
-1.147 -2.23679 -0.480927 50
-0.695433 -2.261 -0.369592 56
-1.15176 -2.2413 -0.665378 56
-0.689701 -2.25052 -0.534574 50
-2.87976 -5.5492 1.43302 15
-2.87806 -5.54827 0.982194 20
-1.15373 -2.22688 0.216364 4
-1.74531 -5.59773 0.71466 20
-1.15599 -2.23029 0.0432383 52
-0.708684 -2.25785 0.122204 47
-1.15728 -2.23182 -0.130357 47
-0.708825 -2.25555 -0.0406641 52
-1.15838 -2.2311 -0.303936 52
-0.708143 -2.25471 -0.20332 50
-1.15795 -2.22838 -0.480451 50
-0.707262 -2.25733 -0.369592 58
-1.1646 -2.23738 -0.666025 56
-0.70331 -2.25141 -0.535697 50
-2.88059 -5.52955 1.42909 15
-2.87308 -5.51746 0.977512 18
-1.75014 -5.60624 1.13382 15
-1.15877 -2.22707 0.216582 4
-1.76743 -5.63761 0.720137 21
-1.16104 -2.23049 0.043282 50
-0.71223 -2.25673 0.122204 47
-1.16695 -2.24087 -0.131013 50
-0.714258 -2.25908 -0.0407514 50
-1.16418 -2.23367 -0.304545 50
-0.715806 -2.26535 -0.204407 52
-1.16525 -2.23288 -0.48188 50
-0.711201 -2.25609 -0.369592 52
-1.16962 -2.23748 -0.666672 56
-0.707571 -2.25263 -0.536259 49
-2.89472 -5.48638 1.42179 15
-1.77492 -5.6199 1.56769 15
-2.88926 -5.47832 0.973219 20
-1.79258 -5.64176 1.14287 17
-1.17583 -2.23219 0.217671 4
-1.8052 -5.65429 0.723483 26
-1.17465 -2.229 0.0433692 50
-0.724796 -2.25535 0.122335 47
-1.17517 -2.2281 -0.130619 49
-0.726444 -2.25781 -0.040795 49
-1.17934 -2.23413 -0.305457 50
-0.726899 -2.2592 -0.20419 64
-1.17883 -2.23129 -0.482832 49
-0.723754 -2.25469 -0.369984 52
-1.18319 -2.2358 -0.667965 56
-0.719356 -2.24889 -0.536259 49
-2.95564 -5.57818 1.44706 11
-1.7344 -5.45794 1.5231 1
-3.00172 -5.66746 1.00795 35
-1.80863 -5.65468 1.14621 18
-1.17856 -2.22794 0.217454 4
-1.81961 -5.66531 0.725309 27
-1.17893 -2.22674 0.0433692 50
-0.730257 -2.25884 0.122597 47
-1.18373 -2.23487 -0.131144 50
-0.729619 -2.25416 -0.0407514 50
-1.1844 -2.23426 -0.305761 50
-0.730841 -2.25792 -0.20419 53
-1.18387 -2.2314 -0.483308 49
-0.727688 -2.25342 -0.369984 55
-1.18862 -2.23565 -0.668611 55
-0.724022 -2.24995 -0.53682 49
-3.04802 -5.678 1.47738 15
-1.82919 -5.65072 1.57997 21
-3.04519 -5.67507 1.01224 15
-1.76999 -5.43506 1.10332 1
-1.19178 -2.22372 0.217671 4
-1.84562 -5.64123 0.723483 24
-1.19412 -2.22715 0.0435001 52
-0.743244 -2.25723 0.122728 49
-1.1966 -2.23084 -0.131276 50
-0.744137 -2.25731 -0.0408823 50
-1.19765 -2.23 -0.306066 50
-0.744977 -2.26117 -0.204842 49
-1.20058 -2.2336 -0.485213 49
-0.739477 -2.24958 -0.369984 53
-1.20145 -2.23153 -0.669258 55
-0.736938 -2.24832 -0.537382 55
-3.0315 -5.62603 1.46502 15
-1.83755 -5.64293 1.57868 15
-3.02833 -5.62246 1.00366 15
-1.84425 -5.63025 1.14383 15
-1.20156 -2.2326 0.218761 4
-1.85216 -5.63125 0.722571 23
-1.20037 -2.22946 0.0435874 50
-0.747568 -2.25843 0.122859 50
-1.20523 -2.23754 -0.131801 49
-0.748858 -2.25838 -0.0409259 49
-1.20468 -2.23467 -0.306978 49
-0.749701 -2.26223 -0.20506 52
-1.20448 -2.2315 -0.485213 50
-0.744942 -2.25298 -0.370767 55
-1.20764 -2.23367 -0.670551 55
-0.740469 -2.24716 -0.537382 49
-3.06676 -5.62077 1.46783 33
-1.86155 -5.6198 1.5748 15
-3.06245 -5.61519 1.00522 38
-1.8085 -5.42754 1.10427 1
-1.21404 -2.22868 0.218979 4
-1.87847 -5.61206 0.721354 21
-1.21404 -2.22775 0.0436746 50
-0.757799 -2.24975 0.122597 42
-1.21813 -2.23339 -0.131932 49
-0.761867 -2.2593 -0.0410132 52
-1.21875 -2.23269 -0.307587 47
-0.760745 -2.25591 -0.204842 52
-1.21576 -2.22538 -0.485213 49
-0.758294 -2.25373 -0.37155 61
-1.22358 -2.236 -0.673138 55
-0.753765 -2.24787 -0.538505 49
-3.07656 -5.61541 1.46783 36
-1.86831 -5.60737 1.57222 15
-3.07462 -5.61417 1.006 39
-1.81891 -5.42406 1.10427 1
-1.21554 -2.22219 0.218543 4
-1.878 -5.57819 0.717399 20
-1.21951 -2.2276 0.0437183 50
-0.764113 -2.25552 0.122989 47
-1.22323 -2.23345 -0.132063 47
-0.765011 -2.2556 -0.0409695 49
-1.22264 -2.23056 -0.307587 47
-0.767862 -2.26402 -0.205712 53
-1.222 -2.22755 -0.486165 49
-0.762226 -2.2524 -0.37155 50
-1.23136 -2.24 -0.675078 55
-0.75846 -2.24886 -0.539066 49
-3.10453 -5.59442 1.46671 23
-1.89552 -5.58803 1.56963 15
-3.09896 -5.58666 1.00405 21
-1.84571 -5.40981 1.10332 1
-1.82709 -5.33079 0.68667 1
-1.23359 -2.22556 0.0438055 49
-0.777924 -2.25608 0.123251 47
-1.23733 -2.23138 -0.132326 45
-0.778015 -2.25379 -0.0410132 49
-1.23831 -2.23042 -0.3085 47
-0.778898 -2.25761 -0.205495 52
-1.23762 -2.22734 -0.487594 49
-0.774009 -2.24838 -0.37155 50
-1.24307 -2.23352 -0.675078 55
-0.770617 -2.24473 -0.539066 49
-3.12873 -5.6172 1.47401 33
-1.89905 -5.56642 1.56446 14
-3.12336 -5.60983 1.00912 35
-1.85276 -5.39962 1.10189 1
