# .PCD v0.7 - Point Cloud Data file format
VERSION 0.7
FIELDS x y z intensity
SIZE 4 4 4 4
TYPE F F F F
COUNT 1 1 1 1
WIDTH 1664
HEIGHT 1
VIEWPOINT 0 0 0 1 0 0 0
POINTS 1664
DATA ascii
3.35541 -3.32618 1.25493 11
3.28912 -4.70015 0.901028 14
3.35478 -3.3371 0.912201 11
0.919242 -1.31137 0.137052 3
1.3876 -1.3881 0.236395 20
0.933767 -1.33263 0.027793 3
1.31542 -1.31805 0.0957748 47
1.26267 -1.26592 -0.153088 50
1.16014 -1.1621 -0.254878 4
1.54152 -1.53925 -0.494144 27
3.29693 -4.72886 1.32071 21
3.35475 -3.33714 1.25687 11
3.30433 -4.73772 0.907271 42
3.36286 -3.3568 0.916014 11
0.921224 -1.3191 0.137706 3
1.38718 -1.39203 0.236699 18
0.932868 -1.33631 0.0278366 3
1.30629 -1.31306 0.0952514 45
1.25518 -1.26283 -0.152436 50
1.15287 -1.15888 -0.253703 8
1.53565 -1.53823 -0.493021 29
3.28733 -4.76812 1.32689 47
3.34975 -3.36604 1.26139 11
3.2991 -4.78342 0.912734 47
3.35794 -3.38597 0.91935 11
0.91595 -1.3258 0.137924 3
1.38336 -1.4028 0.237307 20
0.92893 -1.34513 0.0279238 3
1.30467 -1.3252 0.095644 45
1.15026 -1.16841 -0.254486 9
1.52929 -1.54798 -0.493583 29
3.29969 -4.80398 1.33531 47
3.35068 -3.37874 1.26398 11
3.31311 -4.82174 0.918978 47
3.36697 -3.40811 0.923639 11
0.916455 -1.3315 0.13836 3
1.3844 -1.40874 0.237916 18
1.29709 -1.32214 0.0952514 44
1.14476 -1.1669 -0.253703 8
1.52144 -1.54545 -0.491898 27
3.29143 -4.84796 1.34261 47
3.34928 -3.41404 1.27044 11
3.305 -4.86616 0.924051 49
3.35938 -3.43621 0.926499 11
0.912036 -1.34056 0.138796 3
1.38196 -1.42154 0.238829 17
1.30038 -1.33986 0.0960365 44
1.74298 -2.56899 -0.376345 27
1.1369 -1.17111 -0.253312 9
1.59953 -2.36264 -0.754613 11
1.51817 -1.55888 -0.493583 29
3.30428 -4.8834 1.35103 47
3.35346 -3.43023 1.27432 11
3.31119 -4.89179 0.927953 47
3.35681 -3.44558 0.927452 11
1.38665 -1.43082 0.240046 17
1.29305 -1.33654 0.095644 42
1.72506 -2.55117 -0.373303 14
1.12797 -1.16602 -0.251746 9
1.59946 -2.37144 -0.756553 11
1.51402 -1.55952 -0.493021 27
3.29221 -4.92088 1.35665 49
3.34446 -3.45583 1.27755 11
3.29926 -4.92959 0.931855 50
3.35468 -3.47841 0.931742 11
1.71167 -2.56016 -0.373303 20
1.60371 -2.40033 -0.553305 27
1.12356 -1.17369 -0.252137 9
1.58609 -2.37749 -0.755906 9
1.50583 -1.56743 -0.493021 27
3.30204 -4.9524 1.36395 52
3.34849 -3.47208 1.28142 9
3.31393 -4.97027 0.938489 56
3.35711 -3.49309 0.934125 11
1.70995 -2.56728 -0.373911 29
1.61039 -2.41947 -0.557114 24
1.12493 -1.17921 -0.25292 9
1.58328 -2.38227 -0.756553 11
1.5031 -1.57005 -0.493021 27
3.2886 -4.99054 1.36957 56
3.34195 -3.50178 1.28595 9
3.29194 -4.99374 0.93966 52
3.3574 -3.53017 0.939367 11
1.05237 -1.11669 -0.0261786 11
1.69785 -2.57827 -0.374216 30
1.5977 -2.42787 -0.557114 32
1.11364 -1.17971 -0.251746 11
1.57211 -2.39255 -0.757199 11
3.26919 -4.97998 1.36507 44
3.34749 -3.51985 1.29047 11
3.27644 -4.98916 0.937709 44
3.35569 -3.54195 0.940797 11
1.04527 -1.11307 -0.0260477 11
1.68655 -2.57085 -0.372694 21
1.59749 -2.43682 -0.558542 45
1.10988 -1.17986 -0.251354 9
1.57412 -2.40567 -0.760432 11
3.23425 -4.98533 1.3617 39
3.34165 -3.55197 1.29564 9
3.24 -4.99231 0.934977 42
3.34718 -3.5702 0.943656 11
1.04094 -1.12054 -0.0260913 12
1.67261 -2.57994 -0.372694 23
1.58028 -2.43924 -0.557114 45
1.10348 -1.18585 -0.251354 9
1.5615 -2.41388 -0.760432 11
3.2198 -4.98017 1.3589 39
3.34372 -3.5666 1.29887 9
3.22726 -4.99174 0.933807 41
3.35436 -3.59037 0.947469 11
3.36604 -3.61289 0.601179 8
1.03387 -1.11687 -0.0259605 11
1.66004 -2.57034 -0.370869 18
1.57603 -2.442 -0.557114 35
1.10646 -1.19319 -0.252529 9
1.55859 -2.41863 -0.761079 11
3.18581 -4.98465 1.35553 39
3.33384 -3.59232 1.3021 9
3.19264 -4.99344 0.931075 41
3.35115 -3.6235 0.951759 9
3.36287 -3.64628 0.603917 1
1.0426 -1.13691 0.0790273 4
1.02821 -1.12208 -0.0259605 11
1.647 -2.57871 -0.370869 15
1.56233 -2.44787 -0.556638 39
1.09874 -1.19696 -0.252137 9
1.55022 -2.4326 -0.763019 11
3.17711 -4.9902 1.35553 4
3.3407 -3.6123 1.30727 9
3.17994 -4.99276 0.929904 3
3.35751 -3.64436 0.955571 11
1.03048 -1.1277 0.0782422 12
1.02117 -1.11836 -0.0258296 12
1.63984 -2.5774 -0.37026 23
1.55937 -2.45267 -0.557114 36
1.0933 -1.19524 -0.251354 8
1.54426 -2.43353 -0.762372 11
3.1734 -5.04444 1.36563 1
3.33416 -3.64457 1.31244 9
3.15683 -5.01616 0.931075 2
3.34335 -3.66732 0.957001 9
1.02436 -1.13326 0.0782422 12
1.02183 -1.13126 -0.0260041 11
1.61795 -2.57362 -0.368435 32
1.54477 -2.45899 -0.556638 35
1.08869 -1.20278 -0.251746 8
1.5379 -2.45181 -0.765605 9
3.16935 -5.05561 1.36732 4
3.34408 -3.66821 1.3189 9
3.18567 -5.0797 0.942001 4
3.35346 -3.6913 0.961767 9
3.19952 -5.10182 0.523806 15
1.0209 -1.13302 0.0781114 12
1.02321 -1.13675 -0.0260913 11
1.60733 -2.56564 -0.366914 26
1.54958 -2.47625 -0.559971 32
1.08991 -1.20833 -0.252529 4
1.52979 -2.44835 -0.763665 4
3.1903 -5.14876 1.3881 17
3.33357 -3.69405 1.32213 9
3.18764 -5.14249 0.950586 20
3.34295 -3.71734 0.96415 9
3.19071 -5.14547 0.526639 21
2.2299 -3.59664 0.0732565 45
1.01495 -1.13835 0.0781114 12
1.01411 -1.13819 -0.0260041 11
1.58473 -2.55925 -0.364784 15
1.54606 -2.49867 -0.563304 33
1.08192 -1.21218 -0.252137 4
1.51991 -2.46017 -0.764959 4
3.17363 -5.14189 1.38473 14
3.34329 -3.7178 1.3286 9
3.17217 -5.13754 0.948635 15
3.3522 -3.74202 0.968916 9
3.17911 -5.14679 0.526203 24
2.06682 -3.34775 0.0680644 9
1.01297 -1.14012 0.0781114 14
1.01545 -1.14369 -0.0260913 11
1.57636 -2.55568 -0.363871 15
1.08474 -1.21959 -0.253312 4
1.51139 -2.45691 -0.763019 4
1.19694 -1.34223 -0.406546 12
3.13689 -5.14442 1.3808 14
3.33437 -3.74845 1.33312 9
3.13662 -5.14197 0.946294 14
3.34397 -3.77236 0.972252 9
3.14733 -5.15754 0.525549 21
1.00182 -1.13997 0.0777189 14
1.6746 -2.74509 -0.167245 35
1.0109 -1.15104 -0.026135 11
1.56251 -2.56417 -0.363871 20
1.07649 -1.22359 -0.25292 4
1.50227 -2.47098 -0.764959 4
1.19289 -1.35233 -0.407669 30
3.12375 -5.14101 1.37855 15
3.33424 -3.76149 1.33571 9
3.12379 -5.14111 0.945123 14
3.34388 -3.78554 0.974158 9
3.12797 -5.14599 0.523806 17
1.00478 -1.14734 0.0781114 12
1.66981 -2.74801 -0.167245 41
1.00724 -1.15093 -0.0260913 11
1.55803 -2.56689 -0.363871 27
1.00054 -1.14294 -0.129603 4
1.07762 -1.22917 -0.253703 4
1.49295 -2.46534 -0.762372 3
3.07834 -5.12859 1.37069 14
3.32725 -3.79341 1.34087 9
3.08666 -5.14046 0.942001 14
3.3418 -3.82331 0.979401 9
3.08689 -5.13881 0.521409 15
1.00368 -1.15823 0.0785039 9
1.62843 -2.71176 -0.164488 11
1.00284 -1.15807 -0.026135 9
0.994545 -1.14816 -0.129603 4
1.06651 -1.22903 -0.252529 4
1.48126 -2.47519 -0.763019 4
3.06903 -5.13133 1.37013 14
3.33495 -3.81556 1.34669 9
3.07732 -5.14318 0.941611 15
3.34158 -3.83653 0.981307 9
3.07536 -5.13992 0.520973 14
0.993428 -1.14851 0.181936 14
2.45081 -4.09717 0.0827244 3
1.00841 -1.16734 0.0790273 9
1.63394 -2.73174 -0.165539 11
1.00082 -1.15982 -0.026135 9
0.990906 -1.14802 -0.129386 3
1.07085 -1.23834 -0.254095 4
1.47694 -2.47777 -0.763019 8
3.03345 -5.13265 1.3662 11
3.32508 -3.84334 1.35057 9
3.03904 -5.14009 0.938099 15
3.33656 -3.87011 0.985597 9
3.0455 -5.14899 0.52032 15
0.987401 -1.1537 0.181936 12
2.43131 -4.11168 0.082768 3
0.997405 -1.16693 0.0786348 8
1.62088 -2.74241 -0.16567 41
1.00145 -1.17245 -0.0263095 9
0.988129 -1.15697 -0.12982 3
1.06435 -1.24393 -0.254095 3
1.46316 -2.48314 -0.762372 4
3.01707 -5.12533 1.36283 12
3.331 -3.86376 1.35574 9
3.02506 -5.13687 0.936538 15
3.34032 -3.88953 0.988933 9
3.02514 -5.13498 0.518359 15
0.985386 -1.15542 0.181936 12
2.42215 -4.11418 0.0827244 3
1.00349 -1.17814 0.079289 8
1.60723 -2.73017 -0.164751 26
0.999406 -1.1742 -0.0263095 8
0.987728 -1.16058 -0.130038 4
1.05896 -1.24204 -0.253312 3
1.46205 -2.49219 -0.764312 4
2.98685 -5.13737 1.3617 14
3.32103 -3.89458 1.36026 9
2.98729 -5.13608 0.933416 14
3.33105 -3.92005 0.992269 9
2.99105 -5.14051 0.517269 15
0.983938 -1.16641 0.182848 11
2.39806 -4.12249 0.0826371 3
0.992257 -1.17784 0.0788964 8
1.59793 -2.74718 -0.165276 32
0.997886 -1.18531 -0.0264404 8
0.978417 -1.16194 -0.129603 3
1.05244 -1.24757 -0.253312 3
1.45019 -2.5019 -0.764959 8
2.96901 -5.12519 1.35721 15
3.32831 -3.91692 1.36608 9
2.97303 -5.13009 0.931465 14
3.34167 -3.94644 0.997512 9
2.97333 -5.13063 0.515744 15
0.980502 -1.16606 0.182544 9
2.39336 -4.13099 0.0827244 3
0.992018 -1.18131 0.0790273 8
1.58813 -2.74132 -0.164751 38
0.992591 -1.18323 -0.0263531 8
0.981208 -1.16935 -0.130255 3
1.05026 -1.2494 -0.253312 3
1.43979 -2.49397 -0.761726 8
2.93488 -5.12798 1.35384 15
3.32245 -3.95034 1.37189 9
2.94368 -5.1413 0.930685 15
3.33585 -3.98022 1.0018 9
2.94238 -5.13697 0.514873 15
0.975976 -1.17308 0.182848 8
2.36994 -4.13871 0.0826371 3
0.98742 -1.1884 0.0791581 4
1.57004 -2.7431 -0.164357 45
0.986589 -1.18824 -0.0263531 8
0.975072 -1.17447 -0.130255 3
1.04846 -1.26057 -0.254486 4
1.43073 -2.50752 -0.763665 4
1.09386 -1.31211 -0.385769 8
2.9211 -5.12462 1.3516 15
3.32953 -3.97278 1.37771 9
2.92614 -5.13141 0.927953 15
3.33765 -3.99791 1.00466 9
2.92231 -5.12263 0.512912 15
0.970747 -1.17097 0.18224 3
2.36447 -4.1476 0.0827244 3
0.985345 -1.19012 0.0791581 4
1.56649 -2.748 -0.164488 50
0.986113 -1.19188 -0.0263968 8
0.977802 -1.18191 -0.130908 4
1.04626 -1.26239 -0.254486 4
1.42353 -2.50606 -0.762372 8
1.08532 -1.30654 -0.383523 9
2.88378 -5.12337 1.3471 15
3.32187 -4.00745 1.38352 9
2.89107 -5.13425 0.925612 15
3.33388 -4.03613 1.0099 8
2.89088 -5.13185 0.512258 15
0.969136 -1.18195 0.183153 4
2.34149 -4.15774 0.0826808 3
0.978891 -1.19543 0.0791581 4
1.55208 -2.75617 -0.164488 49
0.986006 -1.20491 -0.0265713 8
0.977934 -1.19471 -0.131778 3
1.41512 -2.52191 -0.764959 8
2.87573 -5.12789 1.3471 15
3.32257 -4.02255 1.38676 9
2.87575 -5.12586 0.923271 15
3.33308 -4.04952 1.01181 8
2.87827 -5.13038 0.511604 15
0.970431 -1.1873 0.183761 3
2.33668 -4.16619 0.082768 3
0.978597 -1.1989 0.079289 4
1.54726 -2.75887 -0.164488 45
0.982316 -1.2047 -0.0265277 4
0.972687 -1.19256 -0.131343 3
1.67589 -2.99456 -0.659014 4
1.406 -2.51594 -0.762372 8
2.8394 -5.12583 1.34261 15
3.319 -4.05986 1.39386 9
2.8393 -5.12357 0.920149 15
3.33582 -4.09486 1.01896 8
2.84381 -5.12963 0.510079 15
0.962634 -1.19044 0.183457 3
2.31314 -4.17359 0.0826808 3
0.977029 -1.20982 0.0796815 4
1.52965 -2.76012 -0.164095 47
0.984085 -1.21936 -0.0267458 4
2.69819 -4.87683 -0.679064 23
0.971349 -1.20327 -0.131995 3
1.65003 -2.98367 -0.654728 4
1.39325 -2.52302 -0.762372 8
2.82546 -5.11962 1.3398 15
3.32413 -4.08062 1.39903 8
2.87091 -5.20203 0.933416 12
2.86373 -5.18692 0.515308 12
0.960555 -1.19212 0.183457 3
2.30706 -4.17981 0.0827244 3
0.974916 -1.21152 0.0796815 4
1.53086 -2.77371 -0.164751 42
0.975665 -1.2133 -0.0265713 4
2.69685 -4.89457 -0.68089 12
0.964547 -1.19915 -0.131343 3
1.64009 -2.97794 -0.652823 8
1.39233 -2.5318 -0.764312 9
2.7884 -5.11771 1.33531 15
2.84717 -5.2235 0.934587 14
2.84369 -5.21496 0.516616 14
0.955853 -1.19907 0.183761 3
2.28155 -4.18524 0.0825935 3
0.96856 -1.21661 0.0796815 4
1.51512 -2.7795 -0.16462 41
0.975548 -1.2262 -0.0267458 8
2.67949 -4.92388 -0.683019 12
0.962925 -1.21002 -0.131995 3
1.62213 -2.98217 -0.651871 8
1.3756 -2.53269 -0.762372 4
2.78616 -5.13279 1.33812 12
2.851 -5.25234 0.938879 12
2.85121 -5.25056 0.519666 12
0.955308 -1.20267 0.184065 3
2.2802 -4.2002 0.0828117 3
0.966435 -1.2183 0.0796815 3
1.51027 -2.78214 -0.16462 44
0.967171 -1.22008 -0.0265713 4
2.68034 -4.94601 -0.685453 12
0.956152 -1.20586 -0.131343 3
1.61108 -2.97421 -0.64949 8
1.37577 -2.54358 -0.764959 8
2.7802 -5.1886 1.34879 14
2.88015 -5.37078 0.530125 12
0.950537 -1.2096 0.18437 3
2.25228 -4.20107 0.0825935 3
0.963137 -1.22726 0.0799432 3
1.49804 -2.79441 -0.164882 36
0.966964 -1.23298 -0.0267458 4
2.6626 -4.97529 -0.687583 14
0.955998 -1.21867 -0.132212 3
1.5897 -2.97178 -0.647109 8
1.36016 -2.54649 -0.763665 8
2.7904 -5.22735 1.35777 14
3.07114 -5.7536 1.02512 2
2.90478 -5.43952 0.536444 1
0.959176 -1.2249 0.186499 3
2.24377 -4.20279 0.0825499 4
0.960994 -1.22894 0.0799432 3
1.48963 -2.79041 -0.164488 14
0.966355 -1.23663 -0.0267894 4
2.64458 -4.96241 -0.685149 12
0.953869 -1.22033 -0.132212 3
1.57875 -2.96372 -0.644729 8
1.35685 -2.55099 -0.764312 4
2.77569 -5.26823 1.36451 12
3.06629 -5.81767 1.0337 4
2.93664 -5.56922 0.547774 3
0.951224 -1.22795 0.186195 3
2.22173 -4.21448 0.0825499 4
0.963747 -1.24578 0.0807282 3
1.46802 -2.78492 -0.163701 8
0.964472 -1.24759 -0.0269203 4
2.62665 -4.99156 -0.687279 8
0.944408 -1.22138 -0.131778 3
1.55978 -2.96543 -0.6433 9
1.34123 -2.55379 -0.763019 4
2.77986 -5.29632 1.37069 12
3.05269 -5.81645 1.03253 4
2.95469 -5.62726 0.553003 4
0.949079 -1.22961 0.186195 3
0.956981 -1.24154 0.0803357 3
1.462 -2.78526 -0.163569 11
0.962293 -1.24927 -0.0269203 4
2.61563 -4.99174 -0.68667 4
0.942274 -1.22303 -0.131778 3
1.54892 -2.95727 -0.640919 8
1.33453 -2.55184 -0.761726 8
2.76797 -5.34373 1.37911 4
3.01993 -5.82797 1.03175 4
2.90456 -5.60285 0.549081 4
0.941116 -1.2326 0.185891 3
0.959586 -1.25842 0.0811207 3
1.44395 -2.78623 -0.163176 9
0.952696 -1.25033 -0.0268331 4
2.58946 -5.00537 -0.68667 3
0.941921 -1.23585 -0.132647 8
1.5244 -2.9479 -0.63711 9
1.31894 -2.5545 -0.760432 4
1.4703 -1.91858 -0.549174 44
2.77743 -5.38272 1.3881 3
2.89997 -5.62035 0.993901 4
2.89821 -5.61455 0.549735 9
0.943489 -1.24015 0.186804 3
0.95284 -1.25414 0.0807282 4
1.43795 -2.78653 -0.163044 9
0.9581 -1.26192 -0.0270512 4
0.939762 -1.23749 -0.132647 9
1.51027 -2.93309 -0.6333 11
1.3211 -2.56969 -0.764312 4
1.46843 -1.92307 -0.549735 36
2.76595 -5.4324 1.39708 11
2.86266 -5.62005 0.99117 9
2.87216 -5.63631 0.550389 9
0.941477 -1.251 0.187716 3
1.37792 -2.70361 0.0523572 11
0.95379 -1.26907 0.0813824 4
1.42398 -2.79649 -0.163176 14
0.952987 -1.26891 -0.0270949 8
0.937558 -1.24852 -0.1333 8
1.49267 -2.93658 -0.632348 12
1.30653 -2.57442 -0.763665 4
1.45687 -1.92879 -0.549174 8
2.77958 -5.48286 1.40887 9
2.85061 -5.62063 0.990389 14
2.85669 -5.63021 0.549299 14
0.937797 -1.25066 0.187412 3
1.36595 -2.69287 0.0520954 11
0.950071 -1.26874 0.0812516 4
1.41007 -2.78115 -0.162125 9
0.953778 -1.27457 -0.0271821 4
0.939872 -1.25612 -0.133952 4
1.47204 -2.90852 -0.625682 11
1.3005 -2.57477 -0.763019 4
1.44616 -1.92162 -0.546366 3
0.935469 -1.26169 0.188325 3
1.34177 -2.67986 0.0517027 9
1.39884 -2.7952 -0.162519 4
0.949854 -1.28372 -0.0272694 4
0.933282 -1.26102 -0.133952 3
1.45847 -2.92084 -0.626634 9
1.28377 -2.57505 -0.761079 4
1.44303 -1.93917 -0.549174 3
0.932005 -1.26116 0.18802 3
1.34378 -2.69563 0.0519645 9
0.950121 -1.28736 0.0820366 3
1.38617 -2.78199 -0.1616 8
0.949101 -1.28738 -0.027313 4
0.932564 -1.26465 -0.13417 3
1.4501 -2.91678 -0.625206 9
1.28142 -2.58162 -0.762372 8
2.96694 -6.03176 1.05673 17
3.30373 -4.48595 1.0752 15
0.935682 -1.28002 0.19015 3
1.36767 -2.78001 -0.161075 9
0.942573 -1.29217 -0.027313 4
0.923203 -1.26534 -0.133735 3
1.4364 -2.92629 -0.625682 11
1.26728 -2.5859 -0.761726 8
3.15247 -6.43747 1.64415 15
3.29288 -4.47133 1.47658 15
2.95424 -6.0325 1.05595 15
3.30317 -4.5016 1.07758 14
1.31123 -2.67458 0.257545 21
0.934913 -1.28365 0.190454 3
1.35514 -2.76669 -0.160156 4
0.944743 -1.29987 -0.0274439 4
0.926876 -1.27499 -0.134604 3
1.4259 -2.91776 -0.623301 9
1.26594 -2.59462 -0.763665 4
3.14407 -6.50927 1.65819 15
3.28935 -4.51582 1.48562 14
2.91831 -6.03899 1.05439 15
3.3012 -4.5486 1.08473 14
1.29504 -2.67693 0.257109 21
0.926723 -1.28652 0.19015 3
1.34232 -2.77848 -0.160419 4
0.940854 -1.30885 -0.0275312 4
0.919964 -1.27999 -0.134604 3
1.41167 -2.9274 -0.623777 9
1.24919 -2.59469 -0.761726 4
1.50203 -2.07716 -0.582865 4
3.1517 -6.55427 1.6683 15
3.29283 -4.53718 1.49079 14
2.90135 -6.03072 1.05204 15
3.30685 -4.57481 1.08949 14
1.28713 -2.67245 0.256456 15
0.925929 -1.29015 0.190454 3
1.33638 -2.77857 -0.160288 4
0.938568 -1.31049 -0.0275312 4
0.923553 -1.28967 -0.135474 3
1.41505 -2.94756 -0.627587 11
1.24734 -2.60361 -0.763665 4
1.5084 -2.0936 -0.586796 4
3.14436 -6.63067 1.68346 24
3.28797 -4.58239 1.49984 15
2.85175 -6.01063 1.0458 15
3.30429 -4.62199 1.09664 14
1.27478 -2.68387 0.256892 14
0.923261 -1.30119 0.191367 3
1.32503 -2.7923 -0.160681 8
0.935815 -1.32165 -0.0276621 4
0.918233 -1.29652 -0.135692 4
1.41167 -2.9818 -0.6333 11
1.23369 -2.61011 -0.763665 3
1.50555 -2.11362 -0.590165 8
3.13706 -6.64221 1.68514 35
3.29965 -4.61561 1.50889 15
2.84019 -6.01064 1.04502 15
3.30762 -4.64373 1.10046 14
1.31695 -2.78783 -0.160288 8
0.934954 -1.32532 -0.0277057 4
0.921737 -1.30624 -0.136562 3
1.4096 -2.99092 -0.634729 11
1.22708 -2.60789 -0.762372 3
1.49799 -2.11003 -0.588481 8
3.0971 -6.6475 1.68234 30
3.28881 -4.64998 1.5147 14
3.30247 -4.68648 1.10665 14
1.30283 -2.79446 -0.160288 11
0.93398 -1.33822 -0.0278802 4
0.919409 -1.317 -0.137214 4
1.39445 -2.99802 -0.634729 11
1.21589 -2.61845 -0.763665 3
1.48692 -2.11784 -0.588481 9
3.08358 -6.64573 1.68065 30
3.30437 -4.68926 1.52569 12
3.31123 -4.71632 1.11237 14
1.2927 -2.78541 -0.159631 9
0.935942 -1.34599 -0.0280111 4
0.917109 -1.31861 -0.137214 4
1.39024 -3.00267 -0.635205 9
1.20828 -2.61399 -0.761726 3
3.0415 -6.64902 1.67728 30
3.29498 -4.72828 1.5328 14
3.30611 -4.7618 1.11904 41
1.27968 -2.7969 -0.159894 8
0.928882 -1.35087 -0.0280111 4
1.37858 -3.01884 -0.63711 9
1.19758 -2.62687 -0.763665 4
3.30189 -4.75583 1.53991 42
3.31094 -4.78831 1.12381 49
1.23439 -2.70903 0.0513537 18
1.27067 -2.79004 -0.159369 12
1.38954 -3.057 -0.644729 9
1.19453 -2.63357 -0.764959 4
3.298 -4.80546 1.55024 45
3.3094 -4.84 1.13191 47
1.20995 -2.69265 0.0509174 9
1.25604 -2.79666 -0.159369 23
1.17679 -2.63096 -0.762372 4
1.60399 -2.35381 -0.648564 39
3.30326 -4.83114 1.55671 45
2.22303 -4.97087 0.854981 2
3.3134 -4.86402 1.1362 47
1.26336 -2.82352 0.267568 15
1.20627 -2.69704 0.050961 9
1.24912 -2.79428 -0.159106 15
1.17317 -2.63522 -0.763019 3
1.60166 -2.35834 -0.649126 36
3.30044 -4.87978 1.56705 47
2.20892 -5.00956 0.859664 2
3.30384 -4.9031 1.14144 47
1.24603 -2.82304 0.266914 15
1.18857 -2.69396 0.0507865 9
1.22792 -2.78458 -0.158187 9
1.52782 -3.4737 -0.729486 12
1.64398 -2.45329 -0.462773 23
1.15788 -2.6367 -0.761726 4
1.59473 -2.37477 -0.651372 38
3.30543 -4.90555 1.57351 47
3.31719 -4.94144 1.14907 50
1.2301 -2.80012 0.264518 11
1.18085 -2.68917 0.0506556 9
1.23007 -2.80272 -0.159106 11
1.53552 -3.50784 -0.736152 12
1.64657 -2.46642 -0.464731 26
1.15424 -2.64093 -0.762372 4
1.58923 -2.37553 -0.65081 42
3.29578 -4.9469 1.58126 49
3.30486 -4.97918 1.15383 56
1.21542 -2.80653 0.264518 4
1.16775 -2.69761 0.0506992 9
1.21538 -2.80912 -0.159106 12
1.50936 -3.4978 -0.732343 8
1.63363 -2.475 -0.464731 29
1.13658 -2.63807 -0.759786 4
1.57138 -2.3757 -0.648564 32
3.30052 -4.97275 1.58772 55
3.30023 -4.99108 1.15526 50
1.20461 -2.79492 0.26321 9
1.16008 -2.69275 0.0505683 11
1.20259 -2.79289 -0.158056 9
2.14957 -5.00213 -0.663244 38
1.54389 -3.59516 -0.752342 4
1.61707 -2.4593 -0.461207 33
1.13578 -2.64893 -0.762372 4
1.57261 -2.38657 -0.65081 42
3.27091 -4.9865 1.58643 47
2.81534 -6.6386 1.13399 45
3.26242 -4.99244 1.15145 42
1.1885 -2.7991 0.262992 9
1.15037 -2.7105 0.0507865 29
1.18453 -2.79246 -0.157662 4
2.1157 -4.99769 -0.661114 35
1.53397 -3.62607 -0.757104 4
1.60822 -2.47394 -0.462382 27
1.12049 -2.65281 -0.761726 4
1.55567 -2.38892 -0.649126 35
2.79841 -6.63083 1.65089 30
3.24898 -4.972 1.57997 39
2.79626 -6.62254 1.13048 45
3.24566 -4.98579 1.14859 41
1.17683 -2.78511 0.261467 9
1.13981 -2.69868 0.0505247 14
1.17384 -2.78072 -0.156874 9
2.10303 -4.98958 -0.659593 36
1.59179 -2.45811 -0.458858 32
1.11679 -2.65699 -0.762372 3
1.55591 -2.39749 -0.65081 35
2.75898 -6.63414 1.64808 30
3.21852 -4.98027 1.57739 38
2.75965 -6.63253 1.1297 44
3.2102 -4.98828 1.14526 39
1.16464 -2.79563 0.261903 9
1.12374 -2.7 0.0504375 9
1.14873 -2.76147 -0.15543 9
2.07403 -4.99364 -0.65868 39
1.58156 -2.47057 -0.459641 33
1.10194 -2.66056 -0.761726 4
1.54819 -2.41406 -0.653056 38
2.74181 -6.62544 1.64471 30
3.21288 -4.99253 1.57932 39
2.74314 -6.62869 1.12814 41
3.19797 -4.9903 1.1443 33
1.15641 -2.79096 0.261249 8
3.20713 -5.01798 0.725917 8
1.1176 -2.69984 0.0503938 9
1.14628 -2.77059 -0.155824 4
2.0616 -4.99074 -0.657767 39
1.57948 -2.47776 -0.460424 36
1.09683 -2.66268 -0.761726 4
1.54355 -2.41703 -0.653056 38
2.69694 -6.62805 1.64134 30
3.18277 -5.00891 1.57868 26
2.69654 -6.62379 1.12463 32
3.18187 -5.02674 1.14859 1
1.14501 -2.8091 0.262339 9
3.18613 -5.04895 0.727743 8
1.11193 -2.72919 0.0508301 9
3.19131 -5.06493 0.311922 9
1.13173 -2.77926 -0.155955 12
2.03375 -5.00483 -0.658072 42
1.69427 -2.69423 -0.274863 15
1.4859 -3.65928 -0.759484 4
1.56255 -2.48264 -0.459641 35
1.08104 -2.66652 -0.761079 4
1.53394 -2.43179 -0.654741 29
2.6847 -6.62776 1.64022 32
3.17661 -5.01854 1.57997 3
2.68498 -6.62849 1.12463 32
3.19276 -5.0634 1.15574 3
1.1373 -2.80417 0.261685 9
3.19583 -5.0839 0.732002 11
1.11185 -2.74271 0.0510483 9
3.18911 -5.08106 0.312576 9
1.12501 -2.77661 -0.155693 9
1.70282 -2.71827 -0.277037 45
1.55821 -2.48536 -0.459641 15
1.07909 -2.67512 -0.763019 3
1.53879 -2.44889 -0.658671 38
2.64429 -6.63088 1.63741 30
3.15542 -5.04329 1.58256 18
2.64292 -6.62411 1.1215 33
3.1922 -5.12169 1.16527 12
1.12353 -2.8124 0.261903 9
3.19015 -5.13427 0.73687 23
1.09747 -2.7485 0.0510483 9
3.17169 -5.11253 0.313492 8
1.12339 -2.81493 -0.157531 2
1.68856 -2.72715 -0.277037 50
1.45941 -3.66728 -0.759008 8
1.55344 -2.5058 -0.46199 39
1.06329 -2.67625 -0.761726 4
1.54656 -2.48999 -0.667656 35
2.62938 -6.6237 1.63461 30
3.1351 -5.03035 1.57674 38
2.63068 -6.62366 1.12072 35
3.2001 -5.15434 1.17147 20
1.11954 -2.81667 0.262121 4
3.18731 -5.14771 0.738087 18
1.10097 -2.77132 0.051441 8
3.15314 -5.10053 0.312446 8
1.11848 -2.81688 -0.157531 3
1.16473 -2.9365 -0.383038 9
1.67987 -2.72374 -0.276385 45
1.4521 -3.66754 -0.758532 4
1.54906 -2.5085 -0.46199 38
1.06216 -2.68708 -0.764312 3
2.59023 -6.62603 1.6318 30
3.10453 -5.03794 1.57415 38
2.49708 -6.38435 1.0778 1
3.16883 -5.16211 1.16956 15
1.10799 -2.82926 0.262775 8
3.14215 -5.13471 0.733827 15
1.09057 -2.78617 0.0516155 8
3.11857 -5.10419 0.311661 8
1.11238 -2.84344 -0.158712 2
1.15205 -2.9495 -0.383951 9
1.65956 -2.72158 -0.275298 35
1.43352 -3.67484 -0.758532 4
1.54235 -2.52711 -0.463948 39
1.04505 -2.68342 -0.761726 3
2.57717 -6.62328 1.63011 30
3.08814 -5.031 1.57028 38
2.57722 -6.62345 1.1176 33
3.14571 -5.14461 1.16432 14
1.10034 -2.82423 0.262121 9
3.1306 -5.13595 0.733219 14
1.09024 -2.79972 0.0518336 8
1.10742 -2.84537 -0.158712 3
1.15139 -2.96307 -0.385472 8
1.65222 -2.72022 -0.274863 47
1.42533 -3.67276 -0.75758 4
1.04297 -2.692 -0.763665 3
2.53781 -6.62803 1.62787 32
3.05172 -5.03059 1.56511 36
2.53809 -6.62532 1.11565 33
3.11111 -5.14842 1.16146 14
1.0891 -2.83925 0.262992 9
3.09469 -5.1374 0.731089 14
1.07556 -2.80539 0.0518336 9
1.10054 -2.87212 -0.159894 3
1.63795 -2.72884 -0.274863 50
1.40958 -3.68935 -0.759484 4
1.02972 -2.69968 -0.764312 3
2.52133 -6.61607 1.62394 32
3.03793 -5.02765 1.56252 38
2.52416 -6.62007 1.11409 35
3.09071 -5.13492 1.15717 14
1.09833 -2.87839 0.266479 4
3.08022 -5.13162 0.729568 14
1.076 -2.82127 0.0520954 9
2.48238 -4.14394 0.251343 3
1.10973 -2.91137 -0.161994 3
1.6319 -2.72956 -0.274645 49
1.39879 -3.68033 -0.757104 4
1.02159 -2.69244 -0.761726 4
1.7017 -2.83482 -0.754131 8
2.48323 -6.62005 1.62169 32
3.00377 -5.02845 1.558 38
2.48513 -6.62164 1.11214 33
3.06343 -5.14839 1.15669 14
1.08287 -2.88158 0.266261 11
3.04571 -5.13488 0.727743 14
1.06698 -2.84073 0.0523572 8
2.4581 -4.15258 0.251082 4
1.83409 -4.89632 -0.636775 12
1.61045 -2.72493 -0.273341 49
1.38186 -3.69196 -0.758056 4
1.00964 -2.7021 -0.763019 4
2.47027 -6.6171 1.62001 32
2.9888 -5.02332 1.55477 38
2.47041 -6.61397 1.11019 33
3.04692 -5.14107 1.15383 14
3.03385 -5.13325 0.72683 15
1.076 -2.88006 0.0530553 11
2.45158 -4.15644 0.251082 4
1.81601 -4.87129 -0.633124 12
1.60315 -2.72345 -0.272906 49
1.37541 -3.69437 -0.758056 4
1.0066 -2.70839 -0.764312 4
1.63017 -2.75833 -0.730547 8
2.43223 -6.6208 1.61776 32
2.95966 -5.03214 1.55283 38
2.43063 -6.6129 1.10785 33
3.01465 -5.14584 1.15145 14
2.99941 -5.13622 0.725005 15
1.08037 -2.93708 0.0540152 8
2.43104 -4.17137 0.251213 4
2.40103 -4.1233 -0.0826808 3
1.77852 -4.84812 -0.628865 12
1.58558 -2.72507 -0.272253 41
1.3567 -3.70128 -0.758056 4
2.32115 -3.98014 -0.72509 8
0.993707 -2.71572 -0.764959 4
2.42099 -6.62232 1.6172 33
2.94109 -5.02063 1.54766 39
2.41824 -6.61482 1.10746 33
2.99823 -5.13839 1.14859 14
2.41774 -6.6099 0.612705 30
2.98044 -5.12429 0.722571 14
2.41748 -4.16482 0.250558 4
2.39509 -4.12965 -0.0827244 3
1.57582 -2.71922 -0.271383 15
1.34772 -3.69672 -0.756627 4
2.31048 -3.97778 -0.723915 8
0.988141 -2.71518 -0.764312 4
1.60842 -2.76544 -0.729424 8
2.37936 -6.61927 1.61327 33
2.9075 -5.02343 1.54378 39
2.38107 -6.62042 1.10629 33
2.96515 -5.14339 1.14621 14
2.38141 -6.61778 0.612269 36
2.94738 -5.12908 0.721049 15
2.39812 -4.18175 0.25082 4
2.37593 -4.14646 -0.0828117 3
1.65583 -4.61282 -0.596615 4
1.55907 -2.72312 -0.270949 15
1.33082 -3.71066 -0.758056 4
2.29031 -3.98942 -0.723915 8
0.976349 -2.72714 -0.766252 4
2.36486 -6.61153 1.61046 32
2.89027 -5.01386 1.53926 38
2.36817 -6.61717 1.10512 33
2.94638 -5.13154 1.1424 14
2.3665 -6.61255 0.611398 38
2.93562 -5.12724 0.720137 15
2.39031 -4.18335 0.250689 4
1.58122 -4.4218 -0.245092 3
2.36868 -4.15061 -0.0828117 3
1.64358 -4.6014 -0.59479 9
1.54937 -2.71719 -0.270079 14
1.32517 -3.71529 -0.758532 4
2.28826 -4.00198 -0.725481 8
0.969161 -2.72201 -0.764312 4
1.61505 -2.82068 -0.741216 8
2.3286 -6.61923 1.60934 33
2.86246 -5.02423 1.53797 39
2.32857 -6.61551 1.10277 35
2.91551 -5.13785 1.14049 15
2.90139 -5.12959 0.718311 15
2.36838 -4.19581 0.250689 4
1.5464 -4.39441 -0.243122 3
2.34273 -4.15384 -0.0826371 3
1.62111 -4.61462 -0.595398 4
1.53805 -2.72933 -0.270514 30
1.30635 -3.72195 -0.758532 8
2.27092 -4.02036 -0.726656 4
0.957764 -2.73372 -0.766252 4
1.63032 -2.88206 -0.755254 9
2.31498 -6.61368 1.60709 33
2.84653 -5.01662 1.53409 39
2.31295 -6.6079 1.10082 35
2.90049 -5.13225 1.13811 15
2.23999 -6.39579 0.589826 17
2.88878 -5.12816 0.717399 15
2.3586 -4.19558 0.250428 4
1.5379 -4.39475 -0.242991 3
2.33425 -4.15574 -0.0825935 3
1.61305 -4.61745 -0.595398 3
1.5284 -2.72333 -0.269644 49
1.30227 -3.73118 -0.759961 4
2.26026 -4.01786 -0.725481 8
0.950611 -2.72854 -0.764312 4
1.63368 -2.89975 -0.759185 9
2.27599 -6.61689 1.60485 33
2.81549 -5.02303 1.5315 39
2.27671 -6.61525 1.10004 35
2.86999 -5.14094 1.13668 15
2.20323 -6.39801 0.588955 17
2.85101 -5.12371 0.71466 15
2.34024 -4.21442 0.25082 4
1.50518 -4.37703 -0.241547 4
2.3076 -4.15917 -0.082419 4
1.67745 -4.88401 -0.628865 26
1.51848 -2.74027 -0.270514 50
1.28033 -3.73098 -0.758532 8
2.2416 -4.03395 -0.726264 8
0.937874 -2.73805 -0.765605 4
1.61966 -2.91039 -0.759746 8
2.26129 -6.61163 1.6026 32
2.80318 -5.02162 1.52957 39
2.26117 -6.60753 1.09809 35
2.85056 -5.12929 1.13286 14
2.18883 -6.39242 0.588083 17
2.85772 -5.15688 0.718615 12
2.32925 -4.21195 0.250428 4
1.49835 -4.38202 -0.241678 8
1.68415 -4.93155 -0.634645 17
1.51008 -2.73638 -0.269861 49
1.2754 -3.73785 -0.759484 4
2.22976 -4.02922 -0.724698 8
0.931839 -2.73756 -0.764959 3
1.61339 -2.91108 -0.759185 8
2.22238 -6.61453 1.60035 32
2.76897 -5.02402 1.52569 39
2.22381 -6.61499 1.09731 35
2.84259 -5.17855 1.14049 12
2.14945 -6.39001 0.586776 17
2.85125 -5.21143 0.724092 14
2.31002 -4.23106 0.25082 4
1.47379 -4.38507 -0.241416 8
1.66533 -4.96412 -0.637688 17
1.49692 -2.74643 -0.270079 49
1.25204 -3.73539 -0.75758 4
2.20793 -4.04123 -0.724698 8
0.919787 -2.74928 -0.766899 3
1.59645 -2.91763 -0.758623 8
2.20736 -6.60415 1.59698 32
2.75437 -5.01827 1.52246 39
2.20757 -6.60481 1.09497 35
2.84769 -5.20934 1.14621 12
2.13593 -6.38666 0.586122 15
2.30383 -4.23727 0.250951 4
1.4693 -4.39711 -0.241941 8
1.52216 -2.80532 -0.055106 12
1.65666 -4.96701 -0.637688 20
1.49213 -2.74904 -0.270079 50
1.24397 -3.73291 -0.756627 4
2.20324 -4.04941 -0.725481 8
0.913465 -2.74629 -0.765605 4
1.59135 -2.92042 -0.758623 8
2.17199 -6.61331 1.59642 33
2.72202 -5.01941 1.51858 39
2.17257 -6.61121 1.09419 36
2.83881 -5.25606 1.15336 12
2.09891 -6.38319 0.584815 15
2.28117 -4.24668 0.25082 4
1.4447 -4.4 -0.241678 4
1.50795 -2.81299 -0.055106 14
1.62764 -4.96355 -0.636166 26
1.47771 -2.75682 -0.270079 50
1.22735 -3.74616 -0.758056 4
2.18037 -4.05616 -0.724698 8
0.901052 -2.75547 -0.766899 4
1.57539 -2.92629 -0.758062 4
2.15667 -6.60551 1.59361 33
2.70981 -5.01778 1.51664 41
2.15873 -6.60795 1.09302 35
2.82988 -5.26366 1.15383 11
2.08313 -6.37264 0.583508 15
2.27493 -4.25286 0.250951 4
1.43934 -4.40963 -0.242072 4
1.47706 -2.76714 -0.0541461 14
1.6159 -4.95694 -0.634949 30
1.47525 -2.76378 -0.270514 53
1.22081 -3.7483 -0.758056 3
2.09623 -3.91637 -0.698858 9
0.89278 -2.74801 -0.764312 4
1.56913 -2.92689 -0.7575 4
2.11867 -6.61012 1.59193 33
2.67352 -5.01533 1.51147 39
2.11993 -6.61012 1.09146 36
2.81265 -5.2979 1.15812 8
2.04786 -6.38145 0.58329 15
2.25189 -4.2651 0.250951 3
1.42385 -4.44088 -0.243385 4
1.47142 -2.79277 -0.0544951 14
1.59057 -4.97034 -0.635558 36
1.46076 -2.77147 -0.270514 53
1.20275 -3.76186 -0.759484 8
2.04727 -3.87529 -0.689462 9
0.880579 -2.75955 -0.766252 8
1.55556 -2.93964 -0.758623 4
2.10532 -6.60415 1.58968 35
2.65795 -5.0072 1.5076 39
2.10539 -6.6044 1.0899 36
2.81374 -5.32232 1.16241 8
2.03142 -6.3684 0.581765 15
1.42291 -4.46477 -0.244566 4
1.39666 -2.66263 -0.0518773 9
1.58264 -4.97547 -0.635862 39
1.45592 -2.77401 -0.270514 55
1.19396 -3.75694 -0.758056 8
2.02438 -3.84828 -0.68398 11
0.875032 -2.75878 -0.765605 4
1.54928 -2.9402 -0.758062 4
2.06665 -6.60615 1.58744 36
2.62384 -5.00608 1.50307 39
2.06857 -6.60826 1.08873 36
2.78697 -5.33916 1.16289 8
1.99284 -6.36231 0.580239 15
1.55573 -4.96881 0.0902726 52
1.40622 -4.49361 -0.245748 4
1.39539 -2.6943 -0.0523572 9
1.55583 -4.98132 -0.635558 44
1.43563 -2.77055 -0.269426 49
1.175 -3.76548 -0.758532 8
2.014 -3.87599 -0.687113 8
0.860575 -2.76332 -0.765605 4
1.53612 -2.95259 -0.759185 4
2.05411 -6.60241 1.58575 35
2.61622 -5.01279 1.50372 41
2.05599 -6.60443 1.08755 36
2.79352 -5.37449 1.16956 4
1.98099 -6.36341 0.580021 17
1.54705 -4.97152 0.0902726 45
2.59907 -5.02452 0.294651 3
1.40652 -4.52228 -0.247192 4
1.3677 -2.65234 -0.0514846 9
1.54653 -4.97902 -0.634949 47
1.42621 -2.76421 -0.268557 32
1.16697 -3.76283 -0.75758 4
0.857177 -2.76944 -0.766899 4
1.53036 -2.95284 -0.758623 4
2.01595 -6.60142 1.58295 35
2.58194 -5.0088 1.49855 39
2.01921 -6.60802 1.08638 36
2.77751 -5.41038 1.17433 8
1.94294 -6.3543 0.578278 17
2.86742 -5.60431 0.767598 8
1.51895 -4.96972 0.090098 45
2.57387 -5.04028 0.294782 3
1.38646 -4.54152 -0.247848 3
1.35767 -2.6659 -0.0516155 9
1.51755 -4.97755 -0.633732 45
1.41285 -2.77385 -0.268774 14
1.14934 -3.77339 -0.758532 4
2.11521 -4.1405 -0.731746 9
0.843148 -2.77374 -0.766899 4
1.5171 -2.96514 -0.759746 4
2.00301 -6.60027 1.58182 33
2.56767 -5.00256 1.49532 39
2.00409 -6.59972 1.08443 36
2.78389 -5.44847 1.18148 9
1.93257 -6.36006 0.578496 17
2.88922 -5.6712 0.776117 9
1.50868 -4.97024 0.0900544 45
1.39157 -4.58694 -0.250211 3
1.34394 -2.65045 -0.0512664 11
1.50814 -4.97782 -0.633428 47
1.40575 -2.77188 -0.268339 14
1.14276 -3.77539 -0.758532 4
0.836428 -2.77073 -0.765605 4
1.51082 -2.96562 -0.759185 4
1.96311 -6.597 1.57845 32
2.53729 -5.00992 1.49338 39
1.96554 -6.601 1.08287 36
2.76861 -5.48926 1.1872 8
1.89387 -6.3561 0.577189 17
1.48192 -4.97567 0.0900108 45
1.38034 -4.63724 -0.252574 3
1.33183 -2.66215 -0.0513537 9
1.47923 -4.97613 -0.632211 45
1.3901 -2.77697 -0.268122 15
1.12161 -3.77916 -0.758056 4
0.824648 -2.78433 -0.768192 4
1.95205 -6.59774 1.57789 32
2.5231 -5.00357 1.49015 39
1.95237 -6.59461 1.08131 36
2.77998 -5.53573 1.19625 9
1.87964 -6.34474 0.575882 18
1.46969 -4.96627 0.0897926 45
1.36274 -2.732 0.158185 15
1.38286 -4.67555 -0.254543 3
1.32429 -2.65753 -0.0512228 9
1.46914 -4.97395 -0.631603 47
1.38908 -2.78583 -0.268774 49
1.1129 -3.7715 -0.756151 4
1.46386 -2.93147 -0.514062 8
0.81823 -2.77867 -0.766252 4
1.91727 -6.60285 1.57677 35
2.4943 -5.00719 1.48756 38
1.91759 -6.59966 1.08053 38
2.77802 -5.5998 1.20721 9
1.84681 -6.35178 0.575664 18
2.97601 -6.01911 0.819015 14
1.44331 -4.96619 0.0896617 47
1.34446 -2.72991 0.157662 26
1.42678 -4.91243 -0.267146 11
1.30861 -2.65972 -0.0511355 9
1.43911 -4.96463 -0.629473 47
1.37165 -2.78613 -0.268122 23
1.09448 -3.77945 -0.756627 4
1.44243 -2.92557 -0.511713 11
0.806163 -2.78974 -0.768192 4
1.9069 -6.60586 1.57677 35
2.48233 -5.00505 1.48562 36
1.90196 -6.58876 1.07819 35
2.86947 -5.8092 1.25154 12
1.84815 -6.39807 0.579586 9
2.95342 -5.99981 0.815668 15
1.43395 -4.9663 0.0896181 47
1.33529 -2.7233 0.157139 27
1.43272 -4.96529 -0.269903 44
1.30065 -2.65527 -0.0510047 9
1.42976 -4.96475 -0.629169 47
1.37118 -2.79746 -0.268991 9
1.08653 -3.77663 -0.755675 4
1.43514 -2.92365 -0.51093 9
0.802624 -2.79579 -0.769485 3
1.86716 -6.60201 1.5734 33
2.44865 -5.0028 1.4811 35
1.86609 -6.59388 1.07741 38
1.84582 -6.51789 0.589609 9
2.91871 -6.0085 0.814755 14
1.40521 -4.96412 0.0894436 47
1.32319 -2.73474 0.1574 24
1.40584 -4.97297 -0.269903 45
1.28782 -2.66429 -0.0510483 15
1.40172 -4.96501 -0.628256 45
1.3582 -2.80932 -0.269426 11
1.0694 -3.79172 -0.75758 4
1.42845 -2.94889 -0.514062 8
0.786015 -2.79298 -0.767545 4
1.85234 -6.59353 1.57059 32
2.43461 -4.99622 1.47787 33
1.85458 -6.59712 1.07741 38
1.85466 -6.59303 0.596145 35
2.9093 -6.01582 0.81506 14
1.39432 -4.96199 0.0893563 45
1.31624 -2.73255 0.157139 20
1.39513 -4.9682 -0.269509 45
1.28535 -2.67103 -0.0511355 15
1.39239 -4.96506 -0.627952 45
1.35005 -2.80496 -0.268774 15
1.06212 -3.79122 -0.757104 4
0.782597 -2.80146 -0.769485 3
1.81535 -6.59876 1.56947 32
2.40545 -5.00497 1.47658 32
1.81427 -6.5904 1.07468 36
3.11137 -6.49932 1.39261 23
1.81962 -6.60537 0.596363 41
2.86494 -6.00684 0.811713 15
1.36633 -4.96199 0.0892254 45
1.36711 -4.96822 -0.269115 45
1.2655 -2.66667 -0.0509174 9
1.36353 -4.96534 -0.627039 45
1.33856 -2.81873 -0.269426 14
1.04483 -3.80874 -0.759484 4
1.80241 -6.5922 1.56722 32
2.39149 -4.99827 1.47335 27
1.80342 -6.59593 1.07507 36
3.16664 -6.64426 1.42263 32
1.80546 -6.59892 0.595492 38
2.85552 -6.01407 0.812017 15
1.35635 -4.95955 0.0891382 45
1.35844 -4.9706 -0.269115 45
1.26084 -2.66887 -0.0509174 9
1.35421 -4.96532 -0.626735 45
1.33897 -2.83231 -0.270514 11
1.03625 -3.80346 -0.758056 4
1.76609 -6.5995 1.56666 35
2.36115 -5.00199 1.47076 24
1.76694 -6.59813 1.0739 39
3.13076 -6.65853 1.42216 33
1.76766 -6.59626 0.594402 38
1.32908 -4.96175 0.0890509 45
2.33921 -5.00495 0.287717 3
1.32982 -4.96799 -0.26859 45
1.24685 -2.67544 -0.0509174 9
1.32628 -4.96515 -0.625822 45
1.32307 -2.83703 -0.270296 12
1.01569 -3.80646 -0.75758 8
1.28314 -2.7407 -0.689556 8
1.75259 -6.5905 1.56385 35
2.35036 -5.00173 1.46947 20
1.75225 -6.58927 1.07195 33
3.11288 -6.65065 1.4193 30
1.75359 -6.58971 0.593531 38
1.31849 -4.95682 0.08892 45
2.32836 -5.0045 0.287455 4
1.32114 -4.97031 -0.26859 45
1.23901 -2.67081 -0.0507865 9
1.3157 -4.96026 -0.624909 45
1.32127 -2.84611 -0.270949 14
1.01218 -3.82009 -0.759961 8
1.29074 -2.76942 -0.696294 8
1.71568 -6.59517 1.56273 35
2.31193 -4.98769 1.46171 15
1.71524 -6.5888 1.07039 36
3.07287 -6.65572 1.41691 30
1.29189 -4.96123 0.0888764 47
2.30004 -5.01209 0.287194 8
1.29322 -4.96991 -0.268196 45
1.22501 -2.67726 -0.0507865 9
1.2866 -4.95507 -0.623388 41
1.30947 -2.85978 -0.271601 14
1.35244 -2.94924 -0.508972 3
1.2558 -2.7319 -0.685063 11
2.30119 -4.98733 1.46042 15
3.05098 -6.63878 1.41215 27
1.28198 -4.95864 0.0887891 38
1.27955 -4.95282 -0.267146 8
1.22138 -2.68167 -0.0508301 15
1.26681 -4.91405 -0.617912 2
1.30344 -2.85979 -0.271383 11
1.25408 -2.74073 -0.686748 3
2.26703 -4.98173 1.45525 14
1.25047 -4.93981 0.442751 2
1.23885 -4.89743 0.0875674 2
1.24235 -4.91852 -0.264914 2
1.20424 -2.68119 -0.0506992 18
1.24227 -4.92543 -0.61852 3
1.29102 -2.87361 -0.272036 9
1.23224 -4.91087 1.15899 1
2.25733 -4.98349 1.45461 11
1.23656 -4.9245 0.796838 1
1.23154 -4.90092 0.439047 2
1.23552 -4.92404 0.0880038 2
1.27681 -2.85271 0.16198 14
1.20058 -2.68557 -0.0507429 9
1.23608 -4.93722 -0.619737 2
1.28703 -2.87813 -0.272253 9
1.20624 -4.91983 1.15955 2
2.22047 -4.97358 1.44814 1
1.20814 -4.92392 0.795667 2
2.20257 -4.95662 1.0466 1
1.2507 -2.83021 0.375128 9
1.25428 -2.8436 0.161064 14
1.183 -2.68517 -0.050612 9
1.26387 -2.86661 -0.270514 9
1.88504 -4.26373 -0.733703 9
2.21277 -4.97966 1.44879 2
2.1959 -4.96494 1.04755 2
1.24375 -2.82785 0.37452 11
1.24831 -2.8435 0.160933 12
1.18133 -2.69409 -0.0507429 9
1.25686 -2.86426 -0.270079 9
1.88059 -4.27379 -0.734878 9
2.17685 -4.96647 1.44168 2
1.22942 -2.83411 0.37452 9
1.22793 -2.83604 0.160148 14
1.1637 -2.69087 -0.0505683 9
1.23192 -2.84796 -0.267904 4
1.85598 -4.27646 -0.733703 8
2.16334 -4.9592 1.43845 3
1.21164 -2.80665 0.370565 4
1.22694 -2.84735 0.160671 12
1.16396 -2.70437 -0.0507865 9
1.21311 -2.8181 -0.26486 4
1.85047 -4.28422 -0.734486 8
1.32259 -3.05686 -0.759746 8
2.12979 -4.95531 1.43393 3
1.19741 -2.81545 0.370869 9
1.2076 -2.84476 0.160148 11
1.15029 -2.71292 -0.0508301 11
1.18663 -2.79692 -0.26225 3
1.83383 -4.30748 -0.736835 8
1.30412 -3.0595 -0.758623 8
2.11923 -4.95458 1.43264 2
1.19007 -2.81048 0.369956 4
1.20509 -2.85125 0.16041 11
1.14945 -2.72413 -0.0510047 17
1.17494 -2.78293 -0.260728 3
1.82631 -4.31067 -0.736835 4
1.29931 -3.06154 -0.758623 8
2.08849 -4.95189 1.42876 2
2.78351 -6.62771 1.38927 38
1.17822 -2.82353 0.370869 8
1.18725 -2.85061 0.160017 15
1.13565 -2.72992 -0.0510047 15
1.16419 -2.79824 -0.261598 3
1.80562 -4.32473 -0.737618 4
1.28326 -3.0683 -0.758623 4
2.0789 -4.9533 1.42811 2
2.77267 -6.63757 1.39023 33
1.16756 -2.81185 0.369043 9
1.18323 -2.85498 0.160148 26
1.12992 -2.72959 -0.050961 9
1.16026 -2.80257 -0.261815 3
1.80187 -4.33699 -0.739184 4
1.27603 -3.06604 -0.7575 4
2.0456 -4.94886 1.42359 2
2.7304 -6.63385 1.38641 39
0.490043 -2.26381 0.199587 9
1.15421 -2.82271 0.369652 8
1.16682 -2.85903 0.160017 32
1.12177 -2.75185 -0.0512664 9
0.488413 -2.26582 -0.279901 8
1.1484 -2.81552 -0.262468 3
0.488045 -2.26793 -0.44331 3
1.78008 -4.34865 -0.739576 4
1.26127 -3.07741 -0.758623 8
2.03512 -4.94796 1.4223 2
2.71416 -6.62725 1.38403 30
0.484006 -2.25492 0.198715 8
1.1432 -2.80844 0.367522 4
0.482741 -2.25092 0.0395733 9
1.16422 -2.86548 0.160279 32
1.11225 -2.74223 -0.0510483 9
0.482783 -2.25687 -0.278684 11
0.482554 -2.26157 -0.441882 9
1.77809 -4.36547 -0.741925 4
1.25644 -3.07938 -0.758623 4
2.00459 -4.94477 1.41842 2
0.473312 -2.26273 0.359787 8
2.68058 -6.6409 1.38403 30
0.471569 -2.25246 0.198279 8
1.12756 -2.81209 0.367218 8
0.472362 -2.25823 0.0396606 11
1.14826 -2.86922 0.160148 26
1.10767 -2.77102 -0.0514846 9
0.471969 -2.26423 -0.279293 8
0.472098 -2.26879 -0.442834 4
1.75244 -4.36785 -0.74075 4
1.23574 -3.07462 -0.755816 4
1.99234 -4.93931 1.41583 2
0.467362 -2.25388 0.358226 9
2.66233 -6.63238 1.38117 30
0.467637 -2.25328 0.198279 8
1.12357 -2.81636 0.367522 8
0.464992 -2.24445 0.0393988 8
1.14418 -2.87354 0.160279 24
1.10376 -2.77527 -0.0515282 9
0.465513 -2.2529 -0.277771 9
0.467643 -2.26721 -0.442358 4
1.7494 -4.38236 -0.742708 8
1.22946 -3.07452 -0.755254 8
1.96648 -4.95226 1.41648 2
0.456134 -2.26121 0.359006 8
2.62214 -6.63253 1.37831 30
0.45249 -2.24113 0.196972 9
1.11833 -2.84779 0.370869 8
0.453234 -2.24685 0.0393988 8
1.12953 -2.88201 0.16041 20
0.45623 -2.2638 -0.119592 8
1.09422 -2.79516 -0.05179 8
0.453805 -2.25781 -0.278076 4
0.45537 -2.26971 -0.442358 3
1.72462 -4.38686 -0.741925 8
1.20833 -3.0698 -0.752447 11
1.95605 -4.95119 1.41519 3
0.451133 -2.25466 0.357836 8
2.60876 -6.63253 1.37736 32
0.449552 -2.2468 0.197408 9
1.11839 -2.86109 0.37239 8
0.448335 -2.24274 0.0393115 9
1.12592 -2.88611 0.160541 15
0.450328 -2.25479 -0.119067 8
1.08752 -2.79241 -0.0517027 9
0.449774 -2.25609 -0.277771 4
0.449022 -2.25846 -0.439977 3
1.71696 -4.38987 -0.741925 8
1.20262 -3.06942 -0.751885 9
1.92658 -4.94978 1.41196 2
0.438381 -2.25215 0.357055 4
2.56628 -6.62278 1.37259 32
0.4377 -2.2466 0.19719 4
1.10608 -2.87385 0.373303 4
0.438406 -2.25234 0.0394424 4
1.11618 -2.90594 0.161326 14
0.438041 -2.25467 -0.118936 8
1.07427 -2.80021 -0.0517464 12
0.438897 -2.26329 -0.27838 4
0.43898 -2.26793 -0.441406 3
1.69573 -4.4034 -0.742708 9
1.18213 -3.06432 -0.749077 11
1.91881 -4.95539 1.4126 2
0.433517 -2.24806 0.356275 4
2.55179 -6.62311 1.37164 32
0.432367 -2.24003 0.196536 4
0.432195 -2.24336 0.0392679 8
0.433635 -2.25298 -0.118804 4
1.07206 -2.80908 -0.0518773 14
0.434479 -2.26161 -0.278076 4
0.433178 -2.25905 -0.439501 4
1.68716 -4.40405 -0.742316 9
1.17415 -3.05956 -0.747393 9
1.88766 -4.95442 1.40937 3
0.422707 -2.25765 0.357445 4
2.51446 -6.6295 1.37021 32
0.420698 -2.24478 0.196754 8
0.420443 -2.24559 0.0392679 9
0.421833 -2.25522 -0.118804 4
1.05597 -2.8125 -0.0518336 12
0.420423 -2.25417 -0.276859 8
0.420501 -2.25895 -0.439025 4
1.65796 -4.39666 -0.739576 9
0.42245 -2.27822 -0.611062 4
1.16708 -3.09092 -0.75357 3
1.87815 -4.95545 1.40873 2
0.416914 -2.24617 0.355494 3
2.49855 -6.6224 1.36783 32
0.415873 -2.24061 0.196318 8
2.48571 -6.61276 0.861913 32
0.416523 -2.24632 0.0392679 12
0.41699 -2.25104 -0.118542 4
1.05545 -2.82604 -0.0520518 8
0.416558 -2.25968 -0.439025 4
1.6242 -4.33022 -0.72783 3
0.418038 -2.27658 -0.610415 3
1.16222 -3.09275 -0.75357 4
1.84966 -4.95584 1.40614 2
0.406893 -2.25805 0.357055 4
2.46328 -6.63036 1.36687 32
0.404087 -2.24024 0.1961 11
2.44415 -6.60707 0.859479 33
0.404265 -2.24348 0.0391806 14
0.403436 -2.24337 -0.118017 8
1.04113 -2.83135 -0.0520518 8
1.83758 -4.98677 -0.461004 44
0.405547 -2.26418 -0.439501 4
1.60579 -4.35024 -0.729788 9
0.406087 -2.27629 -0.609768 3
1.15026 -3.11021 -0.756377 4
1.84017 -4.9568 1.4055 3
0.400358 -2.24417 0.354714 8
2.44544 -6.62127 1.36401 32
0.399303 -2.23604 0.195665 11
2.4309 -6.60667 0.85887 35
0.399957 -2.24425 0.0391806 12
0.399084 -2.24161 -0.117886 11
1.03619 -2.83316 -0.0520518 2
1.82544 -4.98062 -0.460134 45
0.402876 -2.27213 -0.44093 4
1.5999 -4.35767 -0.730571 11
0.403807 -2.28896 -0.613002 4
1.14483 -3.11222 -0.756377 4
1.81166 -4.96215 1.4042 3
0.390306 -2.25847 0.356665 8
2.40906 -6.62937 1.36306 32
0.386777 -2.23571 0.195447 11
2.39343 -6.61506 0.858262 35
0.388201 -2.24631 0.0391806 11
0.389034 -2.25351 -0.118411 11
1.02849 -2.85988 -0.0524445 2
0.39099 -2.2767 -0.441406 8
1.59557 -4.41706 -0.739184 12
0.391005 -2.28628 -0.611708 4
1.13213 -3.12981 -0.759185 8
1.79969 -4.95622 1.40162 2
0.385097 -2.24934 0.355104 8
2.39414 -6.62434 1.36115 32
0.382874 -2.23638 0.195447 11
2.38219 -6.61647 0.857958 35
0.385959 -2.25684 0.0393552 14
0.384682 -2.25172 -0.118279 11
1.02942 -2.87814 -0.0527499 2
0.388245 -2.28464 -0.442834 8
1.59121 -4.42913 -0.74075 12
0.387817 -2.29172 -0.613002 4
1.12638 -3.1293 -0.758623 8
1.77377 -4.963 1.40097 2
0.375729 -2.26594 0.357445 4
2.35646 -6.62481 1.35877 32
0.372769 -2.24566 0.1961 4
2.33922 -6.60547 0.854915 33
0.373716 -2.25384 0.0392679 3
1.75714 -4.97635 0.274764 4
0.374105 -2.2611 -0.118673 11
1.02317 -2.90688 -0.0531862 3
1.69053 -4.79358 -0.440781 12
0.376677 -2.28657 -0.442834 4
1.5779 -4.46533 -0.745449 12
0.376213 -2.29365 -0.613002 4
1.11243 -3.14204 -0.760308 4
1.76348 -4.96154 1.39968 3
2.34128 -6.62238 1.35734 33
0.370055 -2.25368 0.196754 4
2.32603 -6.60486 0.854307 33
0.370999 -2.26442 0.0394424 11
1.7468 -4.9747 0.274502 8
0.371765 -2.2716 -0.119198 9
1.02639 -2.93224 -0.0536225 3
1.74663 -4.97978 -0.457742 45
0.374258 -2.29692 -0.444739 4
1.57338 -4.47739 -0.747015 9
0.371809 -2.29437 -0.613002 4
1.10613 -3.14168 -0.759746 4
1.73262 -4.95961 1.39645 3
2.30092 -6.61833 1.354 33
0.3598 -2.26795 0.197844 9
2.28782 -6.61032 0.853394 33
0.358358 -2.26139 0.0393552 9
1.7223 -4.99115 0.274895 9
0.359088 -2.26858 -0.118936 8
1.71809 -4.9818 -0.45709 45
0.361065 -2.29406 -0.443787 4
1.54994 -4.48817 -0.747406 8
0.35979 -2.29629 -0.613002 4
1.08832 -3.14531 -0.759185 4
1.72078 -4.9535 1.39386 3
2.28695 -6.61538 1.35257 33
0.354687 -2.26119 0.19719 9
2.27547 -6.61195 0.85309 33
0.355182 -2.26695 0.0394424 9
1.70872 -4.97999 0.27411 9
0.356666 -2.27907 -0.119461 4
1.70696 -4.97772 -0.456437 45
0.356685 -2.29226 -0.44331 4
1.54211 -4.49087 -0.747406 8
0.355046 -2.29214 -0.611708 4
1.08203 -3.14491 -0.758623 4
1.69725 -4.96672 1.39516 4
2.25027 -6.61758 1.35067 35
0.345098 -2.27527 0.198279 8
2.23719 -6.60929 0.851264 33
0.342211 -2.25884 0.0392679 8
1.68269 -4.98621 0.273979 9
0.343241 -2.27104 -0.118936 8
1.67499 -4.96915 -0.090927 42
1.67688 -4.97479 -0.45535 45
0.345078 -2.29404 -0.44331 8
1.51936 -4.49861 -0.747406 8
0.344152 -2.29868 -0.613002 8
1.06767 -3.15496 -0.759746 4
1.68702 -4.9651 1.39386 4
2.23442 -6.61259 1.34876 33
0.340759 -2.27341 0.198061 8
2.22328 -6.60613 0.850352 33
0.338979 -2.2669 0.0393988 9
1.67239 -4.9844 0.273717 9
0.339277 -2.27163 -0.118936 8
1.66472 -4.96733 -0.0908398 45
0.340484 -2.28519 -0.278988 4
1.66502 -4.96827 -0.45448 45
0.340355 -2.28978 -0.442358 8
1.50835 -4.4919 -0.74584 9
0.34009 -2.30173 -0.613648 8
1.06216 -3.15682 -0.759746 4
1.65937 -4.97187 1.39322 4
2.19744 -6.61721 1.34733 35
0.32739 -2.26782 0.197408 4
2.18438 -6.60864 0.849135 33
0.32746 -2.27112 0.0394424 9
1.6407 -4.97915 0.272932 9
0.328441 -2.28079 -0.11933 9
1.63625 -4.97152 -0.0907525 45
0.327764 -2.28454 -0.278684 4
1.63664 -4.96983 -0.453828 45
0.328653 -2.29645 -0.44331 4
1.48559 -4.50208 -0.746232 8
0.325999 -2.28913 -0.609768 4
1.04583 -3.16483 -0.760308 8
1.64382 -4.95413 1.3874 4
2.18203 -6.60938 1.34495 33
0.323082 -2.26593 0.19719 4
2.17167 -6.60499 0.848222 33
0.323846 -2.27417 0.0394861 9
1.63365 -4.9841 0.273063 9
0.32341 -2.27394 -0.118936 9
1.62446 -4.96487 -0.090578 45
0.325911 -2.29734 -0.280205 4
1.62719 -4.97031 -0.45361 45
0.323277 -2.2873 -0.441406 8
1.47618 -4.49997 -0.745449 8
0.323008 -2.29687 -0.611708 4
1.04239 -3.17109 -0.761431 8
1.63901 -5.02436 1.40485 8
2.14627 -6.61334 1.34352 35
0.311609 -2.26753 0.19719 4
2.134 -6.60683 0.847005 33
0.311317 -2.26835 0.0393552 9
1.6037 -4.9807 0.272409 9
0.311499 -2.27561 -0.118936 9
1.59624 -4.96351 -0.0904035 44
0.311538 -2.2818 -0.278076 4
1.59732 -4.96691 -0.452523 45
0.313015 -2.29863 -0.44331 4
1.45184 -4.50529 -0.745057 8
0.310733 -2.29369 -0.610415 4
1.02728 -3.18114 -0.762554 4
2.13131 -6.61045 1.34209 33
0.308317 -2.27301 0.197626 8
2.1179 -6.59637 0.845179 33
0.307295 -2.27142 0.0393988 8
1.59653 -4.98825 0.27267 9
0.306862 -2.2712 -0.118673 8
1.58604 -4.96153 -0.0903162 45
0.308215 -2.28726 -0.278684 4
1.58789 -4.96732 -0.452306 45
0.308026 -2.29188 -0.441882 9
1.447 -4.51722 -0.746623 8
0.307601 -2.30386 -0.613002 8
1.01873 -3.17366 -0.760308 4
2.09444 -6.6145 1.34066 33
0.294735 -2.26476 0.196754 8
2.07919 -6.59827 0.843962 35
0.295077 -2.27052 0.0393552 9
1.56651 -4.98729 0.272147 8
0.296565 -2.28515 -0.11933 9
1.55768 -4.96527 -0.0902289 45
0.296152 -2.29135 -0.278988 3
1.55887 -4.96606 -0.451436 45
0.297183 -2.30568 -0.444263 3
1.42328 -4.52734 -0.747015 4
0.294617 -2.29825 -0.611062 8
1.00228 -3.18144 -0.760869 4
2.09105 -6.60402 1.84427 1
2.0792 -6.60644 1.33828 33
0.29015 -2.26033 0.196318 11
2.0647 -6.59242 0.842745 33
0.292062 -2.27847 0.0394861 9
1.55855 -4.9924 0.272278 9
0.29226 -2.28319 -0.119198 9
1.54752 -4.96321 -0.0901417 45
0.292465 -2.29433 -0.279293 3
1.54796 -4.96165 -0.450784 45
0.292542 -2.30133 -0.44331 11
1.41685 -4.53453 -0.747798 4
0.290907 -2.30116 -0.611708 73
0.996726 -3.18319 -0.760869 4
2.0392 -6.55954 1.82876 1
2.04313 -6.61255 1.33732 33
0.279522 -2.27171 0.19719 8
2.02796 -6.59602 0.841833 36
0.279825 -2.27748 0.0394424 9
1.53092 -4.99572 0.272016 9
0.281209 -2.29213 -0.119592 3
1.51564 -4.95213 -0.0897926 44
0.281346 -2.30322 -0.280205 52
1.5205 -4.96492 -0.450349 47
0.280488 -2.30283 -0.44331 56
1.39388 -4.54164 -0.747798 4
0.278565 -2.30025 -0.611062 58
0.982203 -3.19535 -0.762554 4
2.02203 -6.54464 1.82359 1
2.02942 -6.60907 1.33589 33
0.27496 -2.26725 0.196754 8
2.01614 -6.59446 0.841224 36
0.275551 -2.27549 0.0393988 47
1.5187 -4.98379 0.271231 9
0.27691 -2.29013 -0.119461 56
1.50772 -4.95715 -0.0898363 44
0.27625 -2.29134 -0.278684 50
1.51111 -4.96518 -0.450131 47
0.275887 -2.29844 -0.442358 50
1.38596 -4.54407 -0.747798 8
0.27455 -2.30073 -0.611062 59
0.973605 -3.18524 -0.759746 4
1.98677 -6.54785 1.82165 1
1.9931 -6.60986 1.33399 33
0.262624 -2.26119 0.1961 8
1.97873 -6.59542 0.840007 36
0.265462 -2.28927 0.039617 52
1.49402 -4.99646 0.271493 11
0.2652 -2.29403 -0.119592 52
1.47831 -4.95036 -0.0895745 44
