# .PCD v0.7 - Point Cloud Data file format
VERSION 0.7
FIELDS x y z intensity
SIZE 4 4 4 4
TYPE F F F F
COUNT 1 1 1 1
WIDTH 1557
HEIGHT 1
VIEWPOINT 0 0 0 1 0 0 0
POINTS 1557
DATA ascii
-0.0526414 -5.70595 1.10141 18
-0.42029 -2.22965 0.195447 9
-0.0606302 -5.71181 0.696102 27
-0.426853 -2.26219 0.0395733 55
-0.0288062 -2.29387 0.11841 90
-0.428589 -2.26919 -0.119592 52
-0.0295495 -2.28912 -0.0393552 97
-0.428587 -2.26274 -0.278076 50
-0.0291543 -2.28839 -0.196796 82
-0.429773 -2.2647 -0.440453 50
-0.0279654 -2.28635 -0.357064 52
-0.43131 -2.26427 -0.607829 56
-0.025539 -2.27817 -0.517167 47
-1.0773 -5.53415 1.29151 15
-0.0723713 -5.68537 1.51212 15
-0.0819488 -5.66388 1.09331 15
-0.432435 -2.22987 0.195665 9
-0.439169 -2.26238 0.039617 53
-0.0407772 -2.2912 0.118279 90
-0.441816 -2.27174 -0.119855 50
-0.0415349 -2.28894 -0.0393552 97
-0.440905 -2.2629 -0.27838 50
-0.0415352 -2.2882 -0.196796 85
-0.442568 -2.26724 -0.441406 50
-0.0399363 -2.28617 -0.357064 53
-0.44316 -2.26198 -0.607829 56
-0.0374671 -2.27801 -0.517167 47
-1.10107 -5.60397 1.30836 14
-0.0818667 -5.65384 1.50372 14
-1.10218 -5.61473 0.898686 20
-0.0925557 -5.64653 1.08997 15
-0.436806 -2.23155 0.195883 9
-0.443995 -2.26398 0.0396606 53
-0.0447324 -2.28863 0.118148 90
-0.445298 -2.26852 -0.119723 50
-0.0455743 -2.29136 -0.0393988 98
-0.445814 -2.26699 -0.278988 50
-0.0455288 -2.28813 -0.196796 86
-0.447 -2.26887 -0.441882 50
-0.0439263 -2.2861 -0.357064 53
-0.447972 -2.26349 -0.608475 56
-0.0414429 -2.27794 -0.517167 47
-1.12316 -5.55734 1.29881 14
-0.111996 -5.62917 1.49726 14
-1.07382 -5.31823 0.85186 1
-0.121406 -5.61162 1.0833 15
-0.449366 -2.2316 0.1961 8
-0.0551216 -2.26974 0.27412 9
-0.455843 -2.26163 0.0396606 52
-0.0572285 -2.29334 0.11841 90
-0.457665 -2.2686 -0.119855 50
-0.057971 -2.29108 -0.0393988 98
-0.457579 -2.26212 -0.278684 49
-0.0574514 -2.28537 -0.196579 86
-0.459269 -2.26642 -0.441882 50
-0.0558405 -2.28337 -0.356672 53
-0.461266 -2.26822 -0.610415 58
-0.0537147 -2.27524 -0.516605 47
-1.1314 -5.55318 1.29825 14
-0.121269 -5.60241 1.49015 14
-0.130482 -5.5795 1.0771 14
-0.45326 -2.23081 0.1961 8
-0.058569 -2.26469 0.273512 11
-0.459789 -2.26083 0.0396606 52
-0.0607699 -2.29075 0.118279 90
-0.462123 -2.27024 -0.119986 50
-0.0619696 -2.29098 -0.0393988 99
-0.46163 -2.26383 -0.278988 49
-0.06144 -2.28526 -0.196579 86
-0.463717 -2.26802 -0.442358 50
-0.0598256 -2.28327 -0.356672 53
-0.466197 -2.27214 -0.611708 56
-0.0573447 -2.27759 -0.517167 47
-1.20141 -5.7427 1.3443 3
-0.149 -5.57758 1.48369 14
-1.21773 -5.82562 0.934977 2
-0.159938 -5.62293 1.08568 15
-0.467094 -2.24068 0.19719 8
-0.070498 -2.26683 0.273816 11
-0.47225 -2.26336 0.0397479 52
-0.0729114 -2.29539 0.118541 90
-0.473491 -2.26535 -0.119855 50
-0.0735644 -2.29063 -0.0393988 99
-0.473476 -2.26138 -0.278988 49
-0.0734047 -2.28491 -0.196579 86
-0.474686 -2.26324 -0.441882 50
-0.0717799 -2.28292 -0.356672 53
-0.0692005 -2.27482 -0.516605 47
-1.2205 -5.7835 1.3544 15
-0.159134 -5.5918 1.48756 14
-1.22229 -5.79691 0.930685 15
-0.172108 -5.66922 1.09474 15
-0.469976 -2.23498 0.196754 8
-0.0744542 -2.26671 0.273816 11
-0.477112 -2.2649 0.0397915 50
-0.0768391 -2.29277 0.11841 90
-0.478477 -2.2694 -0.120117 50
-0.0775622 -2.2905 -0.0393988 99
-0.477937 -2.26298 -0.279293 49
-0.0773925 -2.28478 -0.196579 89
-0.479654 -2.26721 -0.442834 50
-0.0757642 -2.28279 -0.356672 53
-0.0732438 -2.27714 -0.517167 47
-0.191138 -5.64396 1.50178 14
-0.482589 -2.23484 0.196972 4
-0.488964 -2.26237 0.0397915 50
-0.089243 -2.29232 0.11841 90
-0.490353 -2.26687 -0.120117 50
-0.0899538 -2.29005 -0.0393988 99
-0.490701 -2.26278 -0.279597 49
-0.0894466 -2.28683 -0.196796 86
-0.491914 -2.26458 -0.442834 50
-0.0878054 -2.28483 -0.357064 53
-0.0856495 -2.27914 -0.517728 47
-0.202414 -5.68465 1.51277 17
-1.17473 -5.38535 0.865517 1
-0.486489 -2.234 0.196972 8
-0.491844 -2.25663 0.0397042 50
-0.0927478 -2.28968 0.118279 90
-0.494309 -2.26601 -0.120117 49
-0.0939505 -2.28989 -0.0393988 99
-0.494786 -2.26443 -0.279901 49
-0.0932448 -2.28169 -0.196362 89
-0.495865 -2.26372 -0.442834 50
-0.0916992 -2.28221 -0.356672 53
-0.0892294 -2.279 -0.517728 47
-0.23128 -5.68596 1.51341 14
-0.498333 -2.23394 0.19719 4
-0.503806 -2.25655 0.0397479 50
-0.104953 -2.29415 0.118541 90
-0.505074 -2.25852 -0.119855 49
-0.105759 -2.29438 -0.0394861 100
-0.50446 -2.25213 -0.278684 49
-0.105409 -2.28615 -0.196796 89
-0.507317 -2.26118 -0.442834 50
-0.103861 -2.28663 -0.357455 52
-0.101367 -2.28337 -0.518851 47
-0.23629 -5.56731 1.48175 12
-0.501136 -2.2282 0.196754 4
-0.509789 -2.26289 0.0398787 50
-0.10873 -2.28898 0.118279 90
-0.509566 -2.26007 -0.119986 49
-0.109535 -2.28919 -0.0393988 99
-0.508938 -2.25366 -0.278988 36
-0.109399 -2.28596 -0.196796 89
-0.511262 -2.26029 -0.442834 9
-0.10763 -2.28151 -0.356672 53
-0.10503 -2.27589 -0.517167 47
-0.266861 -5.5756 1.48433 15
-0.514306 -2.23031 0.19719 4
-0.51994 -2.25289 0.0397479 42
-0.12124 -2.29085 0.11841 90
-0.520266 -2.2525 -0.119723 12
-0.122175 -2.29356 -0.0394861 99
-0.520002 -2.24604 -0.27838 3
-0.121621 -2.29033 -0.197231 86
-0.522928 -2.2551 -0.442358 9
-0.119698 -2.28338 -0.357064 53
-0.117463 -2.27772 -0.517728 47
-0.27671 -5.57754 1.48498 14
-0.517067 -2.22456 0.196754 4
-0.29515 -5.61505 0.685149 29
-0.524439 -2.25441 0.0397915 4
-0.124708 -2.28816 0.118279 90
-0.523629 -2.24916 -0.119592 12
-0.125781 -2.28586 -0.0393552 98
-0.523529 -2.24522 -0.27838 3
-0.125224 -2.28266 -0.196579 82
-0.525743 -2.2494 -0.441406 4
-0.123555 -2.2807 -0.356672 53
-0.120916 -2.2751 -0.517167 47
-0.303898 -5.55678 1.47981 15
-0.530053 -2.22918 0.197408 4
-0.331602 -5.7373 0.700361 36
-0.533523 -2.242 0.039617 4
-0.136974 -2.29246 0.118541 90
-0.533267 -2.2392 -0.119198 11
-0.137783 -2.29268 -0.0394861 98
-0.535278 -2.24245 -0.27838 8
-0.137208 -2.28945 -0.197231 86
-0.537694 -2.2491 -0.441882 8
-0.135495 -2.28003 -0.356672 53
-0.132964 -2.27687 -0.517728 47
-0.31708 -5.61893 1.49661 14
-0.332717 -5.72106 1.10617 24
-0.532197 -2.22099 0.196754 11
-0.340742 -5.72185 0.698536 29
-0.535682 -2.23378 0.0394861 9
-0.140827 -2.28973 0.11841 90
-0.537174 -2.23826 -0.119198 11
-0.141636 -2.28994 -0.0394424 98
-0.538609 -2.2391 -0.278076 9
-0.140907 -2.28424 -0.196796 86
-0.541042 -2.24577 -0.441406 11
-0.139328 -2.27732 -0.356281 53
-0.136938 -2.27663 -0.517728 47
-0.351627 -5.70157 1.51923 20
-0.362055 -5.70945 1.10427 20
-0.544414 -2.22059 0.196972 9
-0.368162 -5.68037 0.693668 27
-0.546773 -2.22851 0.0394424 11
-0.152814 -2.28896 0.11841 90
-0.550677 -2.24269 -0.119592 12
-0.153786 -2.29166 -0.0394861 98
-0.550326 -2.23625 -0.278076 8
-0.153026 -2.28595 -0.197014 82
-0.552794 -2.24291 -0.441406 9
-0.151726 -2.28395 -0.357455 52
-0.148856 -2.27589 -0.517728 47
-0.360371 -5.68166 1.51406 15
-0.368869 -5.65982 1.09474 15
-0.548288 -2.21964 0.196972 9
-0.374008 -5.61781 0.686062 20
-0.549459 -2.2227 0.0393552 11
-0.156809 -2.28869 0.11841 90
-0.550984 -2.22719 -0.118804 11
-0.157286 -2.2839 -0.0393552 97
-0.556024 -2.24251 -0.278988 9
-0.156685 -2.28071 -0.196579 82
-0.556707 -2.24194 -0.441406 9
-0.155549 -2.28122 -0.357064 53
-0.15267 -2.27319 -0.517167 45
-0.389134 -5.66524 1.51018 14
-0.395262 -5.6113 1.08568 14
-0.558069 -2.20949 0.196318 9
-0.402188 -5.59845 0.683932 30
-0.562932 -2.22706 0.0394861 11
-0.16879 -2.28784 0.11841 90
-0.562638 -2.22427 -0.118804 11
-0.169601 -2.28804 -0.0394424 97
-0.565924 -2.23235 -0.278076 8
-0.16916 -2.28731 -0.197231 82
-0.568439 -2.239 -0.441406 8
-0.167491 -2.28038 -0.357064 53
-0.165253 -2.28208 -0.519413 47
-0.396842 -5.63323 1.50178 14
-0.405055 -5.6106 1.08568 18
-0.564387 -2.21817 0.19719 9
-0.413218 -5.61507 0.686062 30
-0.568054 -2.23092 0.0395733 11
-0.1726 -2.28505 0.118279 90
-0.567755 -2.22813 -0.119067 11
-0.173594 -2.28774 -0.0394424 97
-0.172603 -2.27956 -0.196579 80
-0.572345 -2.238 -0.441406 8
-0.171471 -2.28008 -0.357064 53
-0.168536 -2.27207 -0.517167 47
-0.422547 -5.5805 1.48821 14
-0.435551 -5.62308 1.08854 17
-0.577249 -2.22 0.197626 8
-0.445314 -5.64746 0.690321 27
-0.579097 -2.2255 0.0395297 11
-0.184562 -2.28411 0.118279 90
-0.578783 -2.22271 -0.118936 11
-0.18557 -2.2868 -0.0394424 96
-0.184733 -2.28111 -0.196796 77
-0.581568 -2.22548 -0.439501 4
-0.1836 -2.28161 -0.357455 53
-0.180994 -2.27844 -0.518851 45
-0.432655 -5.58457 1.4895 15
-0.445172 -5.61987 1.08806 15
-0.584918 -2.23345 0.198933 8
-0.458129 -5.68378 0.694885 27
-0.58171 -2.21965 0.0394424 11
-0.188548 -2.28379 0.118279 82
-0.585201 -2.23135 -0.119461 9
-0.18936 -2.28398 -0.0393988 92
-0.188714 -2.28079 -0.196796 77
-0.588582 -2.23632 -0.441882 3
-0.187188 -2.27637 -0.356672 53
-0.184394 -2.27084 -0.517167 45
-0.463466 -5.60149 1.49467 14
-0.478477 -5.66393 1.09712 15
-0.597249 -2.23276 0.199151 4
-0.490406 -5.71097 0.698536 33
-0.595915 -2.22623 0.039617 9
-0.200077 -2.2778 0.118018 79
-0.596228 -2.22585 -0.11933 4
-0.201316 -2.28295 -0.0393988 91
-0.200866 -2.28225 -0.197014 76
-0.599006 -2.22847 -0.44093 3
-0.199314 -2.27781 -0.357064 52
-0.603018 -2.23721 -0.611062 3
-0.196281 -2.26984 -0.517167 45
-0.476462 -5.63917 1.50501 14
-0.49212 -5.7071 1.1057 23
-0.601794 -2.23412 0.199369 4
-0.50166 -5.72494 0.700361 39
-0.600452 -2.2276 0.0396606 8
-0.20427 -2.27993 0.118148 73
-0.602719 -2.23444 -0.119855 4
-0.2053 -2.2826 -0.0393988 90
-0.204197 -2.27445 -0.196362 73
-0.60418 -2.23216 -0.441882 3
-0.203289 -2.27746 -0.357064 52
-0.606922 -2.23616 -0.611062 3
-0.200661 -2.27435 -0.51829 45
-0.510822 -5.67981 1.51664 15
-0.523435 -5.70924 1.10665 26
-0.612548 -2.22603 0.198933 8
-0.530576 -5.6999 0.697623 29
-0.60917 -2.21227 0.0394424 3
-0.216834 -2.28128 0.118279 65
-0.612805 -2.22393 -0.119461 4
-0.217415 -2.27897 -0.0393552 90
-0.217192 -2.28075 -0.197014 73
-0.616903 -2.23122 -0.442358 4
-0.215211 -2.27637 -0.357064 52
-0.617072 -2.22586 -0.609122 4
-0.212519 -2.26838 -0.517167 45
-0.522919 -5.70296 1.5231 21
-0.530457 -5.67655 1.10046 15
-0.617099 -2.22735 0.199151 12
-0.535125 -5.65212 0.691842 18
-0.613699 -2.21361 0.0394861 3
-0.220417 -2.28093 0.118279 59
-0.615348 -2.21805 -0.119198 11
-0.221392 -2.27858 -0.0393552 90
-0.221173 -2.28037 -0.197014 73
-0.621456 -2.23251 -0.442834 3
-0.219184 -2.27599 -0.357064 53
-0.624209 -2.23641 -0.612355 4
-0.216308 -2.27047 -0.517728 45
-0.549702 -5.67861 1.51729 14
-0.555841 -5.6396 1.09378 14
-0.624294 -2.20982 0.197844 9
-0.559817 -5.59986 0.685758 20
-0.620807 -2.19605 0.0392243 12
-0.232357 -2.27975 0.118279 56
-0.626272 -2.21239 -0.119067 11
-0.232923 -2.27743 -0.0393552 90
-0.23311 -2.27918 -0.197014 68
-0.632077 -2.22697 -0.442358 3
-0.231098 -2.27481 -0.357064 52
-0.634195 -2.22858 -0.611062 4
-0.228431 -2.27173 -0.51829 45
-0.553742 -5.61755 1.50113 12
-0.563261 -5.60433 1.08711 15
-0.626784 -2.20394 0.197408 8
-0.56959 -5.59887 0.685758 24
-0.625708 -2.19726 0.0392679 9
-0.236587 -2.28182 0.11841 52
-0.623962 -2.18969 -0.117886 9
-0.236897 -2.27702 -0.0393552 90
-0.23734 -2.28125 -0.197231 67
-0.637989 -2.23294 -0.443787 3
-0.235565 -2.27932 -0.357847 50
-0.638473 -2.22736 -0.611062 4
-0.232153 -2.2689 -0.517728 45
-0.581897 -5.59285 1.49532 14
-0.590804 -5.58422 1.08378 15
-0.635917 -2.19095 0.196536 8
-0.601711 -5.61298 0.687887 14
-0.637903 -2.19635 0.0393115 9
-0.248398 -2.27554 0.118148 49
-0.641702 -2.20797 -0.119067 9
-0.249213 -2.27571 -0.0393552 90
-0.249281 -2.27997 -0.197231 64
-0.652126 -2.23653 -0.445215 3
-0.247496 -2.27805 -0.357847 50
-0.6542 -2.23789 -0.614941 4
-0.244426 -2.26761 -0.517728 45
-0.592917 -5.60384 1.49855 14
-0.603153 -5.60758 1.08854 14
-0.63974 -2.18984 0.196536 8
-0.607065 -5.57995 0.683932 29
-0.641735 -2.19523 0.0393115 8
-0.251703 -2.27267 0.118018 45
-0.64696 -2.21163 -0.11933 8
-0.252642 -2.2703 -0.0392679 90
-0.25326 -2.27954 -0.197231 64
-0.654644 -2.23068 -0.444263 3
-0.25094 -2.27271 -0.357064 52
-0.662204 -2.25064 -0.618821 26
-0.247987 -2.26723 -0.517728 47
-0.629074 -5.58251 1.08425 17
-0.654375 -2.1985 0.197626 4
-0.643253 -5.63834 0.691538 27
-0.656413 -2.20393 0.0395297 4
-0.263316 -2.26884 0.117887 41
-0.661718 -2.22029 -0.119986 3
-0.264698 -2.27396 -0.0393552 90
-0.66958 -2.24235 -0.282639 11
-0.264794 -2.27822 -0.197231 64
-0.669448 -2.23909 -0.446644 49
-0.263115 -2.27382 -0.357455 50
-0.674281 -2.24957 -0.619468 61
-0.259855 -2.2659 -0.517728 45
-0.642694 -5.61554 1.09092 21
-0.656779 -2.19259 0.19719 3
-0.652526 -5.63228 0.69093 29
-0.668888 -2.23151 0.0400533 11
-0.268137 -2.27582 0.118279 42
-0.669904 -2.23348 -0.120774 27
-0.268666 -2.27349 -0.0393552 90
-0.672777 -2.23881 -0.282335 52
-0.269344 -2.28271 -0.197666 64
-0.674772 -2.24262 -0.447596 53
-0.266801 -2.2709 -0.357064 50
-0.680303 -2.25533 -0.621408 64
-0.264086 -2.26786 -0.51829 47
-0.670349 -5.59748 1.08806 23
-0.671164 -2.19865 0.198061 4
-0.679043 -5.60415 0.687887 29
-0.681294 -2.23037 0.0400969 52
-0.279749 -2.2719 0.118148 38
-0.688563 -2.2513 -0.121955 53
-0.280868 -2.27454 -0.0393988 90
-0.690314 -2.25423 -0.284769 56
-0.28139 -2.27874 -0.197449 61
-0.689388 -2.24844 -0.449501 53
-0.279279 -2.27437 -0.357847 49
-0.693524 -2.25635 -0.622701 64
-0.275957 -2.26645 -0.51829 45
-0.679328 -5.58156 1.0852 23
-0.676466 -2.20223 0.198497 4
-0.68732 -5.59064 0.686366 29
-0.69441 -2.25772 0.0406205 55
-0.28341 -2.26893 0.118018 35
-0.693962 -2.25487 -0.122218 53
-0.284531 -2.27156 -0.0393552 88
-0.694979 -2.25539 -0.285073 56
-0.285367 -2.27825 -0.197449 59
-0.694037 -2.24958 -0.449977 53
-0.282948 -2.27143 -0.357455 49
-0.69857 -2.25732 -0.623348 68
-0.280206 -2.26838 -0.518851 45
-0.698003 -5.57225 1.49338 15
-0.707007 -5.56575 1.08282 20
-0.687626 -2.19616 0.198279 3
-0.72321 -5.63115 0.691842 21
-0.706971 -2.25644 0.0406641 55
-0.295364 -2.26489 0.117887 32
-0.707256 -2.25597 -0.12248 55
-0.296818 -2.26999 -0.0393552 86
-0.707172 -2.2516 -0.285073 55
-0.297609 -2.27919 -0.197666 59
-0.707673 -2.25047 -0.450929 53
-0.29515 -2.27237 -0.357847 49
-0.711835 -2.25824 -0.624641 62
-0.292475 -2.26683 -0.518851 45
-1.68512 -5.33945 1.28253 1
-0.70682 -5.56383 1.49144 15
-1.68921 -5.35562 0.881907 1
-0.719212 -5.58398 1.08663 14
-0.692207 -2.19733 0.198497 3
-0.732373 -5.63246 0.692147 23
-0.711661 -2.25759 0.0407077 55
-0.299243 -2.2669 0.118018 27
-0.71044 -2.25235 -0.122349 55
-0.301425 -2.27443 -0.0394424 79
-0.712954 -2.25758 -0.285986 55
-0.301265 -2.2762 -0.197449 58
-0.712341 -2.25157 -0.451405 59
-0.299116 -2.27185 -0.357847 49
-0.716506 -2.25929 -0.625287 59
-0.295725 -2.26395 -0.51829 45
-1.7235 -5.36303 1.29039 1
-0.739688 -5.5961 1.50113 14
-1.72856 -5.38196 0.88776 1
-0.753293 -5.62406 1.09521 15
-0.706367 -2.20329 0.199369 3
-0.765492 -5.6556 0.695493 29
-0.722313 -2.25157 0.0406641 55
-0.311108 -2.2653 0.118018 23
-0.72336 -2.25348 -0.122611 53
-0.313269 -2.27535 -0.0394861 76
-0.724765 -2.25382 -0.285986 55
-0.313116 -2.27712 -0.197666 58
-0.723728 -2.24794 -0.451405 53
-0.311667 -2.27515 -0.35863 49
-0.727932 -2.25564 -0.625287 61
-0.308544 -2.26962 -0.519974 45
-1.82486 -5.64774 1.36002 26
-0.752003 -5.61396 1.5063 14
-1.73795 -5.37894 0.88776 1
-0.767371 -5.65436 1.10141 20
-0.709446 -2.19968 0.199151 4
-0.777707 -5.67147 0.697623 35
-0.728549 -2.25745 0.040795 90
-0.314722 -2.26228 0.117887 20
-0.72806 -2.25459 -0.122743 58
-0.31724 -2.2748 -0.0394861 74
-0.728697 -2.25255 -0.285986 56
-0.316752 -2.2741 -0.197449 56
-0.728408 -2.249 -0.451881 53
-0.314969 -2.26971 -0.357847 49
-0.731868 -2.25436 -0.625287 61
-0.31185 -2.26425 -0.518851 45
-1.85006 -5.62158 1.35609 15
-0.78536 -5.63865 1.51406 15
-1.85102 -5.62778 0.930685 26
-0.799351 -5.66727 1.10475 24
-0.72251 -2.20067 0.199587 3
-0.806697 -5.66241 0.697014 29
-0.738014 -2.24648 0.0406641 55
-0.32586 -2.25566 0.117625 17
-0.740248 -2.25062 -0.122743 53
-0.329146 -2.27311 -0.0394861 70
-0.741259 -2.25106 -0.28629 55
-0.329051 -2.27235 -0.197449 55
-0.740944 -2.24749 -0.452358 53
-0.327196 -2.27047 -0.358238 49
-0.74518 -2.25508 -0.626581 61
-0.323701 -2.26258 -0.518851 45
-1.85834 -5.61372 1.35497 15
-0.798218 -5.65879 1.51987 15
-1.77391 -5.36199 0.88698 1
-0.810576 -5.66816 1.10522 21
-0.725567 -2.19704 0.199369 3
-0.815169 -5.65116 0.695797 27
-0.743898 -2.2498 0.0407514 55
-0.330152 -2.25756 0.117756 15
-0.746531 -2.25643 -0.123137 53
-0.333471 -2.275 -0.0395297 68
-0.74675 -2.25448 -0.286899 59
-0.333373 -2.27424 -0.197666 55
-0.746413 -2.25085 -0.45331 53
-0.331158 -2.2699 -0.358238 49
-0.750271 -2.25594 -0.627227 61
-0.327994 -2.26443 -0.519413 45
-1.88635 -5.59666 1.35328 15
-0.827778 -5.64722 1.51793 15
-1.80369 -5.35465 0.88737 1
-0.838094 -5.64927 1.10236 18
-0.736649 -2.19072 0.199151 3
-0.842078 -5.62213 0.692755 27
-0.756466 -2.24824 0.040795 55
-0.341623 -2.2508 0.117494 15
-0.757538 -2.25013 -0.123005 52
-0.345404 -2.27069 -0.0394861 65
-0.758937 -2.2504 -0.286899 56
-0.345276 -2.27246 -0.197666 55
-0.759367 -2.2491 -0.453786 53
-0.343402 -2.27057 -0.35863 47
-0.762849 -2.25427 -0.627874 61
-0.34024 -2.26262 -0.519413 45
-1.89122 -5.58215 1.35047 15
-0.834109 -5.62188 1.51147 15
-1.88818 -5.57633 0.924831 20
-0.843967 -5.6211 1.09712 18
-0.744468 -2.20123 0.20024 3
-0.8498 -5.61344 0.691842 26
-0.759587 -2.24455 0.0407514 53
-0.346651 -2.26014 0.118018 14
-0.762266 -2.25116 -0.123137 53
-0.349366 -2.27009 -0.0394861 62
-0.764865 -2.25626 -0.287811 58
-0.349615 -2.27432 -0.197884 53
-0.764872 -2.25242 -0.454738 52
-0.347733 -2.27241 -0.359021 47
-0.767561 -2.25522 -0.628521 59
-0.344155 -2.26449 -0.519974 45
-1.91487 -5.55605 1.34654 15
-0.861096 -5.60803 1.50889 15
-1.91171 -5.55002 0.9221 18
-0.868287 -5.59007 1.09188 17
-0.754788 -2.19508 0.200022 3
-0.876887 -5.5942 0.690017 27
-0.773381 -2.24777 0.0408823 53
-0.358095 -2.25582 0.117887 14
-0.775278 -2.252 -0.123399 53
-0.361627 -2.27323 -0.0395733 61
-0.776668 -2.25222 -0.287811 62
-0.361122 -2.27252 -0.197884 52
-0.777867 -2.25316 -0.455691 53
-0.359627 -2.27056 -0.359021 49
-0.779757 -2.25359 -0.629167 61
-0.355634 -2.26025 -0.519413 45
-1.92439 -5.55534 1.3471 15
-0.869776 -5.59936 1.50695 15
-1.92302 -5.55134 0.92288 18
-0.876148 -5.57643 1.08949 17
-0.760249 -2.19846 0.200458 3
-0.88665 -5.59266 0.690017 21
-0.778122 -2.24878 0.0409259 55
-0.362031 -2.2552 0.117887 12
-0.780026 -2.253 -0.12353 53
-0.36481 -2.26766 -0.0394861 59
-0.781412 -2.2532 -0.288116 58
-0.364697 -2.26943 -0.197666 50
-0.780186 -2.24716 -0.454738 53
-0.363974 -2.27237 -0.359413 45
-0.783689 -2.25222 -0.629167 62
-0.359956 -2.26203 -0.519974 45
-1.96009 -5.56093 1.35103 15
-0.895271 -5.57088 1.50049 14
-1.88637 -5.35489 0.891662 1
-0.905334 -5.57176 1.08949 15
-0.772577 -2.1968 0.200676 3
-0.921511 -5.62223 0.694276 24
-0.789886 -2.24467 0.0409259 55
-0.375045 -2.26066 0.118279 12
-0.794697 -2.25581 -0.123924 52
-0.377083 -2.26818 -0.0395297 59
-0.793199 -2.24908 -0.288116 90
-0.377374 -2.26988 -0.197884 52
-0.793578 -2.24768 -0.455691 53
-0.375868 -2.27043 -0.359413 47
-0.796671 -2.25023 -0.629814 62
-0.371795 -2.26012 -0.519974 45
-1.98608 -5.60342 1.36227 15
-0.905965 -5.56915 1.50049 14
-1.98318 -5.5983 0.933026 17
-0.92316 -5.61361 1.09807 15
-0.777626 -2.19766 0.200894 3
-0.936568 -5.65244 0.698231 26
-0.795029 -2.24551 0.0409695 53
-0.377343 -2.24762 0.117625 11
-0.796963 -2.24971 -0.123662 53
-0.381847 -2.26992 -0.0395733 58
-0.797516 -2.24756 -0.288116 56
-0.381743 -2.27167 -0.198101 50
-0.798715 -2.24846 -0.456167 53
-0.37983 -2.26977 -0.359413 45
-0.801408 -2.25111 -0.630461 61
-0.376923 -2.26421 -0.521097 45
-2.02727 -5.61973 1.369 15
-0.941265 -5.59514 1.50889 14
-2.02782 -5.6243 0.93927 23
-0.960886 -5.65209 1.10665 17
-0.789504 -2.19342 0.200894 3
-0.973547 -5.67892 0.702187 27
-0.808015 -2.24353 0.0410132 53
-0.38992 -2.24801 0.117756 11
-0.812514 -2.25476 -0.124187 52
-0.394123 -2.26782 -0.0395733 55
-0.812196 -2.25021 -0.289028 55
-0.394449 -2.27203 -0.198319 50
-0.813374 -2.25103 -0.457595 53
-0.3925 -2.26762 -0.359413 45
-0.815223 -2.25128 -0.631754 59
-0.38876 -2.25973 -0.520536 45
-2.04856 -5.65089 1.37743 23
-0.956668 -5.62682 1.51793 14
-2.04774 -5.64861 0.943952 30
-0.976952 -5.68669 1.1138 20
-0.796727 -2.2014 0.201766 2
-0.989779 -5.71389 0.70675 33
-0.81193 -2.24211 0.0410132 52
-0.393417 -2.24486 0.117625 11
-0.814744 -2.24865 -0.123924 53
-0.398507 -2.26959 -0.039617 55
-0.816122 -2.24879 -0.289028 55
-0.398839 -2.27379 -0.198536 49
-0.817302 -2.24961 -0.457595 53
-0.397298 -2.27179 -0.360196 45
-0.819151 -2.24985 -0.631754 61
-0.393116 -2.26145 -0.521097 45
-2.07404 -5.62601 1.37406 20
-0.992344 -5.65742 1.52763 15
-2.07302 -5.62622 0.942001 26
-1.00842 -5.69116 1.11571 27
-0.807382 -2.19487 0.201548 3
-1.01751 -5.69642 0.705229 23
-0.827118 -2.24721 0.0411877 55
-0.405166 -2.24277 0.117625 9
-0.829099 -2.25138 -0.124318 52
-0.410825 -2.26993 -0.0396606 53
-0.828746 -2.24681 -0.289333 53
-0.410739 -2.27167 -0.198536 49
-0.830773 -2.2499 -0.458548 53
-0.408791 -2.26975 -0.360196 45
-0.832599 -2.25006 -0.633047 61
-0.404526 -2.25696 -0.520536 45
-2.08034 -5.6159 1.37237 17
-1.00809 -5.68898 1.53667 20
-2.07756 -5.61138 0.94005 23
-1.01491 -5.67007 1.11189 18
-0.813807 -2.20046 0.202201 3
-1.01551 -5.63375 0.697623 15
-0.831038 -2.24576 0.0411877 49
-0.408246 -2.23968 0.117494 9
-0.832159 -2.24758 -0.124187 50
-0.414342 -2.26675 -0.039617 52
-0.834865 -2.25249 -0.290245 55
-0.414703 -2.27095 -0.198536 49
-0.834698 -2.24845 -0.458548 53
-0.412315 -2.26661 -0.359804 42
-0.836525 -2.2486 -0.633047 61
-0.409785 -2.26592 -0.522782 45
-2.10456 -5.59125 1.369 17
-1.03212 -5.65766 1.52957 15
-2.09996 -5.58194 0.936928 23
-1.03518 -5.61899 1.10284 15
-0.824934 -2.19631 0.202201 3
-1.04048 -5.60396 0.694581 15
-0.843275 -2.24387 0.0412313 53
-0.422244 -2.24978 0.118148 8
-0.845285 -2.24802 -0.124449 52
-0.426267 -2.26708 -0.0396606 50
-0.847524 -2.2504 -0.290549 53
-0.426647 -2.27127 -0.198754 49
-0.846068 -2.24419 -0.458548 55
-0.424232 -2.26692 -0.360196 45
-0.84875 -2.2466 -0.633694 85
-0.420762 -2.25895 -0.521659 44
-2.10817 -5.57427 1.36563 15
-1.03764 -5.6321 1.5231 14
-2.10173 -5.56016 0.933807 23
-1.03784 -5.57857 1.09521 15
-0.829647 -2.1972 0.202419 3
-1.04655 -5.58768 0.692755 18
-0.84719 -2.24239 0.0412313 52
-0.424859 -2.24421 0.117887 4
-0.850091 -2.24887 -0.124581 52
-0.430684 -2.26879 -0.0397042 50
-0.850178 -2.24675 -0.290245 53
-0.431987 -2.27787 -0.199406 49
-0.850854 -2.24501 -0.459024 53
-0.429094 -2.27103 -0.360979 45
-0.856963 -2.2564 -0.636927 67
-0.424754 -2.26068 -0.52222 45
-2.13208 -5.54951 1.36227 15
-1.05763 -5.58169 1.51083 14
-2.12462 -5.53294 0.931075 21
-1.06101 -5.54672 1.08997 15
-0.84165 -2.1953 0.202637 3
-1.09356 -5.67473 0.704316 18
-0.861219 -2.24508 0.0413622 52
-0.438492 -2.25176 0.11841 4
-0.863255 -2.2492 -0.124843 52
-0.442635 -2.26904 -0.0397479 49
-0.86193 -2.24227 -0.290245 52
-0.44304 -2.27321 -0.199188 47
-0.863972 -2.24525 -0.459976 53
-0.440513 -2.26633 -0.360587 45
-0.864893 -2.24302 -0.63434 83
-0.436585 -2.25843 -0.52222 45
-2.13026 -5.51888 1.35553 15
-1.06285 -5.55611 1.50436 14
-2.12982 -5.51771 0.929124 24
-1.07671 -5.57619 1.09617 15
-0.848172 -2.20079 0.203291 3
-1.09639 -5.63627 0.699753 15
-0.866037 -2.2459 0.0414058 50
-0.442421 -2.25099 0.11841 3
-0.867179 -2.24769 -0.124843 50
-0.446117 -2.26581 -0.0397042 49
-0.865842 -2.24076 -0.290245 52
-0.446531 -2.26998 -0.198971 45
-0.868776 -2.24603 -0.460452 53
-0.443998 -2.26313 -0.360196 42
-0.872302 -2.25052 -0.636927 73
-0.440526 -2.25766 -0.52222 44
-2.16454 -5.51861 1.35833 14
-1.09286 -5.5552 1.50566 14
-2.1677 -5.52947 0.933026 15
-1.1097 -5.58974 1.09998 15
-0.859683 -2.19632 0.203291 3
-1.1191 -5.59638 0.695493 15
-0.877784 -2.24134 0.0414058 50
-0.452734 -2.2413 0.118018 2
-0.878936 -2.24312 -0.124843 49
-0.459447 -2.2708 -0.0398351 49
-0.88301 -2.25005 -0.292071 53
-0.45841 -2.26761 -0.198971 45
-0.880524 -2.24145 -0.460452 52
-0.456807 -2.26562 -0.360979 45
-0.884074 -2.24592 -0.636927 61
-0.452815 -2.25771 -0.522782 45
-2.19287 -5.56507 1.37069 15
-1.10864 -5.58409 1.51406 14
-2.22173 -5.63824 0.952147 26
-1.1137 -5.55891 1.09426 14
-0.868994 -2.20872 0.204598 3
-0.882612 -2.24213 0.0414495 50
-0.456645 -2.2405 0.118018 3
-0.884682 -2.24623 -0.125106 50
-0.463409 -2.26999 -0.0398351 49
-0.886936 -2.24851 -0.292071 52
-0.463353 -2.27169 -0.199406 45
-0.887143 -2.24675 -0.461881 52
-0.460274 -2.2624 -0.360587 42
-0.890662 -2.25111 -0.638867 61
-0.456755 -2.25692 -0.522782 44
-2.25103 -5.62322 1.3881 18
-1.12969 -5.53797 1.50307 14
-2.24939 -5.62194 0.951367 27
-1.15412 -5.6083 1.10522 9
-0.880547 -2.20414 0.204598 3
-0.896197 -2.24211 0.0415367 52
-0.471407 -2.25275 0.118803 2
-0.898288 -2.2462 -0.125368 50
-0.475288 -2.26753 -0.0398351 47
-0.89962 -2.24614 -0.292375 53
-0.475241 -2.26924 -0.199406 45
-0.898895 -2.24208 -0.461881 52
-0.474113 -2.26963 -0.362153 45
-0.900633 -2.24193 -0.637573 59
-0.469057 -2.25688 -0.523343 45
-2.24894 -5.59256 1.38136 17
-2.2509 -5.59739 0.947855 26
-1.20763 -5.81777 1.14716 2
-0.886251 -2.20722 0.205034 3
-0.901042 -2.24287 0.0415804 52
-0.474317 -2.24704 0.118541 2
-0.903139 -2.24694 -0.125499 50
-0.478733 -2.26425 -0.0397915 47
-0.904467 -2.24686 -0.292679 53
-0.479201 -2.2684 -0.199406 44
-0.904644 -2.24506 -0.462833 52
-0.477569 -2.26638 -0.361762 44
-0.907261 -2.24707 -0.639513 59
-0.4725 -2.25368 -0.522782 44
-2.27733 -5.5758 1.38023 15
-1.22302 -5.78992 1.57415 4
-2.27364 -5.56953 0.945123 26
-1.23349 -5.78976 1.14287 11
-0.912774 -2.23812 0.0415804 52
-0.4866 -2.24696 0.118672 2
-0.915836 -2.2445 -0.125631 50
-0.491632 -2.2666 -0.0398787 47
-0.919039 -2.24899 -0.293592 53
-0.491071 -2.26586 -0.199406 44
-0.917317 -2.24256 -0.463309 52
-0.490979 -2.27109 -0.362936 44
-0.920849 -2.24676 -0.640806 59
-0.485308 -2.25594 -0.523905 45
-2.27868 -5.55419 1.37574 17
-1.23362 -5.79013 1.5748 18
-2.27679 -5.54956 0.942392 26
-1.23691 -5.7564 1.13668 14
-0.917628 -2.23883 0.041624 52
-0.493158 -2.25831 0.119326 2
-0.922597 -2.24982 -0.126025 50
-0.495587 -2.26574 -0.0398787 47
-0.922019 -2.24508 -0.293288 52
-0.495552 -2.26744 -0.199623 44
-0.922164 -2.24323 -0.463785 52
-0.494422 -2.26782 -0.362545 44
-0.926611 -2.24961 -0.6421 61
-0.489245 -2.25509 -0.523905 45
-2.30214 -5.52604 1.37181 18
-1.25313 -5.73404 1.56123 12
-2.30202 -5.52845 0.940831 24
-1.25493 -5.69472 1.12572 24
-0.930299 -2.23631 0.0416676 53
-0.503895 -2.25082 0.119064 3
-0.935718 -2.2471 -0.126156 50
-0.507444 -2.26312 -0.0398787 45
-0.934718 -2.24252 -0.293592 52
-0.506193 -2.25743 -0.198971 44
-0.935789 -2.2429 -0.464738 52
-0.505222 -2.26037 -0.361762 41
-0.937444 -2.2425 -0.641453 59
-0.501046 -2.25249 -0.523905 39
-2.31084 -5.51977 1.37125 18
-1.25434 -5.69174 1.55024 21
-2.30976 -5.51986 0.94005 24
-0.935556 -2.23682 0.0417112 52
-0.508912 -2.25481 0.119326 3
-0.940603 -2.24777 -0.126287 52
-0.508662 -2.25003 -0.0396606 36
-0.94055 -2.24546 -0.2942 52
-0.510676 -2.25897 -0.199188 20
-0.940653 -2.24352 -0.465214 52
-0.507015 -2.24985 -0.360196 12
-0.943622 -2.24515 -0.642746 67
-0.502336 -2.23972 -0.521097 4
-2.34353 -5.51391 1.37293 14
-2.34056 -5.50956 0.94044 15
-0.951167 -2.24109 0.0418858 50
-0.518873 -2.24229 0.118803 3
-0.95236 -2.24281 -0.126287 50
-0.520828 -2.24725 -0.0396606 36
-0.95463 -2.2449 -0.294809 52
-0.52027 -2.24656 -0.198319 20
-0.952778 -2.2384 -0.465214 52
-0.518238 -2.24476 -0.359804 12
-0.957261 -2.24462 -0.64404 59
-0.514446 -2.23697 -0.521097 2
-2.37898 -5.57295 1.38866 14
-2.39381 -5.61034 0.958391 27
-0.956059 -2.24173 0.0419294 52
-0.522957 -2.24391 0.118933 4
-0.959216 -2.24803 -0.126681 50
-0.521932 -2.23416 -0.0394424 9
-0.957179 -2.24112 -0.294505 52
-0.523629 -2.24322 -0.198101 9
-0.958616 -2.24125 -0.466166 52
-0.520491 -2.23663 -0.35863 9
-0.961178 -2.24295 -0.64404 59
-0.51687 -2.23141 -0.519974 9
-2.42847 -5.60736 1.40045 20
-2.42315 -5.59773 0.958391 26
-0.968387 -2.23915 0.041973 52
-0.531252 -2.22656 0.118148 11
-0.970973 -2.24298 -0.126681 50
-0.533809 -2.23392 -0.0394861 12
-0.971864 -2.2429 -0.295417 52
-0.532498 -2.22833 -0.197014 9
-0.971903 -2.24087 -0.467119 52
-0.532762 -2.23628 -0.359021 8
-0.973481 -2.24027 -0.644686 59
-0.529104 -2.23105 -0.520536 8
-2.43533 -5.59641 1.39876 17
-2.43095 -5.58897 0.95761 26
-0.534452 -2.22958 0.276859 8
-0.972684 -2.23729 0.041973 50
-0.536873 -2.23292 0.118541 11
-0.975884 -2.24357 -0.126812 50
-0.536547 -2.22812 -0.0393988 11
-0.976769 -2.24348 -0.295722 52
-0.537543 -2.23224 -0.197449 11
-0.976794 -2.24142 -0.467595 50
-0.536664 -2.23535 -0.359021 9
-0.977781 -2.23839 -0.644686 59
-0.534681 -2.23723 -0.52222 8
-2.46361 -5.57869 1.39764 15
-2.45616 -5.56444 0.955659 24
-0.547094 -2.22907 0.277163 8
-0.988424 -2.24131 0.0421476 52
-0.547763 -2.22513 0.118279 11
-0.989636 -2.243 -0.127075 50
-0.549188 -2.22761 -0.0394424 12
-0.990902 -2.2427 -0.29633 52
-0.548632 -2.22698 -0.197231 11
-0.989901 -2.23834 -0.468071 50
-0.546025 -2.22291 -0.357455 9
-0.992426 -2.23987 -0.646626 58
-0.547926 -2.23904 -0.523343 8
-2.46743 -5.56368 1.39483 15
-2.45989 -5.54928 0.953708 23
-0.549414 -2.22339 0.276554 9
-0.992335 -2.23958 0.0421476 53
-0.551258 -2.22427 0.118279 11
-0.994562 -2.24355 -0.127206 50
-0.55427 -2.23151 -0.0395297 12
-0.995431 -2.24341 -0.296634 52
-0.554898 -2.23569 -0.198101 11
-0.994804 -2.23885 -0.468547 50
-0.550492 -2.22435 -0.357847 9
-0.998301 -2.24254 -0.647919 59
-0.551442 -2.23818 -0.523343 8
-2.49253 -5.5418 1.39259 15
-2.4798 -5.51606 0.950196 18
-0.989437 -2.20395 0.208302 3
-0.562254 -2.22529 0.277163 9
-1.00468 -2.23681 0.0421912 50
-0.564113 -2.22619 0.118541 11
-1.00937 -2.24514 -0.1276 49
-0.563728 -2.2214 -0.0393988 12
-1.00716 -2.23817 -0.296634 52
-0.566596 -2.23275 -0.198101 11
-1.00814 -2.23826 -0.469499 50
-0.563333 -2.22623 -0.35863 8
-1.00964 -2.23746 -0.647919 58
-0.563154 -2.23526 -0.523343 4
-2.49316 -5.51746 1.38753 15
-2.49247 -5.51848 0.951367 23
-0.999433 -2.21584 0.20961 3
-0.564923 -2.2195 0.276554 9
-1.01001 -2.23716 0.0422348 50
-0.567385 -2.22278 0.11841 11
-1.01226 -2.2411 -0.127469 50
-0.57006 -2.23011 -0.0395733 12
-1.01312 -2.24093 -0.297243 53
-0.569881 -2.22935 -0.197884 11
-1.01407 -2.24097 -0.470452 53
-0.569637 -2.23482 -0.360196 8
-1.01593 -2.23991 -0.649213 58
-0.565865 -2.22955 -0.52222 4
-2.52907 -5.51718 1.3909 15
-2.5295 -5.52062 0.954098 21
-1.01348 -2.21492 0.210045 3
-0.578163 -2.22121 0.277163 8
-1.02379 -2.23638 0.0423221 50
-0.579403 -2.21968 0.11841 9
-1.02606 -2.24031 -0.127731 49
-0.582745 -2.22941 -0.039617 11
-1.02419 -2.23316 -0.296939 52
-0.580921 -2.22392 -0.197666 9
-1.02721 -2.23768 -0.470928 49
-0.580484 -2.22692 -0.359413 8
-1.02764 -2.23457 -0.649213 58
-0.57792 -2.22646 -0.52222 3
-2.54895 -5.53754 1.39708 14
-2.58458 -5.61489 0.971268 26
-0.582039 -2.2202 0.277163 8
-1.02978 -2.23913 0.0424093 50
-0.584536 -2.2235 0.118672 9
-1.03206 -2.24305 -0.127994 50
-0.585373 -2.22355 -0.0395297 11
-1.03224 -2.24038 -0.298155 52
-0.584173 -2.22049 -0.197449 9
-1.03008 -2.23366 -0.470452 49
-0.585614 -2.23068 -0.360196 4
-1.03458 -2.23934 -0.651152 59
-0.57936 -2.21601 -0.519974 3
-2.61913 -5.61241 1.41954 15
-2.61401 -5.60397 0.971658 26
-1.03169 -2.21474 0.210699 3
-0.596451 -2.22922 0.278684 4
-1.04322 -2.23842 0.0424966 52
-0.597708 -2.22775 0.119064 8
-1.04485 -2.23987 -0.128125 50
-0.597263 -2.22297 -0.0395733 11
-1.04567 -2.23962 -0.298764 52
-0.597074 -2.22222 -0.197884 8
-1.04658 -2.23953 -0.472833 50
-0.594361 -2.21814 -0.35863 4
-1.04591 -2.23408 -0.651152 58
-0.591192 -2.2154 -0.520536 2
-2.62168 -5.59239 1.41561 15
-2.6154 -5.58151 0.968537 18
-1.04084 -2.22422 0.211788 3
-0.5997 -2.22578 0.27838 4
-1.04857 -2.23868 0.0425402 50
-0.599657 -2.21947 0.118672 9
-1.04981 -2.24031 -0.128256 50
-0.599846 -2.2171 -0.0394861 9
-1.05063 -2.24004 -0.299068 50
-0.59837 -2.21155 -0.197014 3
-1.05153 -2.23992 -0.473309 50
-0.598231 -2.2171 -0.35863 4
-1.05637 -2.24517 -0.655032 56
-0.593176 -2.20731 -0.518851 2
-2.63516 -5.54293 1.40663 14
-2.62436 -5.52268 0.960732 15
-1.05286 -2.21855 0.211788 3
-0.611734 -2.2225 0.27838 3
-1.06243 -2.23767 0.0426275 52
-0.610338 -2.21137 0.11841 12
-1.0626 -2.23703 -0.128388 50
-0.611172 -2.21141 -0.0394424 4
-1.06487 -2.2388 -0.299677 50
-0.610599 -2.21079 -0.197231 4
-1.06363 -2.2342 -0.473309 50
-0.60788 -2.2068 -0.357455 4
-1.06811 -2.23961 -0.655032 56
-0.60575 -2.20642 -0.519413 4
-2.64701 -5.54538 1.40831 14
-2.62665 -5.50518 0.958391 17
-1.06102 -2.2257 0.21266 3
-0.611938 -2.20957 0.276859 3
-1.06956 -2.24258 0.0427584 52
-0.614474 -2.21282 0.118541 9
-1.06758 -2.23743 -0.128519 50
-0.613036 -2.20311 -0.0393115 11
-1.06946 -2.23936 -0.299981 52
-0.61247 -2.20252 -0.196579 11
-1.07177 -2.24119 -0.475213 50
-0.609111 -2.19621 -0.355889 9
-1.0762 -2.24645 -0.657619 56
-0.604066 -2.18667 -0.514921 4
-2.65478 -5.48759 1.39708 14
-2.65328 -5.4869 0.95761 20
-1.07011 -2.21582 0.212224 3
-0.622159 -2.20156 0.27625 8
-1.07981 -2.23489 0.0427148 50
-0.621998 -2.19515 0.117756 11
-1.08107 -2.23649 -0.128781 50
-0.62147 -2.19036 -0.039137 9
-1.08333 -2.2382 -0.300589 52
-0.62361 -2.19939 -0.196579 9
-1.08203 -2.23353 -0.474737 49
-0.621936 -2.19774 -0.356672 8
-1.08755 -2.24098 -0.657619 55
-0.618787 -2.1952 -0.517728 4
-2.66979 -5.49656 1.40045 15
-2.67473 -5.5067 0.961903 23
-1.07724 -2.22067 0.212878 3
-0.622631 -2.18853 0.274729 9
-1.0859 -2.2375 0.042802 52
-0.625149 -2.19166 0.117625 9
-1.08715 -2.23909 -0.129044 49
-0.626655 -2.19408 -0.0392243 9
-1.08724 -2.23631 -0.300589 52
-0.628127 -2.2007 -0.196796 9
-1.08915 -2.23826 -0.476166 50
-0.627786 -2.20378 -0.357847 8
-1.09464 -2.24559 -0.659559 53
-0.626577 -2.20819 -0.521097 4
-2.70272 -5.48859 1.40213 15
-2.70025 -5.48597 0.960732 26
-1.09545 -2.2284 0.214185 4
-1.0998 -2.23627 0.0428893 52
-0.638001 -2.19315 0.117887 9
-1.10036 -2.23542 -0.129175 50
-0.638134 -2.19077 -0.0392243 9
-1.10003 -2.23281 -0.300894 52
-0.639333 -2.19487 -0.196579 9
-1.09868 -2.22812 -0.475213 49
-0.64 -2.20284 -0.358238 8
-1.10745 -2.24199 -0.660205 56
-0.64082 -2.21425 -0.523343 4
-2.71121 -5.48168 1.40157 14
-2.7142 -5.4901 0.962293 23
-1.09823 -2.22426 0.213967 4
-1.10631 -2.23863 0.0429765 52
-0.641827 -2.19204 0.117887 9
-1.10647 -2.23797 -0.129438 49
-0.643353 -2.19445 -0.0393115 9
-1.10833 -2.23978 -0.302111 52
-0.654293 -2.23201 -0.200058 8
-1.10584 -2.2328 -0.476642 49
-0.652788 -2.23255 -0.363328 4
-1.11176 -2.23986 -0.660205 56
-0.648066 -2.22483 -0.526151 8
-2.75503 -5.49524 1.40887 15
-2.75826 -5.50403 0.967366 21
-1.1136 -2.22496 0.214621 4
-1.11914 -2.23504 0.0430202 50
-0.66503 -2.22683 0.11998 8
-1.11929 -2.23437 -0.129569 50
-0.667307 -2.23168 -0.0400533 11
-1.12155 -2.23597 -0.302415 52
-0.665971 -2.22856 -0.200058 14
-1.12011 -2.23117 -0.477594 50
-0.665169 -2.23146 -0.363719 17
-1.12455 -2.23616 -0.660852 56
-0.667673 -2.24699 -0.532328 27
-2.77352 -5.51048 1.41393 14
-2.77578 -5.51734 0.970488 20
-1.11748 -2.22301 0.214621 4
-1.12416 -2.23532 0.0430638 52
-0.668527 -2.22578 0.11998 15
-1.12768 -2.24134 -0.130094 50
-0.66977 -2.22572 -0.039966 38
-1.12394 -2.23199 -0.302111 50
-0.680545 -2.26319 -0.20332 50
-1.12621 -2.23359 -0.478547 50
-0.678222 -2.26107 -0.368809 52
-1.13064 -2.23851 -0.662145 56
-0.672587 -2.25061 -0.533451 50
-2.85548 -5.60005 1.44088 17
-2.85624 -5.60392 0.988438 27
-1.13437 -2.22842 0.21571 4
-1.13887 -2.23628 0.0431947 50
-0.688881 -2.25092 0.12155 49
-1.13713 -2.23095 -0.129832 49
-0.691212 -2.25578 -0.0405768 52
-1.139 -2.2327 -0.303023 52
-0.692385 -2.2596 -0.20332 52
-1.13862 -2.23005 -0.479023 50
-0.690052 -2.25748 -0.368809 52
-1.14415 -2.23705 -0.663438 56
-0.685067 -2.24939 -0.534012 50
-2.8608 -5.58638 1.43863 15
-2.86038 -5.58794 0.986487 24
-1.14053 -2.23087 0.216146 4
-1.14316 -2.23409 0.0431947 52
-0.694998 -2.25688 0.121943 47
-1.14444 -2.23563 -0.130225 49
-0.695879 -2.25696 -0.0406205 53
-1.14403 -2.23292 -0.303328 52
-0.697786 -2.26315 -0.203755 52
-1.14475 -2.23242 -0.479975 50
-0.694712 -2.25864 -0.369201 56
-1.14955 -2.237 -0.664085 55
-0.69041 -2.25285 -0.535136 50
-2.87864 -5.54704 1.43246 15
-2.87806 -5.54827 0.982194 20
-1.15029 -2.22025 0.21571 8
-1.74458 -5.59536 0.714356 20
-1.15599 -2.23029 0.0432383 52
-0.708684 -2.25785 0.122204 47
-1.15958 -2.23625 -0.130619 49
-0.70957 -2.25793 -0.0407077 52
-1.15953 -2.2333 -0.30424 52
-0.708885 -2.25708 -0.203538 49
-1.16021 -2.23273 -0.481404 50
-0.706529 -2.25497 -0.369201 58
-1.1646 -2.23738 -0.666025 56
-0.702589 -2.24908 -0.535136 49
-2.88059 -5.52955 1.42909 15
-2.87308 -5.51746 0.977512 18
-1.69982 -5.44456 1.10093 1
-1.16107 -2.23149 0.217018 4
-1.77039 -5.64708 0.721354 21
-1.16104 -2.23049 0.043282 52
-0.712977 -2.25911 0.122335 47
-1.16464 -2.23644 -0.130751 49
-0.714258 -2.25908 -0.0407514 50
-1.16533 -2.23587 -0.304849 52
-0.714314 -2.2606 -0.203972 52
-1.16411 -2.2307 -0.481404 50
-0.711938 -2.25844 -0.369984 52
-1.16962 -2.23748 -0.666672 55
-0.705395 -2.24565 -0.534574 49
-2.89813 -5.49285 1.42347 15
-1.77275 -5.61299 1.56575 15
-2.8881 -5.47614 0.972829 20
-1.79036 -5.63475 1.14144 17
-1.17119 -2.22338 0.2168 8
-1.80746 -5.66138 0.724396 26
-1.17465 -2.229 0.0433692 50
-0.724037 -2.25297 0.122204 47
-1.17867 -2.23473 -0.131013 50
-0.727205 -2.26019 -0.0408386 49
-1.17586 -2.22755 -0.304545 50
-0.727657 -2.26157 -0.204407 65
-1.17539 -2.22478 -0.481404 49
-0.723004 -2.25233 -0.369592 53
-1.18319 -2.2358 -0.667965 55
-0.718619 -2.24657 -0.535697 49
-2.95792 -5.58248 1.44818 11
-1.72491 -5.42801 1.5147 1
-2.99941 -5.6631 1.00717 35
-1.7445 -5.4536 1.10522 1
-1.1774 -2.22574 0.217236 4
-1.8181 -5.66058 0.7247 27
-1.18244 -2.23337 0.0435001 50
-0.730257 -2.25884 0.122597 49
-1.1849 -2.23708 -0.131276 50
-0.729619 -2.25416 -0.0407514 49
-1.18324 -2.23207 -0.305457 49
-0.730841 -2.25792 -0.20419 53
-1.18387 -2.2314 -0.483308 49
-0.728442 -2.25577 -0.370375 55
-1.18748 -2.23352 -0.667965 55
-0.724022 -2.24995 -0.53682 49
-3.04917 -5.68015 1.47794 15
-1.83141 -5.65762 1.58191 20
-3.04519 -5.67507 1.01224 15
-1.83745 -5.6428 1.14573 20
-1.19295 -2.22592 0.217889 4
-1.84639 -5.64358 0.723788 24
-1.19412 -2.22715 0.0435001 50
-0.743244 -2.25723 0.122728 49
-1.19778 -2.23304 -0.131407 47
-0.74336 -2.25493 -0.0408386 49
-1.19882 -2.23219 -0.30637 49
-0.743428 -2.25643 -0.204407 49
-1.19825 -2.22928 -0.484261 49
-0.739477 -2.24958 -0.369984 53
-1.20374 -2.23578 -0.670551 55
-0.736184 -2.246 -0.53682 58
-3.03497 -5.63246 1.46671 15
-1.83681 -5.64063 1.57803 15
-3.03067 -5.6268 1.00444 15
-1.84273 -5.62559 1.14287 15
-1.20156 -2.2326 0.218761 4
-1.85138 -5.62889 0.722266 23
-1.20037 -2.22946 0.0435874 50
-0.748348 -2.2608 0.122989 50
-1.20405 -2.23534 -0.131669 49
-0.748858 -2.25838 -0.0409259 50
-1.20351 -2.23249 -0.306674 49
-0.748922 -2.25986 -0.204842 52
-1.20448 -2.2315 -0.485213 49
-0.743402 -2.24828 -0.369984 53
-1.20879 -2.2358 -0.671198 55
-0.741227 -2.24947 -0.537943 49
-3.06676 -5.62077 1.46783 32
-1.86306 -5.62438 1.57609 15
-3.06127 -5.61303 1.00483 38
-1.8085 -5.42754 1.10427 1
-1.87847 -5.61206 0.721354 21
-1.21284 -2.22555 0.043631 50
-0.758591 -2.25211 0.122728 42
-1.21693 -2.2312 -0.131801 47
-0.761073 -2.25693 -0.0409695 52
-1.21637 -2.22833 -0.306978 49
-0.762327 -2.26064 -0.205277 52
-1.21811 -2.22968 -0.486165 49
-0.758294 -2.25373 -0.37155 61
-1.22125 -2.23177 -0.671844 55
-0.752995 -2.24556 -0.537943 49
-3.08007 -5.62182 1.46952 38
-1.86678 -5.60279 1.57092 15
-3.07581 -5.61634 1.00639 39
-1.87884 -5.60327 1.14097 15
-1.87879 -5.58054 0.717703 18
-1.22071 -2.22979 0.0437619 50
-0.76491 -2.25789 0.12312 47
-1.22082 -2.22907 -0.131801 47
-0.764213 -2.25323 -0.0409259 49
-1.22264 -2.23056 -0.307587 47
-0.766271 -2.2593 -0.205277 53
-1.22318 -2.22971 -0.486641 49
-0.76144 -2.25006 -0.371158 50
-1.2302 -2.23788 -0.674431 55
-0.757687 -2.24656 -0.538505 49
-3.10808 -5.60081 1.46839 23
-1.89707 -5.59261 1.57092 15
-3.09776 -5.5845 1.00366 21
-1.84808 -5.41678 1.10475 1
-1.82709 -5.33079 0.68667 1
-1.2348 -2.22774 0.0438492 50
-0.777924 -2.25608 0.123251 47
-1.23733 -2.23138 -0.132326 47
-0.778015 -2.25379 -0.0410132 50
-1.24072 -2.23475 -0.309108 47
-0.778898 -2.25761 -0.205495 49
-1.23762 -2.22734 -0.487594 49
-0.774808 -2.25072 -0.371941 50
-1.24307 -2.23352 -0.675078 55
-0.771403 -2.24703 -0.539628 47
-3.12873 -5.6172 1.47401 33
-1.90372 -5.58014 1.56834 15
-3.12456 -5.61198 1.00951 36
-1.906 -5.55519 1.13382 15
-1.91045 -5.54617 0.714965 20
-1.2399 -2.22777 0.0438928 50
-0.782279 -2.25721 0.123382 47
-1.24243 -2.2314 -0.132457 45
-0.783577 -2.25716 -0.0411004 49
-1.24302 -2.23063 -0.308804 49
-0.78446 -2.26096 -0.20593 50
-1.2427 -2.22732 -0.48807 49
-0.778735 -2.24936 -0.371941 50
-1.24933 -2.23556 -0.676371 55
-0.774932 -2.24582 -0.539628 49
-3.16528 -5.61347 1.47738 33
-1.92483 -5.54989 1.56252 14
-3.15511 -5.5977 1.0099 35
-1.88249 -5.39712 1.10332 1
-1.95174 -5.57123 0.719528 18
-1.25485 -2.228 0.0440237 49
-0.794913 -2.25544 0.123513 47
-1.25494 -2.22725 -0.132588 45
-0.794992 -2.25316 -0.0411004 50
-1.25835 -2.23058 -0.309717 49
-0.79507 -2.25461 -0.205712 50
-1.25758 -2.22741 -0.489498 49
-0.792133 -2.24991 -0.372724 50
-1.26301 -2.23341 -0.677664 55
-0.78668 -2.24173 -0.539628 49
-3.1801 -5.61909 1.48019 33
-1.94007 -5.56249 1.56705 14
-3.17218 -5.60508 1.01224 35
-1.95592 -5.57684 1.14097 15
-1.90552 -5.40862 0.69884 1
-1.25873 -2.2258 0.0440237 49
-0.799677 -2.2564 0.123644 47
-1.26252 -2.23158 -0.132982 45
-0.799754 -2.25413 -0.041144 50
-1.26469 -2.23269 -0.310325 49
-0.801487 -2.26027 -0.206364 59
-1.26389 -2.22949 -0.490451 49
-0.796059 -2.24853 -0.372724 50
-1.2681 -2.2333 -0.678311 55
-0.79301 -2.24725 -0.541312 49
-3.21409 -5.60815 1.48187 33
-1.97722 -5.57503 1.57351 14
-3.2113 -5.60553 1.01536 33
-1.9999 -5.60814 1.14955 15
-1.93799 -5.41025 0.700361 1
-1.27534 -2.22786 0.0441982 49
-0.811481 -2.25219 0.123644 47
-1.27581 -2.22688 -0.133113 47
-0.811545 -2.24991 -0.041144 49
-1.27636 -2.22604 -0.310325 49
-0.814545 -2.25824 -0.206582 90
-1.27799 -2.22709 -0.491403 49
-0.808652 -2.24665 -0.373116 52
-1.28098 -2.22873 -0.678957 55
-0.806401 -2.24766 -0.542435 49
-3.22752 -5.60886 1.48356 33
-1.99828 -5.60342 1.58256 14
-3.22724 -5.61062 1.01731 33
-2.02637 -5.64819 1.1586 20
-1.94827 -5.40919 0.700665 1
-1.28086 -2.22757 0.0442418 49
-0.817101 -2.25546 0.123905 47
-1.28344 -2.23114 -0.133507 47
-0.816319 -2.25084 -0.0411877 49
-1.28396 -2.23026 -0.311238 47
-0.818485 -2.25682 -0.206582 49
-1.28433 -2.22911 -0.492355 49
-0.813408 -2.24756 -0.373507 50
-1.28888 -2.23253 -0.680897 55
-0.808679 -2.24166 -0.541312 49
-3.26641 -5.60605 1.48749 36
-2.04418 -5.63568 1.59483 15
-3.26377 -5.60374 1.01927 35
-2.06263 -5.65595 1.16241 24
-1.9775 -5.39857 0.700665 1
-1.29503 -2.22515 0.0443291 49
-0.830151 -2.25336 0.124036 47
-1.29762 -2.2287 -0.13377 47
-0.829345 -2.24874 -0.0412313 49
-1.29726 -2.22542 -0.311542 49
-0.831147 -2.25484 -0.206799 52
-1.29884 -2.22637 -0.493308 49
-0.82686 -2.24791 -0.37429 49
-1.30299 -2.22992 -0.682191 53
-0.822464 -2.24183 -0.542435 49
-3.27398 -5.59881 1.48692 30
-2.05814 -5.64345 1.59806 17
-3.26509 -5.58582 1.01692 15
-2.06997 -5.64543 1.16098 21
-1.98342 -5.38847 0.699753 1
-1.30143 -2.2272 0.0444164 49
-0.832828 -2.24971 0.123905 41
-1.30529 -2.2329 -0.134164 47
-0.833269 -2.24729 -0.0412313 49
-1.30201 -2.22552 -0.311846 49
-0.83336 -2.24871 -0.206364 49
-1.30397 -2.22621 -0.493784 47
-0.831634 -2.24878 -0.374682 49
-1.30688 -2.22765 -0.682191 53
-0.826823 -2.24282 -0.542997 50
-3.29084 -5.56063 1.48131 3
-2.08751 -5.63522 1.59871 15
-3.2553 -5.50277 1.00483 1
-2.0951 -5.62568 1.15908 18
-2.00813 -5.36871 0.698536 1
-1.31141 -2.21844 0.0443727 49
-0.848093 -2.25467 0.124429 47
-1.31569 -2.22389 -0.134032 47
-0.846385 -2.24772 -0.0413186 49
-1.31364 -2.21868 -0.311846 47
-0.849488 -2.25598 -0.207452 59
-1.31522 -2.21959 -0.493784 49
-0.845989 -2.25133 -0.375856 49
-1.3206 -2.22516 -0.683484 53
-0.841955 -2.2476 -0.545243 49
-3.29556 -5.5465 1.47906 2
-2.08978 -5.6112 1.59289 15
-3.23715 -5.45038 0.996242 1
-2.09473 -5.59176 1.15288 17
-2.01402 -5.35591 0.697319 1
-1.32078 -2.22451 0.0445473 47
-0.851148 -2.25085 0.124298 47
-1.32084 -2.22373 -0.134164 47
-0.851187 -2.24858 -0.0413622 47
-1.32386 -2.22704 -0.313367 47
-0.852547 -2.25216 -0.207234 56
-1.32537 -2.22783 -0.496165 47
-0.849049 -2.24754 -0.375465 47
-1.32859 -2.22884 -0.685424 53
-0.844168 -2.24156 -0.54412 49
-3.32678 -5.53067 1.47962 4
-2.11669 -5.59077 1.59031 15
-3.2755 -5.44759 0.998974 3
-2.11962 -5.56924 1.1505 17
-2.11899 -5.54433 0.723483 21
-1.3337 -2.2197 0.0445909 49
-0.865096 -2.25087 0.12456 47
-1.33762 -2.22534 -0.134689 47
-0.866019 -2.25095 -0.0414931 47
-1.33461 -2.21772 -0.313063 47
-0.865217 -2.24999 -0.207452 49
-1.33741 -2.22063 -0.496165 47
-0.863446 -2.24999 -0.376639 47
-1.33899 -2.21978 -0.684777 52
-0.861481 -2.25062 -0.547489 49
-3.32035 -5.50042 1.47289 12
-2.11873 -5.56675 1.58449 14
-3.27129 -5.4213 0.995072 2
-2.12409 -5.55178 1.14764 17
-2.12148 -5.52478 0.721354 21
-1.34274 -2.22593 0.0447654 47
-0.868631 -2.24951 0.12456 45
-1.34537 -2.22941 -0.135083 47
-0.868152 -2.24477 -0.0414058 47
-1.34451 -2.22624 -0.314584 47
-0.869142 -2.24848 -0.207452 47
-1.34636 -2.22669 -0.498069 47
-0.866487 -2.24617 -0.376248 47
-1.35037 -2.22983 -0.688657 52
-0.863276 -2.24471 -0.546366 50
-3.33132 -5.45386 1.46502 14
-2.1408 -5.54018 1.57997 14
-3.40261 -5.57268 1.02629 9
-2.14152 -5.5135 1.14192 15
-2.15758 -5.53209 0.723788 18
-1.35659 -2.22337 0.0448527 47
-0.87949 -2.24261 0.124429 44
-1.35963 -2.2266 -0.135345 47
-0.881321 -2.245 -0.0414931 50
-1.35744 -2.22129 -0.314889 47
-0.880903 -2.2439 -0.207452 49
-1.36146 -2.22612 -0.499498 47
-0.880028 -2.24621 -0.377031 49
-1.36329 -2.22479 -0.689303 53
-0.875899 -2.24243 -0.546928 49
-3.31408 -5.40443 1.45323 12
-2.14794 -5.52705 1.57739 14
-3.39039 -5.53095 1.01966 12
-2.17705 -5.5734 1.15526 15
-3.41275 -5.56739 0.568255 11
-2.20971 -5.63693 0.738087 23
-1.36478 -2.22716 0.0449836 47
-0.885617 -2.24556 0.12469 45
-1.36482 -2.22635 -0.135476 47
-0.885629 -2.2433 -0.0414931 47
-1.3617 -2.21868 -0.314889 47
-0.885728 -2.24468 -0.207669 47
-1.36573 -2.2235 -0.499498 47
-0.884848 -2.24697 -0.377422 49
-1.37097 -2.22858 -0.691243 53
-0.880203 -2.24075 -0.546928 47
-3.33135 -5.36514 1.44762 12
-2.19728 -5.56478 1.5916 14
-3.41211 -5.49724 1.01692 12
-2.23789 -5.63912 1.17147 23
-3.40736 -5.49172 0.562372 11
-2.23657 -5.61298 0.736566 30
-1.37813 -2.22186 0.0450272 47
-0.899601 -2.24538 0.124952 44
-1.37987 -2.22293 -0.135739 47
-0.900531 -2.24545 -0.041624 47
-1.37893 -2.2197 -0.316106 45
-0.901941 -2.24895 -0.208539 50
-1.38163 -2.22233 -0.500926 45
-0.899209 -2.24658 -0.378206 49
-1.38173 -2.21908 -0.690597 53
-0.893212 -2.23822 -0.547489 47
-3.32009 -5.32625 1.43863 12
-2.23189 -5.62381 1.6097 15
-3.42039 -5.48918 1.01653 14
-2.24236 -5.61886 1.16813 20
-3.34845 -5.37585 0.551042 1
-2.24084 -5.59524 0.73474 29
-1.38504 -2.22346 0.0451145 45
-0.904447 -2.24612 0.125083 45
-1.38639 -2.22476 -0.136002 47
-0.904449 -2.24387 -0.041624 47
-1.38543 -2.2215 -0.316714 47
-0.906791 -2.24968 -0.208756 49
-1.38811 -2.22408 -0.501879 45
-0.903129 -2.245 -0.378206 49
-1.38984 -2.22256 -0.692537 53
-0.899824 -2.24344 -0.549174 47
-3.32415 -5.26906 1.42796 12
-2.26048 -5.60717 1.6084 15
-3.4698 -5.50192 1.02239 12
-2.26531 -5.59111 1.1648 18
-3.43594 -5.45034 0.560629 12
-2.26362 -5.56464 0.732306 26
-1.398 -2.21829 0.0451581 47
-0.916586 -2.24119 0.125083 45
-1.40335 -2.22591 -0.136527 47
-0.917518 -2.24126 -0.0416676 47
-1.40008 -2.21817 -0.317323 47
-0.921373 -2.25182 -0.209409 49
-1.40275 -2.22069 -0.502831 45
-0.9158 -2.24253 -0.378597 47
-1.40792 -2.22545 -0.69577 52
-0.914692 -2.24532 -0.550858 49
-3.31808 -5.2412 1.42179 12
-2.26121 -5.58083 1.60194 15
-3.49693 -5.52568 1.02785 12
-2.26675 -5.56669 1.16051 18
-3.5134 -5.55165 0.571742 12
-2.26767 -5.54959 0.730785 29
-1.40722 -2.22429 0.0453326 47
-0.921994 -2.24437 0.125345 45
-1.40723 -2.22346 -0.136527 47
-0.923322 -2.24428 -0.0417549 47
-1.40622 -2.22016 -0.317931 47
-0.92436 -2.24791 -0.209191 47
-1.40794 -2.22031 -0.503307 45
-0.921579 -2.2455 -0.37938 47
-1.41439 -2.22707 -0.697063 53
-0.918218 -2.24388 -0.550858 52
-3.32051 -5.18478 1.41112 12
-2.28851 -5.56708 1.60129 15
-3.53381 -5.51977 1.03019 12
-2.29209 -5.54834 1.15908 18
-3.54145 -5.5338 0.571742 11
-2.29195 -5.52617 0.729264 29
-1.4198 -2.21924 0.0453763 45
