# .PCD v0.7 - Point Cloud Data file format
VERSION 0.7
FIELDS x y z intensity
SIZE 4 4 4 4
TYPE F F F F
COUNT 1 1 1 1
WIDTH 1615
HEIGHT 1
VIEWPOINT 0 0 0 1 0 0 0
POINTS 1615
DATA ascii
-1.41511 0.713986 0.0812516 4
-1.3808 0.697402 -0.0263968 4
-1.72459 1.28654 -0.259517 45
-1.95216 0.982107 -0.341011 12
-1.01191 0.510394 -0.253249 4
-1.70495 1.28487 0.484037 42
-2.62664 1.32596 0.77803 33
-1.70635 1.28548 0.332081 41
-2.61819 1.32739 0.563334 32
-1.70104 1.28102 0.183245 42
-2.55214 1.29848 0.346834 15
-1.70695 1.28595 0.0366937 42
-1.41568 0.723892 0.0815132 4
-1.37924 0.705995 -0.0264404 4
-1.70968 1.28987 -0.2583 45
-1.96681 1.00236 -0.344535 12
-1.01131 0.516962 -0.25381 3
-1.6971 1.28314 0.482352 42
-2.60061 1.31857 0.770922 30
-1.69646 1.2822 0.33052 42
-2.59398 1.32086 0.558568 30
-1.69285 1.27948 0.182591 42
-2.53019 1.29236 0.344096 14
-1.69474 1.28138 0.0364755 42
-1.42344 0.730648 0.0820366 4
-1.69446 1.28163 -0.109878 23
-1.37578 0.707265 -0.0263968 4
-1.69777 1.28506 -0.256779 47
-1.97826 1.01251 -0.346884 12
-1.00832 0.517446 -0.253249 3
-1.67682 1.28164 0.478421 42
-2.5767 1.32292 0.765752 30
-1.68187 1.28506 0.328959 42
-2.56543 1.32276 0.553802 29
-1.67844 1.28198 0.18172 44
-2.49692 1.29195 0.340445 15
-1.68228 1.28538 0.0363446 45
-1.41738 0.736946 0.0819058 4
-1.68399 1.28716 -0.109615 27
-1.37884 0.717661 -0.0265277 4
-1.97732 1.02512 -0.347667 14
-1.0056 0.522719 -0.253249 3
-1.66901 1.27982 0.476737 42
-2.55505 1.31749 0.759937 30
-1.66592 1.27747 0.326227 42
-2.54349 1.31711 0.549513 32
-1.67027 1.28036 0.181066 45
-2.49246 1.29517 0.340141 15
-1.67408 1.28375 0.0362137 44
-1.41166 0.737121 0.0816441 4
-1.6758 1.28553 -0.109221 30
-1.36871 0.715462 -0.0263531 4
-1.97115 1.0263 -0.346884 14
-0.996027 0.520001 -0.251003 4
-1.65244 1.28136 0.473929 42
-2.53098 1.32193 0.754767 30
-1.65726 1.28466 0.325837 44
-2.51481 1.31905 0.544747 30
-1.65567 1.28298 0.180194 44
-2.47905 1.30474 0.339228 21
-1.65944 1.28637 0.0360392 45
-1.40336 0.742182 0.0813824 4
-1.65524 1.28357 -0.108302 35
-1.36716 0.723782 -0.0263968 4
-1.94388 1.02514 -0.342969 14
-1.00408 0.530856 -0.25381 4
-1.63889 1.27497 0.47056 42
-2.50726 1.31517 0.748305 30
-1.64722 1.28148 0.324276 42
-2.49511 1.31432 0.540934 30
-1.64361 1.27822 0.179105 44
-2.46798 1.30445 0.338011 26
-1.64733 1.28158 0.0358211 44
-1.39543 0.741137 0.0809899 4
-1.64709 1.28185 -0.107909 38
-1.37032 0.7285 -0.026484 4
-1.92461 1.01932 -0.339837 14
-0.996685 0.529208 -0.252126 4
-1.63006 1.28232 0.469998 44
-2.48113 1.31811 0.742489 32
-1.63079 1.28245 0.322325 44
-2.47086 1.31815 0.537122 32
-1.62711 1.2791 0.178016 45
-2.45455 1.31385 0.337098 32
-1.63471 1.28555 0.0356902 45
-1.39594 0.750785 0.0812516 4
-1.63251 1.28428 -0.107383 39
-1.36869 0.736843 -0.0265277 4
-1.90835 1.02357 -0.337879 14
-0.996051 0.535564 -0.252687 4
-1.61848 1.27732 0.467191 42
-2.46176 1.31338 0.737319 32
-1.62273 1.2807 0.321155 44
-2.45556 1.31553 0.534262 32
-1.61901 1.27731 0.177362 45
-2.43694 1.30993 0.334969 32
-1.61873 1.27755 0.0353848 45
-1.39903 0.75558 0.0815132 4
-1.62439 1.28248 -0.10699 42
-1.37181 0.741594 -0.0266149 4
-1.61548 1.27772 -0.392837 45
-1.90004 1.0234 -0.336705 14
-0.988669 0.533857 -0.251003 4
-1.60394 1.27998 0.464945 44
-2.43783 1.3171 0.73215 32
-1.60636 1.28147 0.319203 42
-2.43137 1.31904 0.530449 32
-1.60062 1.27644 0.176055 47
-2.4126 1.31321 0.332535 32
-1.60421 1.27977 0.0352102 45
-1.6079 1.28318 -0.106333 44
-1.36132 0.745187 -0.026484 4
-1.60877 1.28616 -0.392837 52
-1.88163 1.02627 -0.334356 14
-0.985861 0.539026 -0.251003 3
-1.59622 1.27792 0.46326 44
-2.42066 1.31331 0.727626 32
-1.59834 1.27964 0.318033 42
-2.40965 1.31275 0.52616 32
-1.58867 1.27145 0.174965 44
-2.39068 1.30675 0.329796 33
-1.60002 1.281 0.0351666 47
-1.59982 1.2813 -0.105939 45
-1.35782 0.746364 -0.0264404 4
-1.59505 1.27974 -0.38998 52
-1.87116 1.02483 -0.33279 14
-0.989199 0.543072 -0.252126 3
-1.58171 1.2804 0.461014 45
-2.3968 1.3167 0.722457 32
-1.58011 1.27866 0.315691 44
-2.38768 1.31708 0.522824 33
-1.57619 1.27505 0.174311 47
-2.36642 1.30966 0.327363 33
-1.58359 1.28149 0.0349484 45
-1.58705 1.28522 -0.105546 44
-1.35827 0.755881 -0.0265277 4
-1.5807 1.28189 -0.388075 53
-1.84847 1.02508 -0.329657 14
-1.57557 1.27952 -0.534113 59
-0.986342 0.548244 -0.252126 3
-1.56625 1.2724 0.457083 44
-2.37333 1.30925 0.715995 33
-1.5683 1.27363 0.31374 44
-2.36796 1.31217 0.519011 35
-1.57203 1.27622 0.174094 47
-2.34677 1.30418 0.324929 33
-1.57531 1.2798 0.0348176 47
-1.57706 1.28168 -0.105021 45
-1.35695 0.75825 -0.0265277 4
-1.56895 1.27689 -0.385694 52
-1.83588 1.02232 -0.3277 14
-1.56937 1.27949 -0.53282 58
-0.991781 0.553499 -0.25381 3
-1.55558 1.27776 0.45596 45
-2.35355 1.31503 0.712117 33
-1.55947 1.28053 0.31335 44
-2.34178 1.31378 0.514722 35
-1.55356 1.27522 0.172786 45
-2.32452 1.30837 0.322799 35
-1.56279 1.28327 0.0346867 45
-1.56068 1.28199 -0.104364 47
-1.35282 0.765581 -0.0265277 4
-1.55444 1.27912 -0.38379 52
-1.81327 1.02226 -0.324568 14
-1.55148 1.27847 -0.52894 58
-0.988772 0.558857 -0.25381 3
-1.54605 1.274 0.453714 45
-2.33438 1.30971 0.706948 33
-1.55175 1.27826 0.312179 44
-2.32664 1.31066 0.511862 36
-1.54557 1.27318 0.172133 47
-2.31165 1.30593 0.321278 35
-1.54898 1.27645 0.0344249 45
-1.55267 1.27995 -0.10397 47
-1.35149 0.767941 -0.0265277 4
-1.54653 1.27714 -0.382361 52
-1.79212 1.01452 -0.321044 14
-1.54366 1.27655 -0.527 59
-0.992141 0.562795 -0.254933 3
-1.53375 1.2774 0.452029 45
-2.31091 1.312 0.701778 35
-1.53745 1.28004 0.310618 44
-2.3093 1.31636 0.509479 36
-1.53336 1.2762 0.171479 47
-2.28969 1.30942 0.319148 35
-1.53866 1.28107 0.0343376 45
-1.5385 1.28139 -0.103445 45
-1.35409 0.778489 -0.0266585 4
-1.5344 1.28023 -0.380933 52
-1.76963 1.01411 -0.317912 14
-1.52977 1.27815 -0.524414 59
-0.982827 0.56437 -0.253249 3
-1.5224 1.27199 0.449222 45
-2.29181 1.3065 0.696609 35
-1.52574 1.2748 0.308667 45
-2.28994 1.31067 0.505666 35
-1.52731 1.27568 0.171043 47
-2.27017 1.30356 0.316714 33
-1.53067 1.27894 0.0342067 45
-1.53243 1.28087 -0.103183 47
-1.52652 1.27817 -0.379504 53
-1.74856 1.00616 -0.314388 14
-1.52569 1.27927 -0.523767 59
-0.979725 0.564877 -0.252687 3
-1.51178 1.27706 0.448099 45
-2.27237 1.31126 0.692731 35
-1.51904 1.28277 0.308667 44
-2.26604 1.31283 0.501854 35
-1.5111 1.27562 0.169954 47
-2.24828 1.30673 0.314584 33
-1.5125 1.27725 0.0339449 47
-1.51427 1.2792 -0.102395 47
-1.50838 1.27557 -0.237916 47
-1.51045 1.27821 -0.377123 53
-1.72832 1.00663 -0.311648 14
-1.50977 1.27942 -0.520534 59
-0.980972 0.572437 -0.25381 3
-1.50048 1.27155 0.445291 45
-2.25962 1.30919 0.6895 35
-1.50362 1.27424 0.305936 45
-2.24888 1.30817 0.498517 35
-1.50318 1.27342 0.1693 49
-2.22454 1.29819 0.311542 33
-1.50455 1.27504 0.033814 47
-1.50632 1.27699 -0.102001 47
-1.50048 1.27338 -0.237003 50
-1.50074 1.27449 -0.375219 53
-1.70308 0.995995 -0.307341 14
-1.50201 1.27736 -0.518594 61
-0.977865 0.572926 -0.253249 3
-1.48596 1.27357 0.443045 45
-2.23374 1.31043 0.683685 35
-1.48921 1.27592 0.304375 44
-2.22484 1.31039 0.494705 36
-1.48681 1.27343 0.168211 47
-2.20679 1.30391 0.310021 35
-1.49004 1.27665 0.0336395 47
-1.4956 1.28187 -0.101739 47
-1.48604 1.27501 -0.235786 50
-1.49196 1.28099 -0.374743 55
-1.67869 0.993626 -0.303817 14
-1.48959 1.28074 -0.516654 59
-0.981052 0.58191 -0.254933 4
-1.48211 1.27431 0.442484 45
-2.21686 1.30578 0.679161 35
-1.47972 1.27181 0.302814 45
-2.20563 1.30431 0.490892 35
-1.47704 1.26952 0.167339 49
-2.18978 1.29854 0.307891 35
-1.48592 1.27762 0.0335959 47
-1.48202 1.27471 -0.100951 49
-1.47652 1.27086 -0.234569 50
-1.48229 1.27718 -0.372838 55
-1.66207 0.987762 -0.301077 14
-1.47639 1.27386 -0.512775 61
-0.980137 0.58345 -0.254933 3
-1.46623 1.27406 0.439676 45
-2.19569 1.30836 0.674638 35
-1.47118 1.27792 0.302424 47
-2.18846 1.30918 0.488509 36
-1.46871 1.27535 0.167121 49
-2.1723 1.30363 0.30637 35
-1.47 1.27692 0.0333777 47
-1.46967 1.27753 -0.100557 47
-1.46423 1.27369 -0.233657 52
-1.47025 1.27983 -0.371409 55
-1.64628 0.990114 -0.299119 15
-1.45901 1.27179 -0.508895 59
-0.981253 0.59107 -0.256056 3
-1.46034 1.27341 0.438553 45
-2.17473 1.30106 0.668822 36
-1.45592 1.26912 0.299692 44
-2.1712 1.30456 0.485173 36
-1.45523 1.26808 0.165814 47
-2.15725 1.29976 0.304545 35
-1.46002 1.27316 0.0332032 47
-1.46556 1.27845 -0.100426 47
-1.45453 1.26971 -0.23244 52
-1.45693 1.27269 -0.368552 55
-1.63608 0.987902 -0.297553 15
-1.4493 1.26822 -0.506308 61
-0.97813 0.59153 -0.255495 3
-1.44612 1.27484 0.436307 47
-2.15111 1.30283 0.663652 36
-1.44903 1.27698 0.299692 45
-2.15174 1.30828 0.482313 36
-1.44461 1.27264 0.165378 47
-2.13534 1.3024 0.302415 35
-1.44958 1.27748 0.0331159 47
-1.45136 1.2795 -0.0999007 47
-1.44392 1.27427 -0.231831 52
-1.44819 1.27893 -0.368076 56
-1.62456 0.992609 -0.296378 15
-1.4336 1.26779 -0.503075 61
-0.976998 0.598077 -0.256056 3
-1.43682 1.27065 0.434061 47
-2.13644 1.29908 0.659775 38
-1.43778 1.27107 0.297741 44
-2.13477 1.30311 0.478977 36
-1.43493 1.26856 0.164506 49
-2.11846 1.29671 0.300285 35
-1.43987 1.27338 0.0329414 47
-2.11755 1.29816 0.128354 35
-1.44165 1.27541 -0.0993756 49
-1.43264 1.26831 -0.23031 52
-1.43861 1.27494 -0.366172 55
-1.61439 0.9903 -0.294812 15
-1.43138 1.27029 -0.503075 59
-0.971895 0.597078 -0.254933 4
-1.4247 1.27328 0.432376 49
-2.11748 1.30231 0.655898 38
-1.42559 1.27364 0.29657 45
-2.1156 1.30619 0.476118 38
-1.42478 1.27249 0.164071 49
-2.09897 1.29997 0.29846 35
-1.42782 1.27565 0.0328105 47
-2.09373 1.29874 0.127307 35
-1.43145 1.27936 -0.0991131 49
-1.42228 1.27248 -0.229701 52
-1.42666 1.27729 -0.364743 55
-1.61128 1.00004 -0.295204 15
-1.42134 1.27429 -0.501782 59
-0.977053 0.607267 -0.257179 4
-1.41545 1.26901 0.43013 47
-2.10697 1.30095 0.653313 39
-1.41785 1.27118 0.2954 45
-2.0987 1.30086 0.472781 36
-1.41329 1.26665 0.162981 49
-2.07982 1.29318 0.296026 36
-1.42001 1.27313 0.0326796 47
-2.08085 1.29581 0.126653 35
-1.42179 1.27518 -0.098588 49
-1.41452 1.26998 -0.228789 52
-1.41895 1.27485 -0.363315 55
-1.60954 1.00285 -0.295204 15
-1.41015 1.26869 -0.498549 61
-0.971848 0.60641 -0.256056 3
-1.40315 1.27174 0.428445 47
-2.08578 1.30303 0.648789 38
-1.40569 1.27361 0.294229 47
-2.07729 1.30273 0.469445 38
-1.40295 1.27069 0.162545 50
-2.0625 1.29747 0.294505 36
-1.40777 1.27551 0.0325487 49
-2.05923 1.2974 0.125737 35
-1.40563 1.27446 -0.0979316 49
-1.40234 1.27236 -0.227876 52
-1.40681 1.27731 -0.361886 56
-1.61263 1.01651 -0.29677 15
-1.39634 1.26955 -0.495962 61
-0.976921 0.616657 -0.258303 4
-1.39733 1.2709 0.427322 49
-2.07121 1.299 0.644912 38
-1.39616 1.26941 0.292668 47
-2.05815 1.29629 0.465632 38
-1.39336 1.26643 0.161674 50
-2.04973 1.29446 0.292983 38
-1.39793 1.27148 0.0323742 47
-2.0464 1.29434 0.125083 36
-1.39787 1.27187 -0.0975378 49
-1.39462 1.26979 -0.226963 52
-1.39552 1.2715 -0.359505 56
-1.3939 1.27223 -0.495962 59
-0.969654 0.614475 -0.256618 4
-1.38147 1.27019 0.424515 49
-2.04986 1.30115 0.640389 38
-1.38382 1.27193 0.291497 47
-2.04305 1.30179 0.463726 38
-1.38099 1.26889 0.16102 49
-2.02595 1.29487 0.290549 38
-1.38573 1.2737 0.0322433 49
-2.02884 1.29869 0.124429 39
-1.38568 1.2741 -0.097144 49
-1.61777 1.03749 -0.0329414 15
-1.38043 1.27059 -0.225746 55
-1.38501 1.2757 -0.358553 56
-1.37835 1.27132 -0.492729 61
-0.964259 0.618406 -0.256056 4
-1.3759 1.26905 0.423392 49
-2.03331 1.29567 0.635865 39
-1.37638 1.26907 0.290327 47
-2.03042 1.29876 0.461343 38
-1.37511 1.26792 0.160584 49
-2.01346 1.29138 0.289028 39
-1.37983 1.27273 0.0321561 47
-2.01628 1.29515 0.123775 39
-1.37612 1.26974 -0.0966189 49
-1.61596 1.04032 -0.0329414 14
-1.37479 1.26939 -0.225138 53
-1.37377 1.26978 -0.356172 56
-1.37259 1.27044 -0.491436 61
-0.96534 0.62123 -0.256618 4
-1.36211 1.26959 0.421145 49
-2.01656 1.29943 0.632634 38
-1.3661 1.27289 0.289546 47
-2.00938 1.29972 0.458007 39
-1.36686 1.27316 0.160367 49
-1.99833 1.29652 0.287811 38
-1.36606 1.27287 0.0319815 49
-1.99899 1.2989 0.12312 38
-1.36602 1.27328 -0.0963563 50
-1.61487 1.0512 -0.0330287 14
-1.36087 1.2698 -0.223921 55
-1.35657 1.26666 -0.353315 58
-1.35909 1.27076 -0.488849 59
-0.966169 0.628916 -0.257741 4
-1.35478 1.26673 0.419461 49
-2.00414 1.29641 0.629403 39
-1.35487 1.26684 0.287595 47
-1.9968 1.29656 0.455624 39
-1.35372 1.26534 0.159059 49
-1.98149 1.29055 0.285682 39
-1.35837 1.27013 0.0318506 47
-1.98416 1.29423 0.122335 38
-1.35651 1.26884 -0.0958312 50
-1.35503 1.26877 -0.223312 55
-1.35078 1.26566 -0.352363 58
-1.35335 1.26983 -0.487556 59
-0.96098 0.627954 -0.256618 4
-1.34437 1.2707 0.418338 49
-1.98518 1.29898 0.625526 39
-1.34642 1.27221 0.287205 49
-1.98177 1.30163 0.453718 39
-1.34346 1.26898 0.158623 49
-1.97056 1.29819 0.285073 38
-1.34625 1.27207 0.0317197 49
-1.96901 1.29912 0.121812 38
-1.346 1.27272 -0.0955686 50
-1.34657 1.27414 -0.223008 55
-1.33879 1.26765 -0.350934 58
-1.96048 1.29258 -0.366852 38
-1.34843 1.27856 -0.488203 61
-0.961754 0.635646 -0.257741 4
-1.33685 1.26801 0.416653 50
-1.9627 1.28922 0.619064 39
-1.33704 1.26776 0.285644 47
-1.96696 1.29735 0.450858 39
-1.33402 1.26447 0.157752 49
-1.95378 1.29207 0.282943 39
-1.33656 1.26777 0.0315452 49
-1.95215 1.29294 0.120896 38
-1.33835 1.26991 -0.0951748 50
-1.33356 1.26623 -0.221183 55
-1.32769 1.26153 -0.348553 58
-1.9541 1.29329 -0.366068 39
-1.33549 1.27115 -0.484323 61
-0.960644 0.637324 -0.257741 4
-1.32118 1.26679 0.413846 50
-1.94764 1.29449 0.616479 41
-1.3266 1.27156 0.284864 47
-1.94787 1.29948 0.447998 39
-1.31997 1.26477 0.15688 47
-1.93644 1.29575 0.281422 39
-1.3263 1.27128 0.031458 49
-1.93474 1.29655 0.120242 38
-1.32988 1.27517 -0.0950435 50
-1.3249 1.27171 -0.220878 55
-1.31554 1.26359 -0.347125 58
-1.93497 1.29528 -0.363719 39
-1.32186 1.27142 -0.481736 61
-0.957181 0.642512 -0.257741 4
-1.31217 1.2621 0.4116 50
-1.93733 1.29254 0.613894 41
-1.31748 1.26679 0.283303 47
-1.93539 1.29607 0.445616 41
-1.31417 1.26362 0.156445 50
-1.92408 1.29189 0.279901 41
-1.31867 1.2684 0.0313271 49
-1.92233 1.29264 0.119588 39
-1.31866 1.26883 -0.0943872 52
-1.31218 1.26345 -0.219053 56
-1.21793 0.821711 -0.125254 12
-1.30627 1.25907 -0.34522 56
-1.92245 1.29179 -0.361762 39
-1.31096 1.26533 -0.478503 59
-0.960223 0.646719 -0.258864 4
-1.3038 1.26725 0.411038 50
-1.92274 1.29695 0.61131 41
-1.30375 1.26678 0.281742 47
-1.91456 1.29625 0.442279 41
-1.3024 1.26504 0.155791 49
-1.9029 1.29222 0.277771 41
-1.30686 1.26982 0.0311962 49
-1.9052 1.29569 0.118933 39
-1.30485 1.26875 -0.0938621 50
-1.30199 1.26684 -0.218445 56
-1.21567 0.829474 -0.125471 12
-1.30164 1.26737 -0.345696 58
-1.90339 1.29354 -0.359413 39
-1.29935 1.26689 -0.476563 59
-0.950767 0.647649 -0.257179 4
-1.29462 1.26272 0.408792 52
-1.90846 1.2922 0.607432 39
-1.29801 1.2656 0.280961 45
-1.90394 1.29442 0.440373 41
-1.29485 1.26209 0.155137 49
-1.89448 1.29136 0.276859 41
-1.30085 1.26884 0.0311089 50
-1.89055 1.2906 0.118148 39
-1.29728 1.26579 -0.0934682 52
-1.29623 1.26564 -0.217836 56
-1.23069 0.842799 -0.127211 11
-1.29416 1.2645 -0.344268 59
-1.28657 1.25924 -0.472684 59
-0.955685 0.653407 -0.258864 4
-1.28257 1.26457 0.407107 52
-1.88947 1.29435 0.603555 41
-1.28762 1.26914 0.280181 47
-1.88498 1.29606 0.437513 41
-1.28268 1.26383 0.154484 49
-1.8711 1.29036 0.274425 41
-1.29063 1.27212 0.0310216 49
-1.87119 1.29232 0.117363 39
-1.28708 1.26906 -0.0932057 52
-1.8627 1.28743 -0.0389189 36
-1.2876 1.27089 -0.217532 56
-1.27858 1.26285 -0.341887 59
-1.28339 1.26936 -0.473977 59
-0.950127 0.657191 -0.258303 4
-1.27539 1.26144 0.405423 50
-1.87326 1.28809 0.599032 41
-1.27861 1.26421 0.27862 49
-1.87463 1.29378 0.435607 42
-1.27517 1.26081 0.15383 50
-1.85681 1.28485 0.272599 41
-1.28308 1.26909 0.0308908 50
-1.85888 1.28817 0.116709 39
-1.28309 1.26954 -0.0930744 52
-1.85222 1.285 -0.0387443 36
-1.27855 1.26593 -0.216315 56
-1.27289 1.26162 -0.340935 58
-1.27432 1.26479 -0.47139 59
-0.947086 0.657302 -0.257741 4
-1.2636 1.26293 0.403738 50
-1.85678 1.29069 0.595801 41
-1.26674 1.26565 0.277449 49
-1.85596 1.29486 0.432747 42
-1.26701 1.26549 0.153612 50
-1.84192 1.28888 0.271382 41
-1.27134 1.27027 0.0307599 50
-1.84392 1.29217 0.116186 41
-1.27135 1.27072 -0.0926806 52
-1.8375 1.28864 -0.0385698 36
-1.26665 1.26733 -0.215402 58
-1.26302 1.26457 -0.339982 59
-1.26279 1.26609 -0.469451 61
-0.949631 0.666425 -0.259426 4
-1.25817 1.26146 0.402615 50
-1.84461 1.28704 0.59257 44
-1.26104 1.26435 0.276669 49
-1.84363 1.29108 0.430365 42
-1.25777 1.26064 0.15274 52
-1.83356 1.28783 0.27047 42
-1.2603 1.26363 0.0305417 49
-1.83349 1.28966 0.115662 41
-1.26209 1.26586 -0.0921555 52
-1.82706 1.2861 -0.0383953 36
-1.26269 1.26778 -0.215098 56
-1.25389 1.25981 -0.338078 59
-1.26058 1.26829 -0.469451 59
-0.950464 0.669476 -0.259987 4
-1.24598 1.26326 0.40093 50
-1.83169 1.29283 0.590631 42
-1.24898 1.26588 0.275498 49
-1.82459 1.29255 0.427505 42
-1.24568 1.26211 0.152087 50
-1.82049 1.29343 0.269557 41
-1.24994 1.26687 0.0304544 49
-1.81833 1.29379 0.115139 39
-1.24821 1.26556 -0.0916304 50
-1.81191 1.29019 -0.0382208 38
-1.24885 1.26752 -0.213881 58
-1.24361 1.26308 -0.337125 59
-1.24017 1.2613 -0.464278 61
-0.940858 0.670393 -0.258303 4
-1.24058 1.26174 0.399807 52
-1.81562 1.28629 0.586108 44
-1.24504 1.2663 0.275108 49
-1.81632 1.29148 0.426075 42
-1.23999 1.26072 0.151651 50
-1.80811 1.28942 0.268036 42
-1.24072 1.26191 0.0302799 49
-1.8059 1.28973 0.114485 39
-1.246 1.26773 -0.0916304 52
-1.79948 1.2861 -0.0380026 38
-1.23795 1.26084 -0.21236 58
-1.23797 1.26174 -0.336173 59
-1.23627 1.26174 -0.463631 61
-0.943662 0.674851 -0.259426 4
-1.23204 1.26668 0.399246 52
-1.80099 1.29017 0.583523 45
-1.22979 1.26394 0.273157 49
-1.80155 1.29526 0.424169 42
-1.2299 1.26363 0.151215 50
-1.78723 1.28874 0.265906 41
-1.23061 1.2648 0.0301927 49
-1.7829 1.28751 0.113438 38
-1.23239 1.26708 -0.0911053 52
-1.78257 1.28821 -0.0377845 38
-1.22787 1.26374 -0.211751 55
-1.22452 1.26115 -0.334268 59
-1.22629 1.26473 -0.462338 61
-0.932195 0.674107 -0.257179 4
-1.22497 1.26337 0.397561 52
-1.78499 1.28347 0.578999 45
-1.22265 1.26055 0.271986 50
-1.78733 1.28981 0.421309 42
-1.22249 1.26041 0.150562 50
-1.77513 1.2843 0.264385 42
-1.22319 1.26156 0.0300618 49
-1.7748 1.28593 0.113046 41
-1.22497 1.26384 -0.0907115 53
-1.77221 1.28546 -0.0376099 38
-1.22244 1.2621 -0.211143 58
-1.22061 1.26152 -0.333792 58
-1.2157 1.25817 -0.459105 59
-0.933113 0.676992 -0.257741 4
-1.21159 1.26273 0.395315 52
-1.77064 1.28683 0.576415 45
-1.21433 1.26515 0.271596 49
-1.77283 1.29307 0.419403 42
-1.21093 1.26118 0.149908 52
-1.75835 1.28627 0.262864 42
-1.20987 1.26052 0.0298872 50
-1.75393 1.2849 0.11213 39
-1.21315 1.26483 -0.0903176 53
-1.75559 1.28705 -0.0373918 38
-1.20895 1.26131 -0.209926 56
-1.75733 1.28834 -0.187228 39
-1.21082 1.26414 -0.33284 59
-1.20765 1.26256 -0.458458 59
-1.20771 1.26308 0.394754 52
-1.76058 1.28424 0.57383 45
-1.20871 1.2637 0.270816 49
-1.75845 1.2878 0.416543 44
-1.20528 1.25969 0.149472 52
-1.74809 1.28348 0.261647 44
-1.20227 1.25741 0.0297564 50
-1.75369 1.28944 0.112261 41
-1.20922 1.26514 -0.0901864 53
-1.74527 1.28421 -0.0372173 38
-1.20332 1.25983 -0.209317 59
-1.74503 1.28404 -0.186141 39
-1.20014 1.25737 -0.330459 52
-1.19523 1.25438 -0.454578 56
-1.19416 1.26251 0.392508 53
-1.74582 1.28803 0.571245 45
-1.19676 1.26483 0.269645 49
-1.74378 1.29116 0.414637 42
-1.19503 1.26258 0.149036 52
-1.73314 1.28702 0.26043 44
-1.19395 1.26187 0.0297127 52
-1.73064 1.28702 0.111214 41
-1.19572 1.26419 -0.0896612 53
-1.73027 1.28768 -0.0370427 39
-1.19308 1.26271 -0.208709 58
-1.73028 1.28724 -0.185271 39
-1.18659 1.2567 -0.328554 49
-1.18534 1.25711 -0.453285 58
-1.19218 1.26438 0.392508 53
-1.73579 1.28534 0.56866 45
-1.19139 1.26312 0.268864 49
-1.72968 1.28545 0.411777 42
-1.18941 1.26103 0.148601 52
-1.72314 1.28383 0.259213 45
-1.18832 1.26032 0.0296255 52
-1.7206 1.28379 0.110691 41
-1.19009 1.26264 -0.0893987 53
-1.71799 1.28324 -0.0368246 41
-1.1826 1.25555 -0.207188 58
-1.72004 1.28431 -0.184402 41
-1.17767 1.25161 -0.32665 45
-1.17158 1.24684 -0.448759 53
-1.1789 1.26348 0.390261 53
-1.71958 1.2869 0.565429 45
-1.18139 1.26573 0.268084 50
-1.71726 1.28978 0.410348 44
-1.17452 1.25793 0.147511 50
-1.70448 1.2839 0.257387 45
-1.17681 1.26083 0.0294946 52
-1.70387 1.28528 0.110036 42
-1.18006 1.2652 -0.0891361 53
-1.70148 1.28441 -0.0366064 39
-1.1777 1.26354 -0.207492 58
-1.17132 1.25756 -0.32665 47
-1.16361 1.25099 -0.448112 47
-1.17338 1.26196 0.389138 52
-1.70766 1.28267 0.562198 45
-1.17078 1.25874 0.266133 52
-1.70693 1.28718 0.408441 44
-1.16724 1.2545 0.146857 52
-1.69233 1.27942 0.255866 44
-1.17099 1.25942 0.0294073 50
-1.68767 1.27774 0.10912 39
-1.17615 1.26543 -0.0890049 55
-1.69125 1.28136 -0.0364319 41
-1.17212 1.26195 -0.206883 59
-1.16245 1.2524 -0.324745 47
-1.15465 1.24613 -0.445525 47
-1.16159 1.26291 0.387454 53
-1.69106 1.28461 0.558967 45
-1.16061 1.26142 0.265352 50
-1.69039 1.28868 0.406058 44
-1.16043 1.2608 0.146857 52
-1.67946 1.28405 0.254953 45
-1.161 1.26185 0.02932 50
-1.67676 1.28382 0.108859 42
-1.16445 1.26605 -0.088611 53
-1.67435 1.28291 -0.0362137 41
-1.16024 1.26279 -0.205971 59
-1.15068 1.25324 -0.323317 49
-1.14158 1.24503 -0.442939 45
-1.15303 1.25754 0.385208 53
-1.67919 1.28026 0.555736 45
-1.15696 1.26142 0.264962 50
-1.67837 1.2842 0.403675 44
-1.15487 1.25915 0.146422 52
-1.6656 1.27765 0.253128 47
-1.15373 1.25835 0.0291891 52
-1.66482 1.27887 0.108205 42
-1.15549 1.26072 -0.0880859 55
-1.66417 1.27975 -0.0360392 41
-1.15323 1.25912 -0.205058 59
-1.1518 1.25887 -0.324269 53
-1.13778 1.24524 -0.442292 45
-1.14316 1.25995 0.384085 53
-1.66503 1.28286 0.553151 45
-1.14371 1.26014 0.263401 52
-1.66213 1.28519 0.401292 45
-1.14346 1.25944 0.145768 52
-1.653 1.2818 0.252215 47
-1.14399 1.26047 0.0291019 52
-1.65218 1.28299 0.107812 41
-1.14553 1.26305 -0.0878234 55
-1.64779 1.28051 -0.0358211 41
-1.14662 1.26514 -0.205058 59
-1.13554 1.25376 -0.321412 53
-1.12985 1.24919 -0.441646 49
-1.13769 1.25833 0.382962 53
-1.65513 1.27988 0.550566 47
-1.13985 1.2603 0.263011 52
-1.65189 1.28238 0.399386 45
-1.13792 1.25774 0.145332 52
-1.64683 1.28165 0.251607 47
-1.13654 1.25709 0.028971 53
-1.64796 1.28435 0.107681 42
-1.1383 1.25949 -0.0874296 56
-1.6416 1.28032 -0.0357338 42
-1.13776 1.25977 -0.203841 59
-1.13171 1.25392 -0.320936 59
-1.1226 1.24597 -0.439706 56
-1.12762 1.26083 0.381839 55
-1.63865 1.2814 0.547335 47
-1.12808 1.26092 0.26184 52
-1.63548 1.28346 0.397003 45
-1.12612 1.25831 0.144679 52
-1.63401 1.28595 0.250694 47
-1.12828 1.26116 0.0289274 53
-1.63117 1.28554 0.107027 41
-1.13003 1.26357 -0.0872983 58
-1.62875 1.28456 -0.0356029 42
-1.12763 1.2622 -0.203232 61
-0.945195 0.747749 -0.102204 9
-1.11838 1.2527 -0.319031 83
-1.12088 1.25724 -0.441646 90
-1.1224 1.25896 0.380715 55
-1.63261 1.28128 0.546043 47
-1.12095 1.25736 0.26067 52
-1.62551 1.28025 0.395097 45
-1.11896 1.25469 0.144025 52
-1.62201 1.28113 0.249173 47
-1.11943 1.25566 0.0287528 53
-1.62108 1.28221 0.106504 42
-1.1245 1.26181 -0.0870357 58
-1.62062 1.28276 -0.035472 42
-1.12378 1.26231 -0.202928 61
-0.945846 0.750938 -0.102421 9
-1.11782 1.25648 -0.319507 97
-1.11868 1.2592 -0.441646 93
-1.11235 1.26136 0.379592 55
-1.6164 1.28233 0.542812 47
-1.11272 1.26136 0.26028 53
-1.61494 1.2857 0.394143 45
-1.11237 1.26053 0.144025 53
-1.60557 1.28189 0.247652 45
-1.11284 1.2615 0.0287528 53
-1.60848 1.28601 0.106111 41
-1.11623 1.2658 -0.0869045 56
-1.60215 1.28188 -0.0352102 41
-1.11223 1.26259 -0.202016 65
-0.934107 0.749676 -0.101551 8
-1.10474 1.25494 -0.317603 90
-1.11207 1.26504 -0.441646 77
-1.10555 1.25761 0.377908 55
-1.6028 1.27615 0.538935 49
-1.10748 1.25939 0.259499 52
-1.60885 1.28546 0.39319 44
-1.10524 1.25686 0.143371 53
-1.59191 1.27513 0.245826 47
-1.10734 1.25969 0.0286656 55
-1.5967 1.28075 0.105457 42
-1.11073 1.264 -0.0866419 56
-1.59405 1.27999 -0.0350793 41
-1.10534 1.25873 -0.201103 67
-0.952255 0.76685 -0.103726 4
-1.10093 1.25502 -0.317126 67
-1.10509 1.26152 -0.439706 61
-1.09416 1.25786 0.376223 55
-1.59066 1.27972 0.536996 49
-1.09602 1.25958 0.258328 53
-1.59085 1.28437 0.390331 44
-1.09397 1.2568 0.142718 53
-1.57748 1.27722 0.244609 47
-1.09603 1.25961 0.0285347 53
-1.58415 1.28439 0.105064 41
-1.09918 1.26414 -0.0862481 55
-1.57977 1.28176 -0.0349048 41
-1.09711 1.26263 -0.200799 65
-0.944352 0.768696 -0.103291 4
-1.08653 1.25131 -0.314746 61
-1.09395 1.26162 -0.437766 59
-1.08558 1.2524 0.373977 55
-1.5809 1.27644 0.534411 50
-1.08897 1.25589 0.257158 52
-1.58074 1.28125 0.388424 45
-1.08362 1.24929 0.141628 55
-1.56946 1.27529 0.243696 45
-1.09034 1.25794 0.0284474 53
-1.57026 1.27773 0.104279 44
-1.09534 1.26417 -0.0861168 56
-1.56782 1.27665 -0.0346867 41
-1.09166 1.26079 -0.20019 65
-0.946878 0.773479 -0.103726 4
-1.08274 1.25134 -0.314269 61
-1.08207 1.25275 -0.433886 59
-1.56482 1.26981 -0.456522 45
-1.07721 1.25641 0.373416 55
-1.5646 1.27736 0.53118 52
-1.08216 1.26176 0.257158 52
-1.5683 1.28486 0.386994 45
-1.07522 1.25324 0.14141 53
-1.55486 1.27748 0.242479 49
-1.07886 1.25793 0.0283165 55
-1.55946 1.28304 0.104018 44
-1.07897 1.2585 -0.0853292 56
-1.55509 1.28036 -0.0345558 42
-1.0816 1.2629 -0.199582 65
-1.07117 1.25159 -0.312841 64
-1.5547 1.27783 -0.313605 35
-1.07706 1.26023 -0.434533 59
-1.5485 1.27055 -0.453714 45
-1.07365 1.25624 0.372854 55
-1.55488 1.27399 0.528595 50
-1.07376 1.25595 0.255597 53
-1.55656 1.27983 0.384611 44
-1.0698 1.25133 0.140974 55
-1.54901 1.27677 0.241871 47
-1.07342 1.25601 0.0282293 55
-1.54201 1.27281 0.102971 42
-1.07515 1.25849 -0.0851979 56
-1.54706 1.27831 -0.0344249 42
-1.07317 1.25705 -0.198365 64
-1.06739 1.25159 -0.312365 65
-1.54865 1.27741 -0.312822 47
-1.07017 1.25659 -0.432593 59
-1.54461 1.27144 -0.453153 45
-1.06234 1.25626 0.37117 55
-1.54282 1.27723 0.526657 50
-1.06398 1.25778 0.254816 52
-1.54249 1.28143 0.382705 45
-1.06185 1.25482 0.140757 55
-1.53084 1.27536 0.240046 49
-1.06543 1.25952 0.0281856 55
-1.53148 1.27768 0.102709 44
-1.06394 1.25819 -0.0848041 56
-1.52903 1.27654 -0.0341631 44
-1.06498 1.26075 -0.19806 64
-1.50461 1.25582 -0.168092 18
-1.05946 1.25509 -0.311889 71
-1.53244 1.27761 -0.310865 47
-1.05757 1.2546 -0.430006 58
-1.52855 1.27174 -0.450345 47
-1.0541 1.25048 0.368923 56
-1.53314 1.27377 0.524072 52
-1.0602 1.25774 0.254426 53
-1.53081 1.27629 0.380322 45
-1.05645 1.25287 0.140321 55
-1.52289 1.27327 0.239133 49
-1.06002 1.25755 0.0280984 53
-1.51774 1.27076 0.101924 44
-1.06174 1.26004 -0.0848041 56
-1.52296 1.27601 -0.0340758 44
-1.05958 1.25881 -0.197452 65
-1.51581 1.26961 -0.169615 35
-1.05727 1.25694 -0.311889 70
-1.52072 1.27239 -0.308907 45
-1.05383 1.25459 -0.42936 58
-1.51884 1.26818 -0.448099 47
-1.04576 1.25429 0.368362 56
-1.51718 1.27404 0.520841 52
-1.04886 1.25759 0.253256 53
-1.51847 1.27956 0.378892 45
-1.04669 1.25455 0.139885 55
-1.50481 1.27165 0.237307 49
-1.04862 1.25732 0.0279675 55
-1.50725 1.27547 0.101663 44
-1.04532 1.25425 -0.0840164 56
-1.50671 1.27591 -0.0338577 45
-1.0498 1.26052 -0.196843 65
-1.49939 1.26977 -0.168527 35
-1.0444 1.25491 -0.309984 70
-1.51215 1.27874 -0.308515 47
-1.03954 1.2508 -0.426127 59
-1.50658 1.27141 -0.446414 47
-1.04357 1.25611 0.368362 56
-1.50755 1.27048 0.518256 52
-1.04508 1.25751 0.252865 53
-1.51037 1.27773 0.377463 45
-1.03972 1.25063 0.139231 56
-1.49879 1.27107 0.236699 49
-1.04301 1.25548 0.0278802 55
-1.49739 1.27166 0.101139 44
-1.04154 1.25415 -0.0838851 58
-1.49684 1.27208 -0.0336831 45
-1.04602 1.26044 -0.196539 67
-1.49908 1.27399 -0.168745 44
-1.04221 1.25673 -0.309984 71
-1.50048 1.27341 -0.306558 47
-1.03867 1.25466 -0.426773 59
-1.50063 1.2709 -0.445291 45
-1.03521 1.25986 0.3678 56
-1.49513 1.27393 0.516317 53
-1.03043 1.25361 0.250914 53
-1.49619 1.27926 0.375556 45
-1.02978 1.25238 0.138796 55
-1.48623 1.27433 0.235786 50
-1.03325 1.25706 0.027793 53
-1.48859 1.27812 0.101008 45
-1.03179 1.25573 -0.0836226 58
-1.48424 1.27529 -0.0335523 45
-1.03447 1.26033 -0.195626 65
-1.48292 1.27373 -0.167658 44
-1.03073 1.25665 -0.308555 64
-1.48816 1.27644 -0.305383 49
-1.0275 1.25447 -0.424833 59
-1.48446 1.2711 -0.442484 45
-1.02398 1.25016 0.364431 56
-1.48555 1.27028 0.513733 52
-1.0269 1.25331 0.250524 55
-1.48649 1.27549 0.37365 47
-1.02602 1.25225 0.138578 55
-1.47857 1.27182 0.234873 50
-1.03106 1.25886 0.027793 53
-1.4771 1.27233 0.100354 44
-1.03118 1.25946 -0.0837538 58
-1.47821 1.27462 -0.033465 45
-1.02778 1.25618 -0.194714 71
-1.47313 1.26983 -0.166788 44
-1.02388 1.25275 -0.307127 67
-1.47842 1.27261 -0.303817 49
-1.02531 1.25626 -0.424833 59
-1.4732 1.26552 -0.439676 47
-1.01282 1.24983 0.362747 56
-1.47177 1.27148 0.511148 52
-1.01877 1.25675 0.250134 53
-1.47258 1.27659 0.371743 45
-1.01653 1.25356 0.138142 53
-1.46063 1.26981 0.233048 50
-1.02153 1.26018 0.0277057 56
-1.46665 1.27678 0.100093 45
-1.01672 1.25514 -0.0830975 58
-1.46419 1.27554 -0.0332905 47
-1.01807 1.25769 -0.194105 70
-1.46458 1.2759 -0.16657 44
-1.01599 1.256 -0.306651 61
-1.46614 1.27549 -0.302643 50
-1.01439 1.25579 -0.422893 59
-1.46103 1.26844 -0.437991 45
-1.00605 1.2459 0.361062 58
-1.46407 1.26932 0.509209 52
-1.01502 1.2566 0.249743 53
-1.46641 1.2762 0.37079 47
-1.01121 1.25145 0.137706 55
-1.45654 1.27073 0.232744 50
-1.01283 1.25435 0.0275312 55
-1.46253 1.2777 0.0999617 45
-1.01296 1.25497 -0.0829662 58
-1.45442 1.27153 -0.0331159 45
-1.00965 1.25173 -0.192888 70
-1.45484 1.27191 -0.1657 44
-1.01379 1.25777 -0.306651 67
-1.45832 1.27319 -0.301468 49
-1.00896 1.25397 -0.4216 59
-1.45329 1.2662 -0.436307 45
-1.00081 1.25323 0.361624 58
-1.45172 1.27246 0.507271 52
-1.00359 1.25629 0.248573 55
-1.45232 1.2774 0.368884 47
-1.00132 1.25301 0.13727 55
-1.44405 1.27368 0.231831 50
-1.00469 1.25769 0.0274875 56
-1.44622 1.27735 0.0993075 44
-1.00327 1.25635 -0.0827036 58
-1.44376 1.27608 -0.0330287 47
-1.00595 1.26106 -0.193497 68
-1.44442 1.27622 -0.165266 44
-0.999333 1.25364 -0.30427 64
-1.44421 1.27429 -0.299902 50
-0.997869 1.25357 -0.41966 59
-1.44092 1.26923 -0.434622 47
-0.994297 1.24908 0.359939 58
-1.44404 1.27022 0.505332 52
-0.998543 1.25399 0.247792 55
-1.44456 1.27507 0.367454 47
-0.992936 1.24696 0.136399 56
-1.4346 1.26939 0.230614 50
-0.99783 1.25357 0.0273566 55
-1.43485 1.27137 0.0986533 44
-0.997967 1.25419 -0.0824411 59
-1.43966 1.27694 -0.032985 45
-0.996254 1.25292 -0.191976 73
-1.43472 1.27215 -0.164396 44
-0.995619 1.25346 -0.303794 67
-1.43272 1.26865 -0.297945 50
-0.998678 1.25909 -0.420954 59
-1.43343 1.26666 -0.432938 47
-0.986238 1.25235 0.359377 58
-1.43398 1.27431 0.50404 53
-0.988911 1.25532 0.247012 55
-1.42707 1.27259 0.364595 47
-0.985072 1.25001 0.136181 56
-1.42237 1.27193 0.229701 50
-0.991472 1.2586 0.0273566 56
-1.42631 1.2772 0.0985224 47
-0.988301 1.25547 -0.0821785 59
-1.42012 1.27257 -0.0326796 45
-0.986615 1.25422 -0.191367 73
-1.4206 1.27302 -0.163526 44
-0.986232 1.25462 -0.302841 68
-1.42053 1.27121 -0.29677 52
-0.984845 1.25463 -0.41772 59
-1.4195 1.26768 -0.430691 47
-0.979544 1.24832 0.357693 58
-1.42633 1.272 0.502101 53
-0.983672 1.25316 0.246231 56
-1.4228 1.2737 0.364118 49
-0.981352 1.24977 0.135963 56
-1.41459 1.26945 0.228789 52
-0.985971 1.25657 0.0272694 56
-1.40919 1.26638 0.0974757 44
-0.987648 1.25916 -0.0823098 58
-1.41231 1.27005 -0.0325487 45
-0.985953 1.25789 -0.191671 70
-1.41281 1.27051 -0.162874 44
-0.982529 1.25441 -0.302365 65
-1.4091 1.26546 -0.294812 50
-0.982435 1.25652 -0.41772 59
-1.41183 1.26529 -0.429007 49
-0.971284 1.25168 0.357131 58
-1.41224 1.27325 0.499516 52
-0.973853 1.25456 0.245451 56
-1.40699 1.27292 0.361735 49
-0.974576 1.25506 0.135963 56
-1.40402 1.27376 0.22818 52
-0.971723 1.25183 0.0270512 56
-1.40232 1.27398 0.0974757 45
-0.973397 1.25444 -0.0816534 58
-1.39614 1.26928 -0.0323306 45
-0.974578 1.25732 -0.190759 73
-1.40244 1.27455 -0.162439 45
-0.972725 1.25582 -0.301413 68
-1.39879 1.26951 -0.294029 50
-0.971415 1.25591 -0.415781 59
-1.39591 1.26476 -0.426199 47
-0.967828 1.25127 0.35657 58
-1.40283 1.26925 0.496931 53
-0.968862 1.25218 0.244671 56
-1.40294 1.27373 0.361258 49
-0.967817 1.25085 0.135309 56
-1.39282 1.26764 0.226659 52
-0.971065 1.2555 0.0270949 58
-1.39477 1.27115 0.0970832 44
-0.968156 1.25219 -0.0813909 58
-1.39393 1.27172 -0.0323306 45
-0.968055 1.25295 -0.189846 73
-1.38915 1.26695 -0.161134 45
-0.969034 1.25557 -0.300937 68
-1.39108 1.26698 -0.292855 50
-0.961859 1.24803 -0.412547 59
-1.39212 1.26531 -0.425638 49
-0.958306 1.25245 0.355447 58
-1.39103 1.27146 0.494993 53
-0.963792 1.2592 0.245061 56
-1.38923 1.2742 0.359352 49
-0.956937 1.24979 0.134656 56
-1.38067 1.26989 0.225746 52
-0.960145 1.25444 0.026964 56
-1.37889 1.27001 0.096429 42
-0.96029 1.25509 -0.0812596 58
-1.37826 1.27031 -0.0321124 47
-0.956966 1.25209 -0.188933 74
-1.37721 1.26892 -0.160482 45
-0.961179 1.25851 -0.300461 64
-1.38079 1.27091 -0.292072 50
-0.951142 1.24712 -0.410608 58
-1.37289 1.26108 -0.421707 47
-0.951911 1.24814 0.353762 58
-1.38346 1.26901 0.493054 53
-0.954114 1.25105 0.24311 56
-1.38338 1.27331 0.358399 47
-0.956263 1.25344 0.134874 56
-1.37114 1.26558 0.224529 50
-0.954926 1.25214 0.0268767 56
-1.37483 1.27072 0.0962982 47
-0.955075 1.25279 -0.0809971 59
-1.36868 1.26594 -0.0319379 47
-0.950275 1.24783 -0.18802 73
-1.36766 1.26458 -0.159612 45
-0.958981 1.26018 -0.300461 67
-1.36948 1.26496 -0.290114 50
-0.946045 1.24493 -0.409314 58
-1.37068 1.26348 -0.421707 49
-0.943679 1.25132 0.353201 59
-1.37147 1.27132 0.491116 53
-0.943094 1.25011 0.241939 56
-1.36769 1.2722 0.356016 49
-0.943693 1.25047 0.134002 58
-1.35722 1.266 0.223312 53
-0.946853 1.25513 0.0268331 56
-1.36084 1.2711 0.0957748 47
-0.948283 1.25794 -0.0809971 59
-1.35655 1.26799 -0.031807 47
-0.94522 1.25477 -0.188325 77
-1.35533 1.26687 -0.158959 45
-0.944998 1.25538 -0.29808 67
-1.36102 1.27043 -0.289723 50
-0.938064 1.24793 -0.408668 58
-1.3569 1.26401 -0.419461 49
-0.93857 1.24907 0.352078 59
-1.36393 1.26879 0.489177 55
-0.942393 1.25373 0.242329 56
-1.35985 1.26981 0.354586 49
-0.943004 1.25411 0.13422 56
-1.35138 1.26498 0.222704 53
-0.939942 1.25094 0.0267022 58
-1.35497 1.27007 0.0955131 47
-0.940095 1.2516 -0.080472 59
-1.34885 1.26524 -0.0316761 47
-0.935589 1.24649 -0.186804 73
-1.34765 1.26414 -0.158307 45
-0.939864 1.2531 -0.297127 61
-1.35158 1.26608 -0.288157 52
-0.929884 1.24199 -0.406081 59
-1.34756 1.25974 -0.417215 50
-0.930347 1.25218 0.351516 59
-1.35351 1.27285 0.487884 53
-0.92824 1.2489 0.240378 58
-1.3496 1.27355 0.353633 49
-0.930268 1.2512 0.133348 56
-1.3409 1.26887 0.222095 53
-0.928912 1.24982 0.0265713 58
-1.34081 1.27053 0.0949898 49
-0.936503 1.26052 -0.0807345 59
-1.33653 1.26737 -0.0315452 49
-0.930308 1.25353 -0.187108 74
-1.33558 1.26605 -0.157655 47
-0.93161 1.25619 -0.296651 62
-1.33954 1.26806 -0.286982 52
-0.924804 1.24879 -0.406728 58
-1.33717 1.26368 -0.416092 50
-0.926931 1.25168 0.350955 59
-1.34073 1.2653 0.484007 55
-0.926277 1.25035 0.240378 58
-1.33845 1.26749 0.35125 49
-0.926602 1.25082 0.13313 56
-1.32989 1.26246 0.220574 53
-0.928215 1.25345 0.0266149 56
-1.33519 1.26921 0.0947281 49
-0.9254 1.2501 -0.0799469 61
-1.32705 1.26283 -0.0313707 49
-0.928338 1.25499 -0.187108 76
-1.32975 1.26496 -0.15722 47
-0.927959 1.25584 -0.296175 61
-1.32835 1.26191 -0.285024 50
-0.919759 1.24651 -0.405435 58
-1.3281 1.25909 -0.413846 49
-0.916051 1.25061 0.34927 58
-1.3308 1.26874 0.482715 53
-0.918259 1.25319 0.239988 58
-1.32668 1.26918 0.34982 49
-0.914377 1.24745 0.132259 58
-1.31967 1.26598 0.219966 53
-0.918907 1.2541 0.0265277 58
-1.32311 1.27101 0.0943356 49
-0.918842 1.25493 -0.0799469 59
-1.31522 1.26434 -0.0312398 47
-0.917364 1.25382 -0.186195 79
-1.31771 1.26674 -0.156567 47
-0.917251 1.25457 -0.294747 61
-1.31994 1.26715 -0.284633 52
-0.910594 1.24725 -0.404141 58
-1.31619 1.26099 -0.412161 49
-0.90813 1.24433 0.347024 59
-1.32334 1.26607 0.480776 53
-0.9088 1.24482 0.238037 58
-1.31892 1.26663 0.34839 50
-0.912198 1.24904 0.132259 56
-1.31029 1.26141 0.218749 53
-0.912083 1.2498 0.0263968 58
-1.31368 1.2664 0.0938122 49
-0.915181 1.25451 -0.0798156 59
-1.304 1.25798 -0.0310216 47
-0.912254 1.2514 -0.185587 79
-1.3101 1.26386 -0.155915 49
-0.913617 1.25419 -0.29427 64
-1.3106 1.26261 -0.283067 50
-0.899687 1.23727 -0.400262 59
-1.30519 1.25486 -0.409353 50
-0.89996 1.24725 0.346462 58
-1.30776 1.26484 0.477545 53
-0.902051 1.24972 0.238037 58
-1.3105 1.27182 0.347914 50
-0.899603 1.24588 0.131387 58
-1.29988 1.26503 0.21814 55
-0.905526 1.25456 0.0263968 58
-1.30322 1.27002 0.0935505 49
-0.904223 1.25321 -0.0794218 61
-1.29538 1.26328 -0.030978 47
-0.904021 1.25431 -0.185282 79
-1.29632 1.26377 -0.155045 49
-0.905385 1.25712 -0.293794 61
-1.29687 1.26259 -0.281501 52
-0.896013 1.24588 -0.401555 58
-1.29663 1.26021 -0.408792 50
-0.898 1.24866 0.346462 58
-1.30208 1.26376 0.476253 55
-0.895766 1.24511 0.236866 58
-1.30475 1.27069 0.346961 50
-0.895974 1.24542 0.131169 58
-1.29433 1.26362 0.217532 55
-0.898963 1.25005 0.0262659 58
-1.29228 1.26336 0.0928963 47
-0.902034 1.25479 -0.0794218 59
-1.2878 1.26031 -0.0308471 49
-0.900604 1.25371 -0.184978 77
-1.29233 1.26429 -0.154828 49
-0.901761 1.2567 -0.293318 61
-1.29112 1.26141 -0.280718 52
-0.892432 1.24548 -0.400908 59
-1.2894 1.25716 -0.407107 50
-0.887219 1.24739 0.344778 59
-1.29048 1.26528 0.474314 55
-0.886375 1.24576 0.236086 59
-1.28778 1.26698 0.344101 50
-0.889659 1.24994 0.131169 58
-1.27884 1.26169 0.216011 55
-0.892624 1.25458 0.0262659 56
-1.28209 1.26661 0.0926346 49
-0.892781 1.25527 -0.0791592 61
-1.27606 1.26155 -0.0307162 49
-0.889721 1.25233 -0.184065 77
-1.28413 1.26907 -0.15461 50
-0.891132 1.25524 -0.29189 62
-1.27922 1.26296 -0.279543 53
-0.886116 1.24998 -0.400908 59
-1.27758 1.25878 -0.405423 50
-0.883852 1.24679 0.344216 58
-1.28309 1.26246 0.472376 56
-0.8842 1.2473 0.236086 59
-1.28207 1.26578 0.343148 50
-0.884599 1.24743 0.130734 58
-1.27487 1.26217 0.215706 53
-0.883215 1.24593 0.0260477 58
-1.27276 1.26183 0.0921113 49
-0.889147 1.25478 -0.0790279 61
-1.27029 1.26027 -0.030629 49
-0.886102 1.25186 -0.183761 77
-1.27482 1.26431 -0.15374 49
-0.887524 1.25479 -0.291413 61
-1.27173 1.25999 -0.278369 53
-0.879759 1.24561 -0.398968 58
-1.27191 1.25759 -0.4043 50
-0.874301 1.24756 0.343093 59
-1.27475 1.26747 0.471729 56
-0.874825 1.24787 0.235305 59
-1.2702 1.26729 0.341718 52
-0.872343 1.24388 0.129862 56
-1.26296 1.26358 0.214794 55
-0.878112 1.25259 0.0260913 59
-1.25906 1.26143 0.0915879 49
-0.876623 1.25139 -0.0785028 61
-1.25837 1.26161 -0.0304981 50
-0.879535 1.25648 -0.183761 77
-1.26091 1.26416 -0.152871 50
-0.879537 1.25741 -0.290937 61
-1.26162 1.26315 -0.277586 55
-0.873225 1.25019 -0.398968 59
-1.26012 1.25908 -0.402615 50
-0.870729 1.24709 0.342532 59
-1.26567 1.26288 0.469145 56
-0.869822 1.24534 0.234525 58
-1.26602 1.268 0.341241 52
-0.868746 1.24336 0.129644 58
-1.25373 1.25877 0.213577 55
-0.869989 1.24607 0.0259168 58
-1.2551 1.26186 0.0914571 49
-0.875865 1.25497 -0.0786341 61
-1.25086 1.2585 -0.0303672 50
-0.873088 1.2519 -0.182848 77
-1.25518 1.26283 -0.152436 50
-0.87594 1.25693 -0.290461 61
-1.25592 1.26186 -0.276803 53
-0.866692 1.24592 -0.397028 59
-1.25275 1.25612 -0.40093 50
-0.862587 1.24978 0.34197 59
-1.252 1.26287 0.46656 56
-0.863071 1.25003 0.234525 59
-1.25245 1.26765 0.339335 52
-0.859179 1.24394 0.129208 58
-1.24341 1.26201 0.212968 55
-0.860616 1.24649 0.0258296 59
-1.24825 1.26863 0.0914571 49
-0.865033 1.25337 -0.0782403 61
-1.24228 1.26347 -0.0303236 50
-0.862082 1.25048 -0.181936 80
-1.24505 1.26585 -0.152001 50
-0.864955 1.25558 -0.289033 61
-1.24235 1.2614 -0.275237 55
-0.861523 1.25243 -0.397675 58
-1.23907 1.25596 -0.398684 52
-0.859244 1.24912 0.341409 59
-1.24129 1.25649 0.463329 58
-0.856913 1.24528 0.233354 58
-1.24505 1.2646 0.337905 52
-0.857006 1.24544 0.129208 58
-1.23445 1.2569 0.211751 56
-0.859854 1.25005 0.0258732 58
-1.241 1.26526 0.0910646 50
-0.860019 1.25076 -0.0779777 64
-1.24007 1.26563 -0.0303236 52
-0.858714 1.24978 -0.181631 79
-1.24284 1.26802 -0.152001 50
-0.861375 1.25506 -0.288556 61
-1.23667 1.26005 -0.274453 56
-0.85661 1.24994 -0.396382 59
-1.23538 1.25617 -0.398123 52
-0.849955 1.24957 0.340286 59
-1.22814 1.25587 0.460744 55
-0.848993 1.24771 0.232964 58
-1.2352 1.26738 0.336952 52
-0.849292 1.2477 0.128991 59
-1.22786 1.26334 0.211751 55
-0.849303 1.24818 0.0257423 59
-1.22912 1.26638 0.090672 49
-0.849253 1.24905 -0.0775839 65
-1.22841 1.26653 -0.0301927 50
-0.849373 1.25015 -0.181023 74
-1.23097 1.26916 -0.151348 52
-0.849505 1.25128 -0.286652 62
-1.22488 1.26121 -0.273279 56
-0.843506 1.24426 -0.393149 59
-1.22538 1.25914 -0.397 52
-0.845044 1.24702 0.339162 59
-1.22087 1.25283 0.458805 55
-0.845431 1.24714 0.232574 58
-1.22762 1.26448 0.335522 52
-0.844322 1.24505 0.128555 58
-1.22219 1.26193 0.211143 55
-0.846905 1.24981 0.0257423 59
-1.22343 1.26494 0.0904104 50
-0.844275 1.24639 -0.0773213 61
-1.22272 1.26508 -0.0301054 52
-0.845801 1.24958 -0.180719 79
-1.22354 1.26595 -0.150696 52
-0.843201 1.24666 -0.285223 61
-1.21752 1.25804 -0.272104 56
-0.843814 1.24989 -0.394442 59
-1.21468 1.25256 -0.394192 52
-0.836931 1.24954 0.338601 61
-1.21072 1.25595 0.457513 55
-0.834553 1.24554 0.231403 59
-1.21757 1.26736 0.334569 52
-0.837573 1.2496 0.128555 59
-1.20673 1.25959 0.209622 56
-0.833403 1.24384 0.0255241 59
-1.20965 1.26435 0.089887 50
-0.839125 1.25287 -0.0774526 61
-1.20719 1.26267 -0.0298872 50
-0.834894 1.24795 -0.179806 77
-1.20827 1.26336 -0.149609 50
-0.835081 1.24916 -0.284747 64
-1.20749 1.26084 -0.271321 55
-0.831903 1.24625 -0.391855 59
-1.20281 1.25385 -0.392508 50
-0.834967 1.25086 0.338601 59
-1.20684 1.25633 0.456867 55
-0.829856 1.24274 0.230623 59
-1.21196 1.26594 0.333616 52
-0.831247 1.24485 0.127901 59
-1.20303 1.25969 0.209317 56
-0.829844 1.24321 0.0254805 59
-1.20247 1.26084 0.0894945 50
-0.834169 1.25018 -0.0771901 64
-1.19807 1.25755 -0.0297127 52
-0.835682 1.25339 -0.180414 82
-1.20606 1.26547 -0.149609 50
-0.8329 1.25062 -0.284747 59
-1.19845 1.25582 -0.269755 55
-0.829727 1.2477 -0.391855 59
-1.1907 1.2452 -0.389138 47
-0.820366 1.24301 0.335232 59
-1.19379 1.25544 0.454282 58
-0.819262 1.24088 0.229452 59
-1.20045 1.26673 0.332186 53
-0.824936 1.24904 0.127901 59
-1.18787 1.25698 0.207796 55
-0.824917 1.24948 0.0255241 59
-1.19586 1.26712 0.0894945 50
-0.827612 1.25453 -0.0771901 68
-1.18997 1.26179 -0.0296691 52
-0.820925 1.24531 -0.178589 80
-1.18913 1.26092 -0.148304 50
-0.819819 1.24456 -0.282366 61
-1.18845 1.25849 -0.268972 55
-0.820751 1.24784 -0.390562 59
-1.17745 1.24436 -0.386892 41
-0.814186 1.23833 0.333547 61
-1.18993 1.25577 0.453636 56
-0.817095 1.24231 0.229452 59
-1.19126 1.26192 0.33028 52
-0.817287 1.24215 0.127029 59
-1.18397 1.25725 0.207492 55
-0.819774 1.24689 0.0254369 59
-1.18507 1.26013 0.0888403 52
-0.817206 1.24345 -0.0764024 68
-1.1809 1.2566 -0.0294946 53
-0.82011 1.24881 -0.178893 80
-1.18864 1.26481 -0.148522 52
-0.817645 1.24599 -0.282366 61
-1.18116 1.25518 -0.267798 56
-0.815711 1.24537 -0.389269 59
-1.1736 1.24465 -0.386331 39
-0.806149 1.24067 0.332986 59
-1.17981 1.25868 0.452343 58
-0.807674 1.24257 0.228671 59
-1.18128 1.26456 0.329327 52
-0.809198 1.24446 0.126812 59
-1.17376 1.26002 0.206883 55
-0.810513 1.24697 0.0253496 59
-1.17482 1.26288 0.0885786 52
-0.810684 1.24771 -0.0764024 68
-1.17067 1.25932 -0.0294073 52
-0.810644 1.24907 -0.178285 80
-1.1735 1.26192 -0.147434 52
-0.808225 1.24627 -0.281414 61
-1.17458 1.26135 -0.267798 55
-0.803936 1.24152 -0.386682 59
-1.16185 1.24565 -0.384646 39
-0.801555 1.23784 0.331863 59
-1.171 1.25369 0.449758 56
-0.805721 1.24383 0.228671 59
-1.17236 1.25945 0.32742 53
-0.807025 1.24587 0.126812 59
-1.16839 1.25823 0.206275 55
-0.805623 1.24418 0.0252624 61
-1.17113 1.2629 0.0884478 50
-0.803087 1.24073 -0.0758773 68
-1.17017 1.26319 -0.0294509 55
-0.804644 1.24408 -0.177372 82
-1.1662 1.2585 -0.146782 52
-0.803389 1.24356 -0.280462 61
-1.16563 1.25618 -0.266232 56
-0.803075 1.24495 -0.387329 59
-1.15656 1.24391 -0.383523 39
-0.79244 1.23791 0.33074 59
-1.16135 1.25607 0.448466 56
-0.797868 1.24596 0.228281 61
-1.16263 1.26177 0.326467 53
-0.799368 1.24784 0.126594 59
-1.15674 1.25886 0.205362 55
-0.797969 1.24614 0.0252187 61
-1.15604 1.25984 0.0877936 50
-0.799485 1.24899 -0.0761399 70
-1.15529 1.2599 -0.0292328 55
-0.798119 1.24828 -0.177372 82
-1.15644 1.26072 -0.146347 52
-0.797084 1.24761 -0.280462 61
-1.15737 1.26045 -0.26584 56
-0.79417 1.24492 -0.386036 59
-1.14507 1.24459 -0.381839 39
-0.789186 1.2371 0.330178 59
-1.15259 1.25101 0.445881 56
-0.794366 1.24526 0.227891 59
-1.1571 1.26019 0.325514 53
-0.794513 1.24504 0.126158 59
-1.14613 1.25175 0.203841 58
-0.79445 1.24542 0.0251751 61
-1.14877 1.25634 0.087401 50
-0.794623 1.24617 -0.0758773 68
-1.1514 1.26008 -0.0291891 55
-0.791946 1.24339 -0.176459 83
-1.15424 1.26274 -0.146347 53
-0.792274 1.24485 -0.279509 61
-1.15015 1.25702 -0.264666 55
-0.790703 1.24427 -0.385389 61
-1.13794 1.24121 -0.380154 42
-0.782481 1.24135 0.330178 59
-1.14276 1.25346 0.444589 56
-0.78389 1.24314 0.22672 61
-1.14552 1.2608 0.324084 53
-0.784003 1.24286 0.125504 59
-1.13789 1.2559 0.203537 58
-0.785256 1.24533 0.0250878 62
-1.13881 1.25865 0.0871394 50
-0.78654 1.24834 -0.075746 68
-1.13302 1.25314 -0.0288837 53
-0.782784 1.24332 -0.175851 79
-1.14068 1.26159 -0.145477 53
-0.783135 1.24483 -0.278557 61
-1.13856 1.25755 -0.263491 56
-0.780329 1.24225 -0.383449 59
-1.12979 1.24536 -0.379592 49
-0.776433 1.23653 0.328493 61
-1.13568 1.25011 0.44265 58
-0.780407 1.24241 0.22633 62
-1.13814 1.25755 0.322654 53
-0.780509 1.24211 0.125286 59
-1.13403 1.25605 0.203232 58
-0.782864 1.24684 0.0250878 62
-1.13158 1.25508 0.0867468 50
-0.78171 1.24548 -0.0754835 70
-1.13251 1.25697 -0.0289274 53
-0.780613 1.24468 -0.175851 80
-1.13514 1.25989 -0.145042 53
-0.77966 1.24411 -0.278081 61
-1.13305 1.25587 -0.262708 56
-0.779222 1.2458 -0.384096 59
-1.12269 1.24192 -0.377908 55
-0.769731 1.24071 0.328493 59
-1.13052 1.25803 0.443296 56
-0.772374 1.24451 0.22594 61
-1.1299 1.26167 0.322178 53
-0.769842 1.23997 0.124633 61
-1.12224 1.25663 0.20232 58
-0.772376 1.24454 0.0249569 61
-1.12478 1.26119 0.0867468 52
-0.77255 1.24531 -0.0752209 71
-1.11902 1.25564 -0.0287528 55
-0.771257 1.24466 -0.175242 83
-1.12686 1.26396 -0.144825 55
-0.772918 1.24831 -0.278081 64
-1.11986 1.25444 -0.261142 55
-0.766349 1.23958 -0.380863 59
-1.11596 1.24797 -0.377908 82
-0.763944 1.2357 0.326809 59
-1.12186 1.25282 0.440712 56
-0.767824 1.24152 0.225159 62
-1.12442 1.25998 0.321224 53
-0.767677 1.24131 0.124633 61
-1.11696 1.25469 0.201711 58
-0.767578 1.24163 0.0248697 65
-1.11447 1.25365 0.0860926 53
-0.767754 1.2424 -0.0749584 71
-1.11349 1.25386 -0.0286656 56
-0.766698 1.24165 -0.174634 85
-1.11802 1.2585 -0.143955 55
-0.766879 1.24339 -0.276652 62
-1.11767 1.25639 -0.261142 56
-0.765448 1.24297 -0.381509 59
-1.11725 1.25335 -0.379031 88
-0.754927 1.23552 0.325686 59
-1.11711 1.26028 0.441358 55
-0.760027 1.24342 0.224769 61
-1.11476 1.26199 0.320271 53
-0.760087 1.24305 0.124415 61
-1.10379 1.2531 0.200494 56
-0.759983 1.24337 0.024826 64
-1.10624 1.2576 0.0859618 53
-0.761238 1.24641 -0.0749584 70
-1.10382 1.25573 -0.0285783 56
-0.761477 1.24777 -0.174938 82
-1.10976 1.26247 -0.143738 55
-0.758024 1.24306 -0.2757 61
-1.10125 1.25114 -0.258793 58
-0.755386 1.24064 -0.37957 59
-1.10744 1.25554 -0.377908 59
-0.75277 1.23683 0.325686 61
-1.10849 1.25501 0.438773 55
-0.75401 1.23841 0.223598 64
-1.10909 1.26045 0.319318 53
-0.75533 1.24012 0.123979 61
-1.09667 1.24944 0.199582 58
-0.757594 1.24483 0.024826 67
-1.09744 1.25203 0.0854384 55
-0.759062 1.24773 -0.0749584 71
-1.09832 1.25391 -0.0284911 58
-0.756724 1.24485 -0.17433 82
-1.10426 1.26067 -0.143303 55
-0.757125 1.24648 -0.276176 64
-1.09907 1.25306 -0.258793 56
-0.751752 1.24002 -0.378923 61
-1.09718 1.24835 -0.3751 55
-0.744814 1.2388 0.325124 59
-1.0969 1.25555 0.436834 55
-0.747298 1.24247 0.223598 62
-1.09762 1.2607 0.317888 53
-0.747327 1.24205 0.123761 61
-1.08827 1.25349 0.199277 58
-0.748493 1.24449 0.0247388 65
-1.08901 1.25607 0.0853076 55
-0.748665 1.24527 -0.0745646 70
-1.09152 1.25983 -0.0284911 58
-0.748702 1.2468 -0.174025 83
-1.09274 1.2608 -0.14265 55
-0.747849 1.24635 -0.275224 64
