# .PCD v0.7 - Point Cloud Data file format
VERSION 0.7
FIELDS x y z intensity
SIZE 4 4 4 4
TYPE F F F F
COUNT 1 1 1 1
WIDTH 1608
HEIGHT 1
VIEWPOINT 0 0 0 1 0 0 0
POINTS 1608
DATA ascii
-2.62361 1.02827 0.439783 53
-2.79444 0.55774 0.546653 50
-1.47977 0.579022 0.135963 4
-2.79758 0.562384 0.345617 50
-1.43145 0.560357 0.0262222 4
-2.81407 0.567696 0.148634 61
-0.627931 0.245101 -0.0336066 58
-0.68743 0.142609 -0.0116495 4
-1.43243 0.561888 -0.18437 4
-0.643555 0.133713 -0.0543637 76
-1.29588 0.508696 -0.26332 4
-0.774 0.159294 -0.119804 53
-1.00798 0.396142 -0.280636 4
-0.76421 0.156691 -0.171827 52
-2.61417 1.02981 0.63958 50
-2.78122 0.555179 0.749597 49
-2.6151 1.02967 0.438612 53
-2.79587 0.563097 0.54713 52
-1.48107 0.582517 0.136181 8
-2.79912 0.567267 0.345921 55
-1.43977 0.566524 0.0263968 4
-2.82052 0.573596 0.149027 86
-0.627502 0.246196 -0.0336066 58
-0.68963 0.144304 -0.0116931 4
-1.43155 0.564137 -0.18437 4
-0.640879 0.134343 -0.0541462 74
-1.30183 0.513666 -0.264748 4
-0.773721 0.160645 -0.119804 53
-0.996064 0.39345 -0.277403 4
-0.768741 0.158847 -0.17295 50
-2.60874 1.04349 0.63958 50
-2.77837 0.569248 0.749597 50
-2.60967 1.04335 0.438612 52
-2.78818 0.576255 0.546177 50
-1.4781 0.590006 0.136181 8
-2.80341 0.58342 0.346834 61
-1.43689 0.573804 0.0263968 4
-2.81748 0.588356 0.149027 97
-0.623887 0.24855 -0.0334753 58
-0.696234 0.149316 -0.011824 3
-1.42857 0.571625 -0.18437 4
-0.640167 0.137697 -0.0541462 73
-1.29466 0.518419 -0.263796 4
-0.772869 0.164694 -0.119804 52
-1.00078 0.401191 -0.279342 4
-0.767898 0.16287 -0.17295 52
-2.60691 1.04804 0.63958 49
-2.77028 0.572642 0.747659 50
-2.61014 1.04882 0.439002 52
-2.78947 0.582104 0.546653 52
-1.47938 0.593514 0.136399 8
-2.80238 0.588311 0.346834 70
-1.44042 0.578428 0.026484 4
-2.814 0.592763 0.148896 98
-0.625768 0.250571 -0.0336066 58
-0.693525 0.150019 -0.0117804 3
-1.41837 0.570406 -0.183153 4
-0.642364 0.139324 -0.0543637 70
-1.30286 0.524352 -0.265701 3
-0.770163 0.165539 -0.119413 52
-0.991055 0.399488 -0.276756 4
-0.767613 0.16421 -0.17295 52
-2.6012 1.06213 0.63958 50
-2.77186 0.588618 0.748951 50
-2.609 1.0648 0.439783 53
-2.78398 0.596192 0.546177 50
-1.47154 0.599626 0.135963 8
-2.79916 0.603465 0.346834 76
-1.43043 0.583125 0.0263531 4
-2.80587 0.606932 0.148634 101
-0.622137 0.252899 -0.0334753 58
-0.692704 0.153769 -0.0117804 3
-1.41526 0.578071 -0.183153 4
-0.63919 0.142163 -0.0541462 71
-1.29546 0.529532 -0.264748 4
-0.7717 0.170086 -0.119804 52
-0.995651 0.407425 -0.278696 4
-0.771479 0.169377 -0.174073 52
-2.59953 1.06621 0.63958 49
-2.76374 0.591949 0.747013 50
-2.60275 1.06702 0.439002 52
-2.78534 0.601564 0.546653 52
-1.4774 0.605031 0.136617 4
-2.80063 0.608384 0.347138 68
-1.44097 0.59037 0.0265713 4
-2.81224 0.612921 0.149027 90
-0.624004 0.254934 -0.0336066 58
-0.685106 0.153389 -0.0116495 3
-1.41665 0.581238 -0.183457 4
-0.641375 0.143805 -0.0543637 67
-1.2968 0.532727 -0.265224 4
-0.771402 0.171432 -0.119804 52
-0.986009 0.405476 -0.276109 3
-0.771212 0.170588 -0.174073 52
-2.59616 1.08075 0.640141 49
-2.76071 0.60593 0.747013 50
-2.59941 1.08158 0.439392 52
-2.77986 0.615128 0.546177 50
-1.46972 0.610586 0.136181 4
-2.79014 0.621434 0.346225 55
-1.43104 0.594771 0.0264404 8
-2.79924 0.625476 0.148503 59
-0.62266 0.258197 -0.0336066 58
-0.68188 0.156313 -0.0116058 3
-1.41816 0.590559 -0.184065 4
-0.638182 0.146622 -0.0541462 67
-1.29409 0.539284 -0.265224 3
-0.770494 0.175469 -0.119804 52
-0.977262 0.407663 -0.274169 3
-0.770308 0.174624 -0.174073 50
-2.75729 0.61023 0.746366 49
-2.59752 1.08612 0.439392 50
-2.77867 0.620464 0.546177 50
-1.46636 0.612189 0.135963 4
-2.7939 0.627382 0.346834 50
-1.4322 0.598483 0.026484 4
-2.79814 0.63036 0.148503 55
-0.622209 0.259284 -0.0336066 58
-0.684046 0.158049 -0.0116495 3
-1.41942 0.593993 -0.18437 4
-0.635495 0.147191 -0.0539288 65
-1.29315 0.541542 -0.265224 3
-0.772596 0.177351 -0.120196 52
-0.978703 0.410476 -0.274816 3
-0.770002 0.175968 -0.174073 52
-2.75631 0.62567 0.747013 49
-2.5916 1.10015 0.439392 52
-2.77539 0.635004 0.546177 50
-1.46531 0.621087 0.136181 4
-2.78078 0.640278 0.345617 50
-1.43135 0.606952 0.0265277 4
-2.79712 0.646048 0.148634 61
-0.618545 0.261561 -0.0334753 58
-0.680744 0.161188 -0.0116058 3
-1.41847 0.602637 -0.184674 4
-0.639571 0.15163 -0.0543637 65
-1.29471 0.550455 -0.266177 3
-0.771657 0.181394 -0.120196 52
-0.976541 0.415595 -0.274816 3
-0.766663 0.179591 -0.173512 50
-2.75286 0.629945 0.746366 49
-2.59214 1.10519 0.439783 52
-2.76949 0.638752 0.545224 50
-1.46423 0.623644 0.136181 4
-2.78703 0.646315 0.34653 61
-1.43719 0.612395 0.0266585 4
-2.79854 0.651003 0.148765 70
-0.618088 0.26264 -0.0334753 58
-0.690203 0.16463 -0.0117804 3
-1.4198 0.60584 -0.184978 4
-0.636878 0.152185 -0.0541462 65
-1.28924 0.550781 -0.265224 3
-0.768933 0.182186 -0.119804 52
-0.978033 0.418251 -0.275463 4
-0.764006 0.18025 -0.17295 50
-2.74728 0.643324 0.74572 49
-2.771 0.653881 0.546177 52
-1.45877 0.630057 0.135963 4
-2.77878 0.65976 0.345921 80
-1.43636 0.620655 0.0267022 4
-2.79752 0.666221 0.148896 98
-0.618995 0.266866 -0.0336066 58
-0.684496 0.16697 -0.0116931 3
-1.41433 0.612278 -0.184674 3
-0.638496 0.156092 -0.0543637 64
-1.28418 0.556322 -0.264748 3
-0.767969 0.186209 -0.119804 52
-0.980332 0.425123 -0.276756 3
-0.770166 0.185919 -0.174635 50
-2.74615 0.648118 0.74572 49
-2.76735 0.658636 0.5457 52
-1.46908 0.63757 0.137052 4
-2.77762 0.664609 0.345921 82
-1.43517 0.623411 0.0267022 4
-2.78664 0.668789 0.148372 113
-0.625394 0.270937 -0.0340004 58
-1.41554 0.615737 -0.184978 4
-0.638223 0.157206 -0.0543637 64
-1.27871 0.556599 -0.263796 4
-0.770045 0.188121 -0.120196 52
-0.977302 0.426036 -0.276109 3
-0.765099 0.18614 -0.173512 49
-2.84684 1.25644 0.709209 27
-2.7473 0.664093 0.747013 45
-2.71604 1.19809 0.463586 15
-2.76387 0.673116 0.5457 52
-1.45878 0.642492 0.136399 4
-2.77398 0.679628 0.345921 80
-1.4296 0.629907 0.0266585 4
-2.77813 0.682673 0.148111 108
-0.628534 0.276226 -0.0342629 58
-1.41445 0.624391 -0.185282 4
-0.639811 0.161136 -0.0545811 62
-1.2869 0.568479 -0.266177 3
-0.764218 0.191116 -0.119413 50
-0.97285 0.430168 -0.275463 3
-0.764081 0.190277 -0.173512 52
-2.82037 1.25004 0.703032 27
-2.74379 0.66832 0.746366 32
-2.72297 1.20683 0.465147 11
-2.76507 0.67852 0.546177 52
-1.45765 0.645037 0.136399 4
-2.77761 0.685649 0.34653 67
-1.42621 0.631388 0.0266149 4
-2.78421 0.689308 0.148503 103
-0.625769 0.27631 -0.0341317 58
-1.40883 0.624843 -0.184674 4
-0.639528 0.162252 -0.0545811 62
-1.28815 0.571722 -0.266653 3
-0.768679 0.193626 -0.120196 52
-0.963275 0.427932 -0.272876 3
-0.763748 0.191611 -0.173512 52
-2.76469 1.24328 0.690679 24
-2.74494 0.683836 0.747659 49
-2.71436 1.22006 0.464757 12
-2.7591 0.692395 0.5457 52
-1.46107 0.655725 0.137052 4
-2.77158 0.69958 0.346225 73
-1.41833 0.636795 0.0265277 8
-2.77814 0.703268 0.148372 103
-0.624314 0.279582 -0.0341317 58
-1.41232 0.635271 -0.185587 4
-0.636255 0.164991 -0.0543637 62
-1.28066 0.576439 -0.265701 3
-0.767689 0.197515 -0.120196 50
-0.965422 0.43496 -0.274169 3
-0.762734 0.195607 -0.173512 50
-2.7472 1.24059 0.686748 55
-2.74375 0.688626 0.747659 45
-2.73045 1.23246 0.467879 17
-2.75551 0.696612 0.545224 50
-1.45539 0.656223 0.136617 4
-2.77288 0.70454 0.34653 70
-1.4286 0.644418 0.0267458 8
-2.77703 0.707631 0.148372 102
-0.623825 0.280672 -0.0341317 58
-1.40228 0.633394 -0.18437 4
-0.63838 0.166713 -0.0545811 59
-1.28413 0.580701 -0.266653 3
-0.767343 0.198854 -0.120196 50
-0.962463 0.435645 -0.273523 3
-0.764788 0.197399 -0.174073 50
-2.73181 1.2509 0.684502 47
-2.73788 0.701909 0.747013 45
-2.71498 1.24262 0.466318 53
-2.75432 0.71116 0.5457 52
-1.45884 0.666692 0.13727 4
-2.76195 0.71719 0.345617 79
-1.42078 0.649558 0.0266585 4
-2.78054 0.724037 0.148765 90
-0.624616 0.284975 -0.0342629 58
-1.41022 0.645905 -0.185891 4
-0.637498 0.170053 -0.0545811 58
-1.28563 0.589242 -0.267605 3
-0.763901 0.202252 -0.119804 50
-0.953665 0.437481 -0.271583 3
-0.766104 0.202007 -0.174635 50
-2.70086 1.24242 0.677202 29
-2.73198 0.705487 0.74572 41
-2.69037 1.23703 0.462416 32
-2.75295 0.716446 0.5457 52
-1.45315 0.667155 0.136835 4
-2.76069 0.72201 0.345617 82
-1.43088 0.657513 0.0268767 4
-2.77444 0.72763 0.148503 100
-0.62185 0.28502 -0.0341317 58
-1.40008 0.644208 -0.184674 4
-0.637201 0.171166 -0.0545811 58
-1.27569 0.587371 -0.265701 4
-0.768326 0.204828 -0.120587 50
-0.955015 0.440326 -0.27223 4
-0.76575 0.203344 -0.174635 50
-2.67423 1.24773 0.672148 27
-2.73279 0.721483 0.747013 45
-2.67469 1.24739 0.460855 30
-2.74916 0.730851 0.5457 52
-1.44726 0.673954 0.136617 4
-2.75914 0.737572 0.345921 71
-1.42742 0.664996 0.0268767 8
-2.77287 0.743273 0.148634 115
-0.62035 0.288272 -0.0341317 58
-1.40107 0.653876 -0.185282 4
-0.636296 0.1745 -0.0545811 58
-1.27916 0.597386 -0.267129 3
-0.76247 0.20758 -0.119804 49
-0.961442 0.449422 -0.274816 3
-0.766994 0.208108 -0.175197 50
-2.65462 1.24365 0.667656 53
-2.72919 0.725635 0.746366 49
-2.65037 1.24111 0.456953 32
-2.74788 0.735648 0.5457 52
-1.44834 0.677537 0.136835 4
-2.75558 0.741265 0.345617 55
-1.42625 0.667487 0.0268767 4
-2.76929 0.746982 0.148503 106
-0.626626 0.292536 -0.0345255 58
-1.39554 0.653966 -0.184674 4
-0.638396 0.176256 -0.0547986 56
-1.26923 0.59544 -0.265224 4
-0.766877 0.210187 -0.120587 49
-0.967209 0.454188 -0.276756 4
-0.771374 0.210567 -0.17632 50
-2.65687 1.26172 0.669902 59
-2.72315 0.738811 0.74572 44
-2.6483 1.25709 0.457733 58
-2.74412 0.749547 0.5457 50
-1.45389 0.689133 0.137706 4
-2.75166 0.755683 0.345617 52
-1.41383 0.670405 0.0267022 4
-2.77257 0.763448 0.148896 85
-0.620576 0.293668 -0.0342629 58
-1.39658 0.663398 -0.185282 4
-0.637464 0.179596 -0.0547986 56
-1.27063 0.603968 -0.266177 3
-0.964898 0.459077 -0.276756 4
-0.765559 0.213324 -0.175197 49
-2.65687 1.26741 0.670464 59
-2.72652 0.744827 0.747013 45
-2.65055 1.26384 0.458513 58
-2.74268 0.754813 0.5457 52
-1.44594 0.688452 0.137052 4
-2.75513 0.761799 0.346225 58
-1.41254 0.673118 0.0267022 4
-2.76642 0.76696 0.148634 65
-0.622315 0.295827 -0.0343942 56
-1.39095 0.663693 -0.184674 4
-0.634749 0.180046 -0.0545811 56
-1.26736 0.605125 -0.265701 3
-0.96837 0.463018 -0.278049 4
-0.767535 0.215303 -0.175758 49
-2.65655 1.28495 0.672148 59
-2.71547 0.757633 0.745074 49
-2.6459 1.27923 0.458904 59
-2.73869 0.769164 0.5457 50
-1.44219 0.696265 0.137052 4
-2.74858 0.776024 0.345921 86
-1.40899 0.680505 0.0267022 4
-2.75742 0.780564 0.148372 58
-0.618511 0.297993 -0.0342629 55
-1.39403 0.674457 -0.185587 4
-0.638592 0.184716 -0.055016 56
-1.26186 0.610901 -0.265224 3
-0.957245 0.463858 -0.275463 4
-0.761667 0.21814 -0.174635 45
-2.65672 1.29018 0.67271 64
-2.71182 0.761722 0.744428 49
-2.64588 1.28493 0.459294 59
-2.73734 0.773942 0.5457 50
-1.44545 0.700958 0.137488 4
-2.75438 0.782844 0.346834 70
-1.41005 0.684056 0.0267458 4
-2.76086 0.786736 0.148634 65
-0.62248 0.301257 -0.0345255 58
-1.39062 0.675803 -0.185282 4
-0.63108 0.183794 -0.0543637 55
-1.25859 0.612027 -0.264748 3
-0.954264 0.464468 -0.274816 4
-2.65625 1.30777 0.674394 71
-2.71011 0.776572 0.745074 49
-2.65241 1.30532 0.461635 67
-2.72854 0.786912 0.544747 49
-1.444 0.709617 0.137706 4
-2.74309 0.795194 0.345921 53
-1.40869 0.692535 0.0267894 4
-2.7615 0.802566 0.148896 90
-0.618655 0.303408 -0.0343942 58
-1.39151 0.685271 -0.185891 4
-0.632502 0.187787 -0.0545811 55
-1.25537 0.618609 -0.264748 4
-0.951819 0.469458 -0.274816 4
-2.65856 1.3141 0.675517 80
-2.70876 0.781301 0.745074 49
-2.657 1.31276 0.462806 77
-2.72716 0.791673 0.544747 50
-1.44722 0.714345 0.138142 4
-2.73469 0.79743 0.345008 49
-1.40524 0.693883 0.0267458 4
-2.76023 0.806903 0.148896 93
-0.620362 0.305595 -0.0345255 56
-1.38377 0.684151 -0.184978 4
-0.636956 0.190282 -0.055016 55
-1.25209 0.619708 -0.264272 3
-0.95316 0.472194 -0.275463 4
-2.65382 1.3291 0.676079 86
-2.70477 0.795001 0.745074 47
-2.64788 1.32555 0.462416 88
-2.72312 0.805467 0.544747 50
-1.44136 0.720545 0.137924 4
-2.73048 0.811738 0.345008 49
-1.39948 0.699867 0.0267022 4
-2.75597 0.821344 0.148896 68
-0.618753 0.308839 -0.0345255 58
-1.3846 0.693614 -0.185587 4
-0.631175 0.192198 -0.0545811 55
-1.24455 0.623834 -0.26332 3
-0.955072 0.479184 -0.276756 4
-2.62757 1.32167 0.669902 36
-2.70801 0.801083 0.746366 47
-2.63233 1.32351 0.460074 45
-2.71921 0.809997 0.544271 49
-1.4401 0.72306 0.137924 4
-2.72906 0.816502 0.345008 49
-1.4026 0.704801 0.0267894 4
-2.74018 0.821874 0.148111 50
-0.622672 0.312165 -0.034788 58
-1.38782 0.698264 -0.186195 4
-0.633225 0.194012 -0.0547986 53
-1.25003 0.629322 -0.264748 3
-0.947686 0.477747 -0.274816 4
-2.59651 1.32369 0.663725 33
-2.70826 0.81711 0.747659 45
-2.60093 1.32539 0.455782 35
-2.71963 0.825641 0.545224 50
-1.43395 0.72971 0.137706 4
-2.72697 0.831976 0.345313 55
-1.39666 0.710999 0.0267458 4
-0.621029 0.315421 -0.034788 56
-1.38181 0.704633 -0.185891 4
-0.632201 0.197325 -0.0547986 53
-1.24224 0.633841 -0.263796 3
-0.953768 0.487107 -0.277403 4
-2.57491 1.31777 0.658671 32
-2.70683 0.821835 0.747659 49
-2.57907 1.31934 0.45227 33
-2.71349 0.82896 0.544271 49
-1.43489 0.733347 0.137924 4
-2.72091 0.83481 0.344704 90
-1.40209 0.716856 0.0268767 8
-0.620478 0.316504 -0.034788 58
-1.38733 0.710201 -0.186804 4
-0.634237 0.199157 -0.055016 53
-1.24113 0.636008 -0.263796 3
-0.948622 0.486561 -0.276109 4
-2.55068 1.32225 0.654179 33
-2.70495 0.836235 0.748305 49
-2.55459 1.32373 0.449148 33
-2.71629 0.844859 0.5457 47
-1.42895 0.739453 0.137706 4
-2.71651 0.849046 0.344704 50
-1.39844 0.723943 0.0268767 8
-0.618812 0.319749 -0.034788 56
-1.39019 0.720888 -0.187716 4
-0.630808 0.201733 -0.0547986 53
-1.23354 0.640017 -0.262844 3
-0.952572 0.494704 -0.278049 4
-2.52677 1.31544 0.648564 33
-2.70117 0.840241 0.747659 49
-2.53037 1.31678 0.445246 32
-2.71232 0.849342 0.545224 45
-1.43428 0.745397 0.13836 4
-2.71976 0.855266 0.345313 49
-1.39262 0.724316 0.0267894 4
-0.620467 0.321983 -0.0349193 58
-1.38453 0.721017 -0.187108 4
-0.630455 0.202834 -0.0547986 53
-1.23024 0.641033 -0.262367 4
-1.98746 0.627119 -0.324959 14
-0.947342 0.494292 -0.276756 4
-2.50022 1.31886 0.64351 32
-2.69659 0.854843 0.747659 49
-2.50574 1.32122 0.442124 33
-2.71486 0.865757 0.546653 49
-2.71273 0.869216 0.345008 47
-1.39544 0.735098 0.0269203 4
-0.618772 0.325227 -0.0349193 56
-1.38719 0.731977 -0.18802 4
-0.631756 0.20689 -0.055016 49
-1.22676 0.647679 -0.262367 3
-1.97944 0.636017 -0.324176 12
-0.951141 0.502639 -0.278696 4
-2.48093 1.31365 0.639018 35
-2.69279 0.858819 0.747013 49
-2.48185 1.3136 0.438222 33
-2.71802 0.871986 0.547607 50
-2.71372 0.874233 0.345313 47
-1.39194 0.736362 0.0268767 4
-0.615998 0.325137 -0.034788 58
-1.37289 0.727175 -0.186195 4
-0.626652 0.206468 -0.0545811 45
-1.22779 0.650971 -0.262844 3
-1.97833 0.639471 -0.324176 14
-0.943868 0.500893 -0.276756 4
-2.45685 1.31741 0.634526 35
-2.68841 0.872437 0.747013 45
-2.45753 1.31723 0.4351 33
-2.70657 0.883459 0.546177 49
-2.71382 0.889968 0.345921 45
-1.3926 0.745762 0.026964 4
-0.618686 0.33072 -0.0350506 58
-1.37344 0.736703 -0.186804 4
-0.635031 0.212845 -0.0554509 39
-1.22448 0.657177 -0.262844 4
-1.96321 0.645989 -0.322219 14
-0.94132 0.505664 -0.276756 4
-2.43524 1.31129 0.629472 35
-2.67999 0.874891 0.745074 45
-2.44001 1.31332 0.432368 35
-2.71186 0.89094 0.547607 50
-2.71462 0.895477 0.346225 47
-1.38677 0.746062 0.0268767 4
-0.615911 0.330614 -0.0349193 56
-1.3656 0.735563 -0.185891 4
-0.629927 0.212396 -0.055016 36
-1.22117 0.658147 -0.262367 3
-1.95974 0.648645 -0.321827 14
-0.942472 0.50862 -0.277403 4
-2.41315 1.31627 0.625541 36
-2.67522 0.889379 0.745074 45
-2.41769 1.31822 0.429637 35
-2.69785 0.90203 0.5457 49
-2.70739 0.909365 0.345921 49
-1.37626 0.749719 0.0267458 4
-0.618553 0.336228 -0.0351819 56
-1.36813 0.746512 -0.186804 4
-0.628806 0.215691 -0.055016 36
-1.20898 0.660032 -0.260463 3
-1.95163 0.657331 -0.321044 14
-0.946148 0.51703 -0.279342 4
-2.39612 1.31186 0.621611 35
-2.66908 0.892523 0.743782 45
-2.39396 1.31015 0.425735 35
-2.69627 0.906737 0.5457 45
-2.71301 0.915986 0.346834 90
-1.38591 0.758128 0.026964 4
-0.617966 0.337307 -0.0351819 56
-1.36478 0.747466 -0.186499 4
-0.628429 0.216788 -0.055016 24
-1.20353 0.659777 -0.25951 3
-1.94112 0.65759 -0.319478 12
-0.945245 0.518681 -0.279342 4
-2.37644 1.3173 0.618242 35
-2.66224 0.905247 0.743135 49
-2.3698 1.31308 0.422613 35
-2.68467 0.918002 0.544271 45
-2.70113 0.927773 0.345921 50
-1.37769 0.762708 0.0268767 4
-0.618374 0.34175 -0.0353131 56
-1.36735 0.758218 -0.187412 4
-0.622573 0.218461 -0.0545811 29
-1.19803 0.664667 -0.259034 3
-1.93064 0.665347 -0.318303 12
-0.936278 0.519933 -0.277403 4
-2.35286 1.30958 0.612626 35
-2.65837 0.909115 0.742489 49
-2.34809 1.3064 0.419101 33
-2.68059 0.92236 0.543794 44
-2.69951 0.932485 0.345921 47
-1.38714 0.771435 0.0270949 4
-0.617776 0.342829 -0.0353131 56
-1.3617 0.758185 -0.186804 4
-0.619836 0.218735 -0.0543637 38
-1.93415 0.670322 -0.319086 12
-0.941601 0.525267 -0.279342 4
-2.33089 1.31391 0.608696 36
-2.65113 0.922695 0.741843 49
-2.33238 1.31423 0.41754 35
-2.67108 0.93477 0.542841 44
-2.68974 0.94544 0.345313 44
-1.37655 0.775003 0.026964 4
-0.615973 0.346059 -0.0353131 56
-1.43691 0.509106 -0.0260041 4
-1.35325 0.7631 -0.186195 4
-0.623383 0.223625 -0.0547986 47
-1.92129 0.677179 -0.31752 12
-0.936736 0.529 -0.278696 4
-2.30974 1.30677 0.603642 38
-2.64951 0.92732 0.741843 47
-2.31097 1.30695 0.414028 35
-2.67176 0.940241 0.543317 45
-2.68591 0.948841 0.345008 44
-0.61754 0.348364 -0.0354444 56
-1.42895 0.509119 -0.0258732 4
-1.35853 0.768897 -0.187108 4
-0.630038 0.227197 -0.0554509 50
-1.9201 0.680531 -0.31752 12
-0.93791 0.531828 -0.279342 4
-2.2923 1.31278 0.600834 36
-2.64706 0.941524 0.742489 49
-2.29125 1.31166 0.411687 35
-2.66235 0.952107 0.542364 44
-2.68091 0.962891 0.345008 42
-1.46949 0.531233 0.080074 4
-0.611437 0.349002 -0.0351819 53
-1.43106 0.518031 -0.0259605 4
-1.35233 0.774764 -0.186804 4
-0.624191 0.228703 -0.055016 50
-1.91186 0.688912 -0.316737 12
-0.933114 0.535364 -0.278696 4
-1.07508 0.388402 -0.255495 4
-2.27335 1.30666 0.596342 36
-2.64314 0.945333 0.741843 47
-2.26969 1.30457 0.408175 36
-2.66068 0.956752 0.542364 49
-2.66755 0.963374 0.343487 41
-1.47091 0.534643 0.0802048 4
-1.4325 0.521376 -0.0260041 4
-0.628477 0.231481 -0.0554509 50
-1.90833 0.691413 -0.316346 12
-0.934269 0.5382 -0.279342 4
-1.06752 0.387812 -0.25381 4
-2.24941 1.30913 0.59185 36
-2.6427 0.960802 0.743135 49
-2.25216 1.31022 0.406223 36
-2.66486 0.974025 0.544271 50
-2.24126 1.30336 0.223772 35
-2.66246 0.977328 0.343487 41
-1.46105 0.539763 0.0798123 4
-1.42506 0.52715 -0.0259168 4
-0.622579 0.233056 -0.055016 47
-1.90237 0.700547 -0.315954 12
-0.927269 0.540646 -0.278049 4
-1.07234 0.395898 -0.255495 4
-2.23473 1.30528 0.588481 36
-2.64102 0.965413 0.743135 49
-2.23708 1.30667 0.403882 36
-2.65855 0.976989 0.543317 49
-2.22823 1.30099 0.222683 35
-2.65144 0.978553 0.34227 38
-1.46245 0.543175 0.0799432 4
-0.619143 0.360628 -0.0358382 53
-1.42179 0.528772 -0.0258732 4
-0.622172 0.234142 -0.055016 47
-1.90114 0.703866 -0.315954 12
-0.932571 0.545932 -0.279989 4
-1.06936 0.396931 -0.254933 4
-2.20877 1.30618 0.583427 36
-2.63366 0.978391 0.742489 47
-2.21321 1.30831 0.40076 35
-2.64879 0.989186 0.542364 49
-2.20853 1.30503 0.221376 35
-2.64163 0.990687 0.341662 35
-1.4666 0.553447 0.0803357 4
-0.612949 0.36132 -0.0355757 50
-1.42837 0.539714 -0.0260477 4
-0.618604 0.236524 -0.0547986 45
-1.89281 0.712083 -0.315171 12
-0.933852 0.553275 -0.281282 4
-1.06727 0.402525 -0.254933 4
-2.19205 1.30094 0.579496 35
-2.63195 0.982986 0.742489 47
-2.19394 1.30207 0.397638 35
-2.65166 0.995525 0.543317 50
-2.19554 1.30252 0.220286 36
-2.62363 0.989196 0.339532 33
-1.45862 0.553371 0.0799432 4
-0.623048 0.368768 -0.0362321 47
-1.4321 0.543967 -0.026135 4
-0.622853 0.239356 -0.0552335 45
-1.89387 0.716254 -0.315563 12
-0.934959 0.556141 -0.281929 4
-1.06656 0.404387 -0.254933 3
-2.16828 1.30274 0.575004 36
-2.62676 0.996753 0.742489 49
-2.17016 1.30336 0.394517 35
-2.64412 1.00852 0.542841 49
-2.17161 1.30374 0.218543 38
-2.59986 0.995851 0.337098 30
-1.45571 0.561001 0.0799432 4
-0.625322 0.374709 -0.0364946 41
-1.42223 0.54878 -0.0260041 4
-0.619222 0.241833 -0.055016 45
-1.88548 0.7244 -0.31478 12
-0.936169 0.563525 -0.283222 4
-1.05988 0.408234 -0.25381 3
-2.15349 1.29896 0.571635 36
-2.62502 1.00134 0.742489 49
-2.15943 1.30204 0.392956 36
-2.64447 1.01447 0.543317 50
-2.15654 1.2998 0.217236 38
-2.58885 0.996837 0.335881 29
-1.45706 0.564435 0.080074 4
-0.626804 0.37709 -0.0366259 38
-1.42594 0.553055 -0.0260913 4
-0.623449 0.2447 -0.0554509 45
-1.88191 0.726806 -0.314388 12
-0.92889 0.561565 -0.281282 4
-1.06144 0.410953 -0.254372 4
-2.13396 1.30297 0.568266 36
-2.61957 1.01552 0.742489 45
-2.13339 1.30212 0.389444 36
-2.63912 1.02831 0.543317 50
-2.13673 1.30366 0.215928 38
-2.56955 1.00543 0.334056 27
-1.44933 0.570496 0.0798123 4
-0.624821 0.380367 -0.0366259 38
-1.42059 0.559852 -0.0260477 4
-0.624479 0.248867 -0.0556684 44
-1.87795 0.736977 -0.314388 12
-0.938288 0.573998 -0.285162 4
-1.0592 0.41669 -0.254372 4
-2.11738 1.2974 0.564335 35
-2.61779 1.02009 0.742489 49
-2.11848 1.29809 0.387102 38
-2.63046 1.03024 0.541888 50
-2.12383 1.30088 0.214839 38
-2.56548 1.00901 0.333752 27
-1.45995 0.577581 0.0804665 4
-0.624156 0.381457 -0.0366259 36
-1.42194 0.563244 -0.0260913 4
-0.626363 0.250866 -0.0558859 42
-1.87666 0.740254 -0.314388 12
-0.931116 0.571836 -0.283222 4
-1.04939 0.414994 -0.252126 3
-2.09998 1.30241 0.561527 36
-2.61466 1.03467 0.743135 49
-2.09697 1.30005 0.384371 36
-2.62731 1.0449 0.542364 49
-2.10218 1.30279 0.213314 39
-2.54402 1.01601 0.331622 27
-1.71666 1.06399 0.034643 12
-1.45923 0.586141 0.0805974 4
-1.42594 0.573458 -0.0262222 4
-0.62504 0.254142 -0.0558859 42
-1.87518 0.750655 -0.31478 12
-0.926059 0.575426 -0.282576 4
-1.05173 0.422279 -0.253249 3
-2.08346 1.29669 0.557597 38
-2.6106 1.03835 0.742489 47
-2.08864 1.29943 0.3832 38
-2.62321 1.04858 0.541888 50
-2.0851 1.29724 0.211788 39
-2.54242 1.02001 0.331622 29
-1.69783 1.05641 0.034294 12
-1.45599 0.587505 0.0804665 4
-1.4203 0.574087 -0.026135 4
-0.624596 0.255233 -0.0558859 36
-0.929148 0.579603 -0.283869 3
-1.04654 0.422127 -0.252126 3
-2.06634 1.30109 0.554789 38
-2.60756 1.05245 0.743135 47
-2.06718 1.30113 0.380469 38
-2.62469 1.0646 0.543317 49
-2.06587 1.29981 0.210481 38
-2.53244 1.03144 0.331013 29
-1.684 1.05966 0.0341195 12
-1.45983 0.597939 0.0808591 4
-1.42432 0.584092 -0.0262659 4
-0.623251 0.2585 -0.0558859 33
-1.11963 0.705603 -0.249987 3
-0.924162 0.583007 -0.283222 3
-1.05335 0.431254 -0.254372 3
-2.04965 1.29557 0.550858 36
-2.60795 1.0579 0.743782 47
-2.04821 1.29417 0.377347 38
-2.62264 1.06963 0.543317 50
-2.04465 1.29144 0.20852 39
-2.53064 1.03586 0.331013 29
-1.6714 1.0562 0.0339013 12
-1.44954 0.596712 0.0803357 4
-1.42561 0.587522 -0.0263095 4
-0.625104 0.260529 -0.0561033 33
-1.12047 0.70887 -0.250463 3
-0.925079 0.586075 -0.283869 3
-1.05034 0.432175 -0.25381 3
-2.02826 1.29745 0.546928 38
-2.59996 1.07108 0.743135 47
-2.03702 1.30257 0.376566 38
-2.61474 1.08242 0.542841 49
-2.02715 1.29577 0.207431 39
-2.52958 1.05143 0.331622 29
-1.65532 1.0582 0.0336831 11
-1.4486 0.605502 0.0804665 4
-1.41548 0.592354 -0.0261786 4
-1.11249 0.712271 -0.249511 3
-0.913872 0.585688 -0.281282 4
-1.05474 0.44064 -0.255495 3
-2.01392 1.29273 0.543558 36
-2.60032 1.07653 0.743782 47
-2.01628 1.29376 0.373054 38
-2.0165 1.29392 0.206559 41
-2.53939 1.06017 0.333143 29
-1.65347 1.06109 0.0336831 12
-1.45686 0.611615 0.0809899 4
-1.42598 0.599632 -0.0263968 4
-1.10093 0.707566 -0.24713 3
-0.914878 0.588591 -0.281929 4
-1.0473 0.439497 -0.25381 3
-1.99691 1.29661 0.540751 38
-1.99912 1.29757 0.371103 39
-1.99948 1.29732 0.20547 41
-1.64599 1.06808 0.0336395 12
-1.44904 0.617291 0.0807282 4
-1.5955 1.03606 -0.0981942 14
-1.42063 0.605869 -0.0263531 4
-1.10145 0.715809 -0.248082 3
-1.48597 0.632319 -0.250571 9
-0.909864 0.591895 -0.281282 3
-1.05172 0.447809 -0.255495 3
-1.9824 1.29211 0.537382 38
-1.98444 1.29296 0.368762 39
-1.9847 1.29265 0.204162 41
-1.64603 1.07261 0.0336831 12
-1.45256 0.62177 0.0809899 4
-1.60623 1.04703 -0.0989818 14
-1.41037 0.604437 -0.0261786 4
-1.09198 0.712358 -0.246178 3
-1.47123 0.629128 -0.248222 8
-0.912766 0.596287 -0.282576 3
-1.05318 0.450593 -0.256056 3
-1.96725 1.29745 0.535136 39
-1.96712 1.29688 0.366811 38
-1.9652 1.29514 0.202855 41
-1.64665 1.08534 0.033814 12
-1.44229 0.626657 0.0805974 4
-1.41626 0.616019 -0.0263531 4
-1.08606 0.716901 -0.245702 4
-1.47245 0.638774 -0.249005 8
-0.919697 0.607728 -0.285809 3
-1.0552 0.458206 -0.257179 3
-1.95303 1.29246 0.531766 38
-1.95067 1.29042 0.364079 39
-1.95464 1.29307 0.201983 42
-2.78859 1.20965 0.368435 14
-1.64683 1.08959 0.0338577 12
-1.44131 0.628921 0.0805974 4
-1.40371 0.61352 -0.026135 4
-1.08481 0.718795 -0.245702 3
-1.47133 0.641343 -0.249005 4
-0.922656 0.612007 -0.287102 4
-1.04553 0.456005 -0.254933 3
-1.93409 1.29453 0.528397 39
-1.93362 1.29374 0.362128 39
-2.86835 1.25724 0.601462 26
-1.93565 1.29463 0.200676 41
-2.7754 1.22125 0.367522 14
-1.43571 0.635456 0.0804665 4
-1.40745 0.623634 -0.0262659 4
-1.07097 0.717436 -0.243321 3
-1.46569 0.648047 -0.248613 4
-0.925559 0.620712 -0.289042 3
-1.0476 0.463426 -0.256056 3
-1.9197 1.28975 0.525028 39
-2.84965 1.24913 0.823265 26
-1.92112 1.29023 0.360177 39
-2.83896 1.25091 0.595743 26
-1.92512 1.29245 0.199805 41
-2.76872 1.22409 0.366914 27
-1.43917 0.639976 0.0807282 4
-1.40636 0.626089 -0.0262659 4
-1.07175 0.720676 -0.243797 4
-1.4623 0.649608 -0.248222 4
-0.91636 0.617082 -0.286455 3
-1.04009 0.462314 -0.254372 3
-1.90464 1.29463 0.522782 39
-2.82076 1.25475 0.816803 26
-1.90594 1.29505 0.358616 39
-2.80547 1.25378 0.590024 24
-1.90368 1.29304 0.198279 41
-2.75526 1.23602 0.366001 23
-1.66026 1.12791 0.0344249 11
-1.43112 0.645713 0.0804665 4
-1.39839 0.631645 -0.0261786 4
-1.06581 0.725081 -0.243321 4
-1.46113 0.658263 -0.248613 4
-0.921093 0.62732 -0.289042 3
-1.04203 0.469918 -0.255495 4
-1.88852 1.288 0.518851 39
-2.77224 1.23905 0.803232 24
-1.89167 1.28968 0.356275 39
-2.74503 1.23263 0.577632 24
-1.89731 1.29355 0.197844 41
-2.73294 1.2312 0.363263 15
-1.88329 1.28446 0.0391806 35
-1.44149 0.653078 0.0811207 4
-1.39957 0.635111 -0.0262222 4
-1.06252 0.725554 -0.242845 4
-1.46223 0.661824 -0.249005 4
-0.910038 0.622099 -0.285809 3
-1.03462 0.468568 -0.25381 3
-1.87173 1.29095 0.516044 39
-2.74832 1.24513 0.798063 55
-1.87676 1.29396 0.354714 39
-2.74322 1.24854 0.578585 53
-1.87639 1.29324 0.196318 42
-2.6858 1.227 0.357787 14
-1.87677 1.29398 0.0391806 42
-1.43351 0.658546 0.0808591 4
-1.40088 0.644261 -0.0263095 4
-1.05278 0.726734 -0.241416 4
-0.914817 0.632199 -0.288395 3
-1.03215 0.473979 -0.25381 4
-1.86347 1.29005 0.514359 39
-2.74394 1.24892 0.797417 42
-1.86029 1.28739 0.351982 39
-2.72519 1.24668 0.575249 32
-1.85775 1.28516 0.194575 41
-2.6656 1.22343 0.355353 14
-1.86606 1.29188 0.0390061 41
-1.44144 0.665204 0.0813824 4
-1.39748 0.645664 -0.0262659 4
-1.04949 0.72717 -0.24094 4
-0.911619 0.632575 -0.287749 3
-1.03797 0.478813 -0.255495 3
-1.8425 1.29033 0.510428 39
-2.69984 1.2466 0.786431 26
-1.84723 1.29318 0.350812 39
-2.68743 1.24653 0.568577 27
-1.84465 1.29091 0.193922 42
-2.62967 1.22427 0.351398 14
-1.84494 1.29159 0.0387007 41
-1.43782 0.672993 0.0813824 4
-1.3985 0.655323 -0.0263531 4
-1.19718 0.838759 -0.174938 8
-1.04755 0.734248 -0.241416 4
-0.91422 0.641508 -0.289688 3
-1.03758 0.485444 -0.256056 3
-1.83051 1.28621 0.507621 39
-2.68012 1.24321 0.781261 26
-1.8351 1.28898 0.34886 41
-2.66299 1.24089 0.563811 29
-1.83425 1.28839 0.19305 42
-2.6075 1.21898 0.348659 15
-1.83655 1.29049 0.0385698 41
-1.43224 0.67314 0.0811207 4
-1.39509 0.656705 -0.0263095 4
-1.20601 0.847783 -0.176459 9
-1.04627 0.736076 -0.241416 4
-0.909154 0.640317 -0.288395 3
-1.0346 0.486047 -0.255495 3
-1.81581 1.29013 0.505375 41
-2.65848 1.24959 0.776738 49
-1.81827 1.29141 0.346909 41
-2.65667 1.25435 0.563811 58
-1.81553 1.289 0.191743 42
-2.55395 1.21038 0.34227 24
-1.81778 1.29108 0.038308 42
-1.43321 0.682764 0.0813824 4
-1.39175 0.663758 -0.0263095 4
-1.04053 0.739937 -0.24094 4
-1.02764 0.489382 -0.254372 4
-1.80188 1.28449 0.502005 41
-2.66067 1.25629 0.77803 56
-1.79993 1.28311 0.343788 41
-2.66114 1.26213 0.565241 58
-1.80314 1.28494 0.190653 42
-2.55184 1.21483 0.34227 24
-1.80535 1.28699 0.0380899 41
-1.43201 0.685264 0.0813824 4
-1.40414 0.672624 -0.0265713 4
-1.04123 0.74318 -0.241416 4
-1.02898 0.492216 -0.254933 4
-1.7848 1.2874 0.499198 41
-2.65819 1.27274 0.779323 56
-1.79296 1.29283 0.343788 41
-2.66312 1.28075 0.567147 58
-1.78808 1.28884 0.189782 42
-2.56088 1.23615 0.3444 26
-1.78822 1.28942 0.0378717 41
-1.42153 0.689753 0.0809899 4
-1.39597 0.678041 -0.026484 4
-1.0372 0.748803 -0.241416 4
-1.01972 0.494615 -0.253249 4
-1.77292 1.28305 0.49639 41
-2.66032 1.27947 0.780615 56
-1.77293 1.28261 0.340276 41
-2.65646 1.28327 0.566194 59
-1.77776 1.28612 0.18891 44
-2.57011 1.24556 0.345921 26
-1.77383 1.28374 0.0376099 42
-1.42494 0.694158 0.0812516 4
-1.39704 0.681565 -0.0265277 4
-1.01235 0.493045 -0.251564 3
-1.76028 1.288 0.494706 41
-2.66033 1.29608 0.782554 58
-1.76021 1.28749 0.339105 41
-2.65655 1.29992 0.567624 61
-1.7652 1.29069 0.188256 44
-2.54795 1.25137 0.343792 27
-1.76731 1.2927 0.0376099 44
-1.41681 0.699413 0.0809899 4
-1.39581 0.689728 -0.0265713 4
-1.75976 1.28906 -0.263168 42
-1.01414 0.500476 -0.252687 4
-1.74625 1.28241 0.491336 42
-2.66241 1.30284 0.783846 65
-1.74802 1.28325 0.337154 42
-2.65625 1.3061 0.5681 68
-1.7509 1.28492 0.186949 42
-2.53463 1.25034 0.34227 29
-1.75073 1.28573 0.0373045 42
-1.41334 0.700783 0.0808591 4
-1.39461 0.692163 -0.0265713 4
-1.75351 1.28918 -0.262559 44
-1.01326 0.502245 -0.252687 4
-1.72365 1.28021 0.486844 41
-2.66182 1.32043 0.785785 74
-1.72916 1.28385 0.334812 42
-2.66037 1.32544 0.570483 79
-1.72993 1.28397 0.185424 42
-2.55004 1.2751 0.345313 33
-1.73595 1.28891 0.03713 42
-1.41847 0.712877 0.0813824 4
-1.39084 0.699698 -0.0265713 4
-1.73258 1.28828 -0.26043 44
-1.01271 0.508804 -0.253249 3
-1.71773 1.28 0.485721 42
-2.65302 1.32185 0.783846 59
-1.72318 1.28361 0.334032 42
-2.64707 1.32461 0.5681 52
-1.71771 1.27954 0.184334 44
-2.57023 1.2902 0.348355 23
-1.72167 1.28297 0.0368682 42
-1.41511 0.713986 0.0812516 4
-1.38515 0.699884 -0.026484 4
-1.72061 1.28357 -0.258908 45
-1.00755 0.508219 -0.252126 4
-1.69934 1.28017 0.482352 42
-2.62903 1.32659 0.778677 33
-1.70658 1.28518 0.332081 41
-2.62281 1.32914 0.564287 33
-1.70524 1.28372 0.183681 44
-2.56122 1.30252 0.348051 15
-1.70518 1.28414 0.0366501 42
-1.41136 0.721386 0.0812516 4
-1.38382 0.708018 -0.0265277 4
-1.70199 1.28359 -0.257083 45
-1.96902 1.00348 -0.344927 12
-0.996179 0.509091 -0.24988 3
-1.69322 1.2802 0.481229 42
-2.59868 1.31703 0.770276 32
-1.69252 1.27922 0.329739 42
-2.58961 1.31864 0.557615 30
-1.69108 1.27768 0.182373 42
-2.53461 1.29461 0.344704 14
-1.69673 1.28289 0.0365192 44
-1.41899 0.728382 0.0817749 4
-1.69048 1.27862 -0.109615 21
-1.37813 0.708161 -0.0264404 4
-1.69381 1.28206 -0.25617 47
-1.98046 1.01363 -0.347276 12
-0.997461 0.511932 -0.250441 3
-1.68046 1.2849 0.479544 42
-2.57862 1.32447 0.766399 30
-1.68557 1.28836 0.329739 42
-2.5652 1.32321 0.553802 30
-1.68019 1.28379 0.181938 45
-2.49228 1.29011 0.339836 15
-1.68404 1.2872 0.0363883 44
-1.40394 0.730321 0.0811207 4
-1.68178 1.28593 -0.109484 26
-1.37428 0.715607 -0.0264404 4
-1.97513 1.02399 -0.347276 14
-0.994676 0.517321 -0.250441 3
-1.66685 1.27863 0.476175 42
-2.55482 1.31794 0.759937 30
-1.67375 1.28348 0.327788 42
-2.54544 1.31868 0.54999 32
-1.67005 1.28065 0.181066 45
-2.49466 1.29631 0.340445 15
-1.67188 1.28252 0.0361701 44
-1.41166 0.737121 0.0816441 4
-1.67162 1.28278 -0.108959 30
-1.37081 0.716852 -0.0263968 4
-1.96895 1.02516 -0.346493 14
-1.00036 0.522237 -0.252126 3
-1.65051 1.27987 0.473367 42
-2.52883 1.32082 0.754121 30
-1.65531 1.28314 0.325447 44
-2.51916 1.32132 0.5457 30
-1.65567 1.28298 0.180194 44
-2.48125 1.3059 0.339532 21
-1.65549 1.2833 0.035952 44
-1.39894 0.739861 0.0811207 4
-1.66116 1.28817 -0.108696 35
-1.36937 0.724944 -0.0264404 4
-1.94607 1.02628 -0.343361 14
-0.991132 0.52408 -0.250441 4
-1.64274 1.27797 0.471683 44
-2.5094 1.31629 0.748951 30
-1.64722 1.28148 0.324276 42
-2.49511 1.31432 0.540934 32
-1.64164 1.27669 0.178887 44
-2.46579 1.30329 0.337707 26
-1.64339 1.27851 0.0357338 44
-1.40206 0.74463 0.0813824 4
-1.64512 1.28032 -0.107777 36
-1.37474 0.730833 -0.0265713 4
-1.9268 1.02047 -0.340228 14
-0.985903 0.523542 -0.249318 3
-1.63006 1.28232 0.469998 44
-2.48113 1.31811 0.742489 32
-1.62885 1.28092 0.321935 44
-2.47086 1.31815 0.537122 32
-1.62711 1.2791 0.178016 45
-2.45455 1.31385 0.337098 32
-1.63274 1.284 0.0356465 45
-1.39814 0.751961 0.0813824 4
-1.63251 1.28428 -0.107383 39
-1.37089 0.738021 -0.0265713 4
-1.90835 1.02357 -0.337879 14
-0.99175 0.533275 -0.251564 4
-1.62039 1.27883 0.467752 44
-2.46176 1.31338 0.737319 32
-1.61886 1.27764 0.320374 44
-2.45123 1.31322 0.533309 32
-1.6151 1.27422 0.176926 45
-2.43475 1.30876 0.334664 33
-1.62462 1.2822 0.0355156 45
-1.39683 0.7544 0.0813824 4
-1.62243 1.28094 -0.106858 42
-1.363 0.736867 -0.0264404 4
-1.61548 1.27772 -0.392837 45
-1.89786 1.02224 -0.336313 14
-0.980075 0.529264 -0.248757 3
-1.60394 1.27998 0.464945 44
-2.43358 1.31481 0.730857 32
-1.60443 1.27993 0.318813 42
-2.43569 1.32137 0.531402 32
-1.60257 1.278 0.176272 45
-2.40823 1.31085 0.331926 33
-1.60812 1.28289 0.0352975 45
-1.6118 1.2863 -0.106596 44
-1.36132 0.745187 -0.026484 4
-1.60686 1.28462 -0.392361 52
-1.87946 1.0251 -0.333964 14
-0.975148 0.533229 -0.248195 3
-1.59052 1.27335 0.461575 42
-2.42491 1.31561 0.728919 33
-1.59834 1.27964 0.318033 42
-2.40749 1.31158 0.525683 32
-1.59645 1.27768 0.175837 45
-2.39068 1.30675 0.329796 33
-1.59612 1.27788 0.0350793 47
-1.60177 1.28286 -0.106071 45
-1.35562 0.745167 -0.0263968 4
-1.59505 1.27974 -0.38998 52
-1.86683 1.02247 -0.332007 14
-1.59354 1.28034 -0.537993 58
-0.980637 0.53842 -0.24988 3
-1.58171 1.2804 0.461014 44
-2.3968 1.3167 0.722457 32
-1.58011 1.27866 0.315691 44
-2.38123 1.31353 0.521394 33
-1.57813 1.27661 0.174529 47
-2.36642 1.30966 0.327363 33
-1.58553 1.28307 0.0349921 45
-1.58511 1.28364 -0.105414 44
-1.35389 0.753463 -0.0264404 4
-1.5807 1.28189 -0.388075 53
-1.84847 1.02508 -0.329657 14
-1.57745 1.28105 -0.53476 58
-0.97567 0.542373 -0.249318 3
-1.57003 1.27548 0.458206 44
-2.37545 1.31042 0.716641 32
-1.57021 1.27518 0.314131 44
-2.36796 1.31217 0.519011 33
-1.5701 1.27465 0.173876 47
-2.34894 1.30538 0.325233 33
-1.57724 1.28138 0.0348612 45
-1.57512 1.28011 -0.104889 45
-1.35476 0.757038 -0.026484 4
-1.56895 1.27689 -0.385694 52
-1.83588 1.02232 -0.3277 14
-1.5675 1.27796 -0.532173 59
-0.976855 0.545253 -0.24988 3
-1.55746 1.27931 0.456522 44
-2.35144 1.31386 0.711471 33
-1.56138 1.28209 0.31374 44
-2.34392 1.31498 0.515198 35
-1.55933 1.27997 0.17344 47
-2.32452 1.30837 0.322799 33
-1.56279 1.28327 0.0346867 45
-1.56261 1.28358 -0.104495 47
-1.35282 0.765581 -0.0265277 4
-1.55634 1.28068 -0.384266 52
-1.81327 1.02226 -0.324568 14
-1.55706 1.28308 -0.53088 58
-0.976016 0.55172 -0.250441 3
-1.54793 1.27555 0.454276 45
-2.33438 1.30971 0.706948 33
-1.54984 1.27669 0.311789 44
-2.32878 1.31186 0.512339 36
-1.54941 1.27635 0.172568 47
-2.30949 1.30472 0.320973 35
-1.55091 1.27804 0.0344685 45
-1.55267 1.27995 -0.10397 47
-1.34931 0.766713 -0.026484 4
-1.54275 1.27401 -0.381409 52
-1.79858 1.01815 -0.322219 14
-1.53994 1.27347 -0.525707 59
-0.973024 0.552059 -0.24988 3
-1.53562 1.27896 0.452591 45
-2.31091 1.312 0.701778 35
-1.53555 1.27846 0.310228 44
-2.3093 1.31636 0.509479 36
-1.53336 1.2762 0.171479 47
-2.28753 1.30819 0.318844 35
-1.54058 1.28267 0.0343812 44
-1.53444 1.27846 -0.103183 47
-1.34324 0.772293 -0.0264404 4
-1.53252 1.27865 -0.380456 53
-1.76748 1.01288 -0.31752 14
-1.52977 1.27815 -0.524414 59
-0.976474 0.560758 -0.251564 3
-1.52405 1.27382 0.449783 45
-2.29181 1.3065 0.696609 35
-1.52574 1.2748 0.308667 45
-2.28758 1.30985 0.50519 36
-1.5254 1.27408 0.170825 47
-2.27232 1.3048 0.317018 33
-1.52661 1.276 0.0341195 45
-1.53221 1.28114 -0.103183 47
-1.35056 0.779608 -0.0266149 4
-1.52276 1.27502 -0.378552 53
-1.75071 1.00738 -0.31478 14
-1.52177 1.27643 -0.522474 59
-0.975494 0.562462 -0.251564 3
-1.51155 1.27732 0.448099 45
-2.27005 1.31045 0.692085 35
-1.51128 1.27666 0.307106 44
-2.26581 1.31323 0.501854 36
-1.51278 1.27749 0.170172 47
-2.24375 1.30464 0.313976 33
-1.51228 1.27752 0.0339449 45
-1.51214 1.27785 -0.102264 47
-1.50627 1.27423 -0.237612 47
-1.5121 1.28006 -0.377599 53
-1.72387 1.00446 -0.310865 14
-1.50954 1.27969 -0.520534 61
-0.978763 0.571389 -0.253249 4
-1.50026 1.27181 0.445291 45
-2.25521 1.30717 0.688208 35
-1.50152 1.2729 0.305546 44
-2.24441 1.30611 0.497564 35
-1.50106 1.27207 0.169082 49
-2.22645 1.29982 0.311846 35
-1.50624 1.27692 0.0338577 47
-1.508 1.27887 -0.102132 47
-1.49837 1.27203 -0.236699 50
-1.50425 1.27793 -0.376171 53
-1.70077 0.99505 -0.306949 14
-1.49812 1.27449 -0.517301 59
-0.973551 0.570651 -0.252126 3
-1.48618 1.27331 0.443045 45
-2.23605 1.31126 0.684331 35
-1.49131 1.27727 0.304765 44
-2.22506 1.31 0.494705 36
-1.48893 1.27479 0.168428 47
-2.20915 1.30478 0.310325 35
-1.49406 1.27965 0.0337268 47
-1.49204 1.27836 -0.101476 47
-1.49218 1.28073 -0.374743 53
-1.67869 0.993626 -0.303817 14
-1.48432 1.27575 -0.514714 59
-0.981154 0.581738 -0.254933 4
-1.48049 1.27246 0.441922 45
-2.21501 1.30417 0.678515 35
-1.47972 1.27181 0.302814 45
-2.20586 1.30392 0.490892 35
-1.47726 1.26926 0.167339 49
-2.18764 1.29728 0.307587 35
-1.48235 1.2741 0.0335086 47
-1.48413 1.27608 -0.101082 47
-1.48251 1.27692 -0.372838 55
-1.66207 0.987762 -0.301077 14
-1.47478 1.27203 -0.512128 59
-0.978038 0.582213 -0.254372 4
-1.46807 1.27565 0.440237 45
-2.19361 1.30712 0.673991 35
-1.46931 1.2763 0.302034 47
-2.18424 1.30667 0.487556 36
-1.46496 1.27208 0.166685 49
-2.16804 1.30108 0.305761 35
-1.46812 1.27528 0.0333341 47
-1.46779 1.27589 -0.100426 47
-1.46049 1.27043 -0.233048 52
-1.4684 1.27821 -0.370933 55
-1.6484 0.991382 -0.299511 14
-1.46447 1.27656 -0.510835 59
-0.979161 0.589822 -0.255495 3
-1.4585 1.27181 0.437991 45
-2.1768 1.3023 0.669468 38
-1.45964 1.27237 0.300473 45
-2.16698 1.30204 0.48422 36
-1.45523 1.26808 0.165814 47
-2.15512 1.29848 0.30424 35
-1.46378 1.27645 0.0332905 47
-1.46368 1.27681 -0.100295 47
-1.45827 1.27297 -0.233048 50
-1.46248 1.27754 -0.369981 55
-1.64032 0.990444 -0.298336 15
-1.45293 1.27141 -0.507601 59
-0.97186 0.587775 -0.25381 4
-1.44429 1.27323 0.435745 47
-2.15318 1.30408 0.664298 36
-1.44348 1.27208 0.298522 44
-2.14754 1.30574 0.48136 36
-1.44087 1.26935 0.164942 47
-2.13534 1.3024 0.302415 35
-1.44771 1.27583 0.0330723 47
-1.44762 1.27619 -0.0996382 47
-1.44206 1.27263 -0.231527 52
-1.44635 1.27731 -0.3676 55
-1.62034 0.990045 -0.295595 15
-1.43541 1.26939 -0.503722 61
-0.981164 0.600603 -0.257179 4
-1.43682 1.27065 0.434061 47
-2.13644 1.29908 0.659775 38
-1.43778 1.27107 0.297741 45
-2.13477 1.30311 0.478977 36
-1.43493 1.26856 0.164506 49
-2.11846 1.29671 0.300285 35
-1.43987 1.27338 0.0329414 47
-2.11755 1.29816 0.128354 35
-1.43978 1.27375 -0.0992444 49
-1.43449 1.26995 -0.230614 52
-1.43861 1.27494 -0.366172 55
-1.6165 0.991586 -0.295204 15
-1.42777 1.26708 -0.501782 59
-0.976057 0.599611 -0.256056 4
-1.42289 1.27166 0.431814 47
-2.11748 1.30231 0.655898 38
-1.42375 1.27199 0.29618 45
-2.1156 1.30619 0.476118 38
-1.41921 1.2675 0.163417 49
-2.09052 1.29476 0.297243 33
-1.42595 1.27399 0.0327669 47
-2.09373 1.29874 0.127307 36
-1.42565 1.27461 -0.0987193 49
-1.42228 1.27248 -0.229701 52
-1.42483 1.27565 -0.364267 56
-1.61128 1.00004 -0.295204 15
-1.41955 1.27268 -0.501135 59
-0.968755 0.602158 -0.254933 4
-1.41885 1.27251 0.431253 49
-2.10286 1.29842 0.652021 39
-1.41785 1.27118 0.2954 45
-2.09639 1.29994 0.472305 36
-1.41514 1.26832 0.163199 49
-2.08615 1.2971 0.296939 36
-1.41607 1.27004 0.0325924 47
-2.07661 1.29318 0.126391 35
-1.42157 1.27543 -0.098588 49
-1.41083 1.26666 -0.22818 53
-1.4153 1.27157 -0.362362 55
-1.61163 1.00415 -0.295595 15
-1.41172 1.27055 -0.499195 59
-0.975992 0.608972 -0.257179 4
-1.40113 1.27034 0.427884 49
-2.08555 1.3034 0.648789 38
-1.40364 1.27219 0.293839 47
-2.07706 1.30309 0.469445 38
-1.40457 1.27261 0.162763 49
-2.06228 1.29783 0.294505 38
-1.40384 1.2724 0.0324615 49
-2.05901 1.29776 0.125737 36
-1.41117 1.2795 -0.0983254 49
-1.39845 1.26927 -0.227267 53
-1.40477 1.27591 -0.36141 56
-1.61472 1.01782 -0.297161 15
-1.39434 1.26817 -0.495316 61
-0.966487 0.610367 -0.255495 4
-1.39193 1.26598 0.425638 49
-2.07303 1.30064 0.645558 38
-1.39798 1.27107 0.293058 47
-2.06439 1.3002 0.467062 38
-1.39682 1.27003 0.16211 50
-2.04133 1.28918 0.291766 36
-1.39608 1.2698 0.0323306 47
-2.04852 1.29567 0.125214 36
-1.40156 1.27523 -0.0978003 49
-1.39462 1.26979 -0.226963 53
-1.39892 1.27505 -0.360458 56
-1.38677 1.26571 -0.493376 61
-0.96759 0.61318 -0.256056 4
-1.38528 1.27325 0.425638 49
-2.05009 1.3008 0.640389 38
-1.38404 1.27168 0.291497 47
-2.04327 1.30143 0.463726 38
-1.38304 1.27034 0.161238 49
-2.02827 1.29585 0.290854 38
-1.38779 1.27515 0.0322869 47
-2.02696 1.29699 0.124298 39
-1.38751 1.27579 -0.0972752 49
-1.62006 1.03856 -0.032985 15
-1.38248 1.27203 -0.226051 53
-1.37982 1.27047 -0.357124 56
-1.38035 1.27271 -0.493376 59
-0.960254 0.615626 -0.254933 4
-1.37411 1.2674 0.42283 49
-2.03557 1.29661 0.636512 39
-1.37819 1.27075 0.290717 45
-2.02628 1.29612 0.46039 38
-1.37533 1.26768 0.160584 49
-2.01346 1.29138 0.289028 38
-1.37983 1.27273 0.0321561 49
-2.00997 1.29111 0.123382 38
-1.37978 1.27313 -0.0968814 49
-1.62035 1.04273 -0.0330287 14
-1.37479 1.26939 -0.225138 53
-1.3758 1.27121 -0.356648 56
-1.36905 1.26715 -0.490143 61
-0.963286 0.61992 -0.256056 4
-1.36367 1.27149 0.421707 49
-2.0143 1.29848 0.631988 38
-1.36408 1.27145 0.289156 47
-2.00915 1.30007 0.458007 39
-1.36481 1.2717 0.160149 49
-2.00019 1.29821 0.288116 39
-1.36402 1.27141 0.0319379 49
-1.99667 1.2979 0.122989 38
-1.36398 1.27181 -0.096225 50
-1.61469 1.05148 -0.0330287 14
-1.36065 1.27003 -0.223921 55
-1.35456 1.26522 -0.352839 58
-1.36063 1.27265 -0.489496 61
-0.959918 0.625123 -0.256056 4
-1.35278 1.26531 0.418899 49
-2.00188 1.29545 0.628757 39
-1.35645 1.26876 0.287985 47
-1.99452 1.29558 0.455147 39
-1.3535 1.26557 0.159059 49
-1.98543 1.2936 0.28629 39
-1.35815 1.27037 0.0318506 47
-1.97765 1.2905 0.121943 38
-1.35811 1.27078 -0.0959625 50
-1.35662 1.27071 -0.223617 53
-1.34519 1.26086 -0.350934 56
-1.35489 1.27172 -0.488203 59
-0.96087 0.628121 -0.256618 4
-1.34238 1.26926 0.417776 49
-1.98091 1.29668 0.624234 39
-1.3462 1.27245 0.287205 49
-1.98154 1.30197 0.453718 39
-1.34143 1.26751 0.158406 49
-1.96826 1.29717 0.284769 39
-1.34421 1.27059 0.0316761 49
-1.96461 1.29672 0.12155 38
-1.34419 1.27101 -0.0954374 50
-1.33914 1.26755 -0.221791 53
-1.33679 1.2662 -0.350458 58
-1.96461 1.29529 -0.367635 39
-1.33946 1.27048 -0.48497 61
-0.953493 0.630474 -0.255495 4
-1.33508 1.26633 0.416092 50
-1.96854 1.29353 0.621003 39
-1.33704 1.26776 0.285644 47
-1.96696 1.29735 0.450858 39
-1.3338 1.2647 0.157752 49
-1.95171 1.29071 0.282639 39
-1.33656 1.26777 0.0315452 49
-1.95007 1.29156 0.120765 38
-1.33835 1.26991 -0.0951748 50
-1.33356 1.26623 -0.221183 55
-1.32747 1.26176 -0.348553 58
-1.9541 1.29329 -0.366068 38
-1.33549 1.27115 -0.484323 61
-0.958608 0.635986 -0.257179 4
-1.3214 1.26655 0.413846 50
-1.94786 1.29415 0.616479 41
-1.32682 1.27132 0.284864 47
-1.95014 1.3005 0.448475 39
-1.32558 1.26971 0.157534 49
-1.9346 1.29403 0.281118 39
-1.32291 1.26759 0.0313707 49
-1.93289 1.29483 0.120111 38
-1.3265 1.27148 -0.094781 52
-1.32154 1.26804 -0.22027 55
-1.31222 1.25996 -0.346173 58
-1.93908 1.29802 -0.364502 38
-1.32556 1.27454 -0.48303 61
-0.951208 0.638298 -0.256056 4
-1.31766 1.26694 0.413284 50
-1.94158 1.29488 0.615187 39
-1.31748 1.26679 0.283303 47
-1.93358 1.29437 0.445139 41
-1.31619 1.26511 0.156662 49
-1.91996 1.28913 0.279293 39
-1.3171 1.26643 0.0312834 49
-1.92233 1.29264 0.119588 39
-1.31889 1.2686 -0.0943872 50
-1.31218 1.26345 -0.219053 56
-1.21807 0.821498 -0.125254 12
-1.31179 1.26395 -0.346649 58
-1.91834 1.28905 -0.360979 36
-1.30944 1.26343 -0.477857 59
-0.950092 0.639958 -0.256056 4
-1.30031 1.26385 0.409915 50
-1.92274 1.29695 0.61131 41
-1.30552 1.2685 0.282132 47
-1.9166 1.29762 0.442756 39
-1.30419 1.26678 0.156009 49
-1.90496 1.29361 0.278076 41
-1.30686 1.26982 0.0311962 49
-1.90313 1.29429 0.118803 39
-1.30485 1.26875 -0.0938621 50
-1.30021 1.26511 -0.21814 56
-1.22392 0.835062 -0.126341 12
-1.29988 1.26566 -0.34522 58
-1.30454 1.27195 -0.478503 59
-0.946728 0.644924 -0.256056 4
-1.2981 1.26612 0.409915 52
-1.90846 1.2922 0.607432 41
-1.29447 1.26215 0.280181 47
-1.90597 1.2958 0.44085 41
-1.29841 1.26557 0.155573 49
-1.88832 1.28718 0.275946 41
-1.30085 1.26884 0.0311089 50
-1.88848 1.28919 0.118018 38
-1.29728 1.26579 -0.0934682 52
-1.87997 1.28437 -0.039137 36
-1.29268 1.26217 -0.217228 56
-1.23069 0.842799 -0.127211 11
-1.29416 1.2645 -0.344268 59
-1.29002 1.26262 -0.473977 59
-0.947618 0.647941 -0.256618 4
-1.28603 1.26799 0.40823 52
-1.88947 1.29435 0.603555 41
-1.28587 1.2674 0.279791 47
-1.88296 1.29467 0.437037 41
-1.28446 1.26558 0.154701 49
-1.87315 1.29176 0.274729 41
-1.28885 1.27036 0.030978 50
-1.87119 1.29232 0.117363 39
-1.29063 1.27256 -0.0934682 52
-1.86476 1.28885 -0.0389625 36
-1.28231 1.26566 -0.216619 56
-1.28207 1.2663 -0.342839 58
-1.27996 1.26596 -0.472684 59
-0.944098 0.653059 -0.256618 4
-1.27712 1.26315 0.405984 50
-1.87724 1.29082 0.600324 42
-1.27686 1.26247 0.27823 49
-1.87463 1.29378 0.435607 42
-1.27871 1.26432 0.154266 50
-1.85681 1.28485 0.272599 41
-1.2813 1.26733 0.0308471 50
-1.86094 1.28959 0.11684 39
-1.28309 1.26954 -0.0930744 52
-1.85222 1.285 -0.0387443 36
-1.27679 1.26418 -0.216011 58
-1.27463 1.26335 -0.341411 59
-1.27432 1.26479 -0.47139 59
-0.945079 0.655922 -0.257179 4
-1.26704 1.26637 0.404861 50
-1.85877 1.29206 0.596447 42
-1.26848 1.26739 0.27784 49
-1.85596 1.29486 0.432747 42
-1.26349 1.26197 0.153176 50
-1.84192 1.28888 0.271382 41
-1.2678 1.26673 0.0306726 50
-1.84188 1.29074 0.116055 39
-1.26959 1.26896 -0.0925493 50
-1.83135 1.28434 -0.0384389 36
-1.26665 1.26733 -0.215402 56
-1.26129 1.26283 -0.339506 58
-1.26279 1.26609 -0.469451 59
-0.941631 0.660861 -0.257179 4
-1.25646 1.25973 0.402054 50
-1.84461 1.28704 0.59257 44
-1.26104 1.26435 0.276669 49
-1.84162 1.28967 0.429888 41
-1.25777 1.26064 0.15274 50
-1.83153 1.2864 0.270165 42
-1.25854 1.26186 0.0304981 49
-1.83349 1.28966 0.115662 41
-1.26032 1.26409 -0.0920242 52
-1.82501 1.28467 -0.0383517 36
-1.25919 1.26426 -0.214489 56
-1.25389 1.25981 -0.338078 59
-1.25378 1.26143 -0.466864 61
-0.936482 0.659715 -0.256056 4
-1.24769 1.26499 0.401492 50
-1.82774 1.29006 0.589339 44
-1.25072 1.26764 0.275889 49
-1.82659 1.29396 0.427982 42
-1.24568 1.26211 0.152087 50
-1.81846 1.292 0.269253 42
-1.24818 1.26508 0.0304108 49
-1.81629 1.29235 0.115008 41
-1.24821 1.26556 -0.0916304 50
-1.80987 1.28874 -0.0381771 38
-1.25059 1.26929 -0.214185 58
-1.24533 1.26483 -0.337602 59
-1.24355 1.26475 -0.465571 59
-0.938868 0.668987 -0.257741 4
-1.24229 1.26348 0.400369 52
-1.81562 1.28629 0.586108 44
-1.2418 1.26256 0.274328 49
-1.81432 1.29006 0.425599 42
-1.23999 1.26072 0.151651 50
-1.80631 1.28767 0.267731 41
-1.24072 1.26191 0.0302799 49
-1.80409 1.28797 0.114354 39
-1.24076 1.26239 -0.0912366 52
-1.80355 1.289 -0.0380899 38
-1.2399 1.26239 -0.212664 58
-1.23797 1.26174 -0.336173 59
-1.23627 1.26174 -0.463631 61
-0.939804 0.67187 -0.258303 4
-1.23056 1.26472 0.398684 52
-1.79728 1.28705 0.58223 44
-1.23173 1.2655 0.273547 50
-1.80577 1.2978 0.425122 42
-1.23012 1.26341 0.151215 50
-1.78947 1.28988 0.26621 42
-1.23083 1.26459 0.0301927 49
-1.79124 1.29302 0.113962 41
-1.23239 1.26708 -0.0911053 50
-1.78685 1.29082 -0.0378717 38
-1.22982 1.26531 -0.212055 55
-1.22645 1.2627 -0.334745 59
-1.21979 1.25757 -0.459751 61
-0.942214 0.681038 -0.259987 4
-1.22327 1.26162 0.397 50
-1.78718 1.28456 0.579646 45
-1.22265 1.26055 0.271986 50
-1.78733 1.28981 0.421309 42
