# .PCD v0.7 - Point Cloud Data file format
VERSION 0.7
FIELDS x y z intensity
SIZE 4 4 4 4
TYPE F F F F
COUNT 1 1 1 1
WIDTH 1586
HEIGHT 1
VIEWPOINT 0 0 0 1 0 0 0
POINTS 1586
DATA ascii
-2.76706 0.71985 0.247087 148
-7.24065 0.569582 0.886252 35
-2.80598 0.730518 0.0500011 1
-3.03576 0.243718 0.157793 20
-0.625964 0.162086 -0.0321625 59
-0.627227 0.0543766 -0.0103842 4
-0.783165 0.203437 -0.094923 55
-0.642446 0.0555919 -0.0532764 90
-0.786761 0.204664 -0.150945 52
-0.792339 0.0669149 -0.120587 58
-0.788585 0.205711 -0.20886 50
-0.772541 0.0645918 -0.170704 53
-2.7342 0.717377 0.64351 35
-6.91137 0.534281 1.84556 1
-2.75206 0.721571 0.444075 56
-7.14159 0.565654 1.38451 35
-2.7658 0.724678 0.247087 138
-7.23965 0.582219 0.886252 35
-2.79732 0.733997 0.0498702 1
-3.03781 0.249216 0.157924 18
-0.628095 0.163814 -0.0322938 59
-0.622148 0.0550686 -0.0102969 4
-0.782809 0.204803 -0.094923 55
-0.639866 0.0565125 -0.0530589 90
-0.786403 0.206037 -0.150945 52
-0.792221 0.0682976 -0.120587 58
-0.788188 0.207225 -0.20886 50
-0.769999 0.0657481 -0.170143 52
-2.73499 0.733424 0.644633 45
-6.90597 0.57147 1.84491 1
-2.7505 0.73709 0.444465 55
-7.14097 0.603244 1.38498 35
-2.76906 0.741568 0.24774 110
-7.23887 0.621591 0.886556 35
-2.79103 0.747985 0.0498266 9
-3.03642 0.265648 0.157924 18
-0.62964 0.167748 -0.0324251 59
-0.621841 0.0584339 -0.0102969 3
-0.786481 0.210326 -0.0955314 55
-0.642042 0.0600756 -0.0532764 90
-0.782907 0.20965 -0.150468 53
-0.791853 0.0724447 -0.120587 58
-0.784761 0.210719 -0.208214 50
-0.769632 0.0699132 -0.170143 52
-2.73383 0.73772 0.644633 49
-6.90978 0.583925 1.84621 1
-2.74695 0.740766 0.444075 53
-7.14725 0.616334 1.38641 33
-2.76535 0.74575 0.247522 90
-7.23046 0.632317 0.885643 32
-2.78248 0.750898 0.0496957 11
-3.03849 0.270635 0.158055 17
-0.626936 0.168195 -0.0322938 59
-0.616758 0.0590808 -0.0102097 4
-0.78136 0.210263 -0.094923 53
-0.641937 0.0611961 -0.0532764 90
-0.78254 0.211016 -0.150468 52
-0.789265 0.0736123 -0.120196 58
-0.782062 0.211454 -0.207567 49
-0.774375 0.0715399 -0.171266 53
-2.73228 0.752672 0.645195 50
-2.73828 0.753825 0.443295 53
-2.75674 0.758414 0.247087 58
-2.77141 0.762978 0.0495648 12
-2.99725 0.282851 0.155961 17
-0.626047 0.171475 -0.0322938 59
-0.61894 0.0624335 -0.0102533 3
-0.775465 0.213029 -0.0943145 52
-0.649047 0.0652492 -0.0539288 90
-0.783827 0.215629 -0.150945 50
-0.793787 0.0781983 -0.120979 58
-0.783309 0.216056 -0.208214 49
-0.77399 0.0755935 -0.171266 53
-2.72861 0.756787 0.644633 50
-2.74171 0.759925 0.444075 55
-2.76501 0.765888 0.247958 56
-2.77958 0.770974 0.0497394 14
-3.02907 0.291136 0.157662 17
-0.625746 0.172567 -0.0322938 59
-0.616342 0.0632776 -0.0102097 3
-0.779873 0.215713 -0.094923 50
-0.646452 0.0661466 -0.0537113 90
-0.793649 0.0795836 -0.120979 58
-0.780567 0.216908 -0.207567 47
-0.771431 0.0767184 -0.170704 52
-2.72214 0.770874 0.644072 49
-2.85145 0.278976 0.757352 29
-2.73756 0.774748 0.444075 55
-2.86484 0.285257 0.552373 49
-2.75125 0.778121 0.247087 58
-2.87121 0.289892 0.349572 45
-2.7731 0.784836 0.0496957 15
-2.88833 0.293611 0.150335 42
-0.622433 0.17516 -0.0321625 59
-0.620965 0.0671105 -0.0102969 3
-0.778694 0.219929 -0.094923 50
-0.641141 0.0690341 -0.0532764 90
-0.790764 0.0834937 -0.120587 58
-0.786387 0.222981 -0.209507 47
-0.775854 0.0813691 -0.171827 52
-2.72327 0.775818 0.644633 50
-2.86058 0.284894 0.759937 45
-2.73397 0.77837 0.443685 53
-2.86678 0.2905 0.552849 49
-2.75707 0.784971 0.24774 94
-2.86828 0.294152 0.349268 47
-2.76692 0.788302 0.0496085 21
-2.92016 0.301427 0.152036 42
-0.626927 0.177617 -0.0324251 59
-0.620847 0.0681942 -0.0102969 3
-0.780734 0.221835 -0.0952272 49
-0.648453 0.0709106 -0.0539288 90
-0.790617 0.0848737 -0.120587 58
-0.781355 0.223019 -0.208214 47
-0.775725 0.0825877 -0.171827 53
-2.71449 0.788705 0.64351 52
-2.85429 0.298874 0.758644 45
-2.72986 0.792674 0.443685 50
-2.86528 0.305006 0.552849 49
-2.75545 0.799611 0.247958 177
-2.86917 0.309428 0.349572 47
-2.76049 0.801599 0.0495648 30
-2.87634 0.312203 0.149812 49
-0.62602 0.180788 -0.0324251 58
-0.630435 0.0724016 -0.0104714 3
-0.779561 0.225919 -0.0952272 49
-0.645609 0.0739267 -0.0537113 90
-0.792617 0.0892737 -0.120979 58
-0.772859 0.0863927 -0.171266 52
-2.70857 0.791598 0.642387 52
-2.85377 0.303855 0.758644 47
-2.72847 0.797437 0.443685 50
-2.86718 0.310266 0.553326 50
-2.75166 0.80372 0.24774 96
-2.86615 0.314169 0.349268 53
-2.75909 0.806415 0.0495648 41
-2.8882 0.318571 0.150466 53
-0.625703 0.18188 -0.0324251 59
-0.630308 0.0735018 -0.0104714 3
-0.779166 0.22728 -0.0952272 45
-0.645479 0.0750534 -0.0537113 90
-0.790006 0.0903911 -0.120587 58
-0.772707 0.0877415 -0.171266 52
-2.71111 0.808806 0.644072 49
-2.85208 0.319291 0.758644 49
-2.72175 0.811481 0.443295 50
-2.86302 0.325501 0.552849 50
-2.7425 0.817171 0.247304 56
-2.86688 0.329952 0.349572 55
-2.75468 0.821332 0.0495648 49
-2.88395 0.333909 0.150335 55
-0.627102 0.185978 -0.0325564 58
-0.634867 0.0774795 -0.0105587 3
-0.645064 0.0785446 -0.0537113 90
-0.791975 0.094805 -0.120979 58
-0.7698 0.0916481 -0.170704 53
-2.71217 0.813765 0.644633 49
-2.85152 0.324268 0.758644 49
-2.72283 0.816466 0.443685 55
-2.86245 0.330498 0.552849 50
-2.73868 0.82124 0.247087 55
-2.86389 0.334171 0.349268 61
-2.88342 0.338439 0.150335 58
-0.626777 0.187072 -0.0325564 58
-0.632248 0.0782989 -0.0105151 3
-0.644925 0.0796704 -0.0537113 90
-0.791808 0.0961871 -0.120979 58
-0.769655 0.0928572 -0.170704 52
-2.70321 0.826528 0.64351 49
-2.84504 0.338135 0.757352 49
-2.71616 0.829989 0.443295 55
-2.86074 0.344982 0.552849 52
-2.72735 0.832905 0.246433 53
-2.86703 0.349754 0.349876 70
-2.88161 0.353532 0.150335 56
-0.623402 0.18962 -0.0324251 56
-0.64177 0.0827026 -0.0106896 3
-0.644499 0.0830461 -0.0537113 90
-0.786391 0.0997401 -0.120196 58
-0.769159 0.0968858 -0.170704 52
-2.70875 0.833397 0.645195 49
-2.84205 0.342815 0.756706 49
-2.71471 0.834728 0.443295 50
-2.8552 0.349884 0.551896 50
-2.72351 0.836932 0.246215 55
-2.86641 0.354758 0.349876 61
-2.87851 0.358257 0.150204 53
-0.641624 0.0838226 -0.0106896 3
-0.644354 0.0841708 -0.0537113 90
-0.791117 0.101713 -0.120979 58
-0.768988 0.0982281 -0.170704 52
-2.7042 0.848041 0.645195 49
-2.83776 0.357889 0.756059 49
-2.71251 0.850143 0.443685 49
-2.85089 0.364522 0.551419 50
-2.72132 0.8524 0.246433 90
-2.85953 0.369633 0.349268 56
-2.87406 0.373508 0.150073 52
-0.653557 0.0888874 -0.0109078 3
-0.638964 0.0869089 -0.0532764 90
-0.785675 0.105228 -0.120196 55
-0.770862 0.102694 -0.171266 52
-2.71216 0.855222 0.647441 52
-2.83713 0.362841 0.756059 49
-2.70881 0.85366 0.443295 47
-2.85755 0.370432 0.552849 52
-2.72933 0.860148 0.247304 107
-2.85648 0.373807 0.348964 52
-2.87099 0.3777 0.149943 49
-0.648444 0.0893815 -0.0108205 3
-0.64375 0.0886672 -0.0537113 90
-0.787939 0.106916 -0.120587 56
-0.773116 0.104215 -0.171827 52
-2.70532 0.868666 0.646879 53
-2.83526 0.377196 0.756059 49
-2.71136 0.870098 0.444465 47
-2.85321 0.384566 0.552373 50
-2.71308 0.870142 0.246215 53
-2.85203 0.388427 0.348659 49
-2.86897 0.392728 0.149943 49
-0.662845 0.0946771 -0.0110823 4
-0.638341 0.0913675 -0.0532764 90
-0.789816 0.11137 -0.120979 56
-0.774975 0.108585 -0.172389 52
-2.69917 0.871886 0.645756 52
-2.82981 0.381507 0.754767 49
-2.70984 0.874829 0.444465 49
-2.85247 0.390043 0.552373 50
-2.85626 0.394074 0.349268 49
-2.86334 0.397057 0.149681 49
-0.627472 0.201695 -0.0328189 58
-0.662679 0.0958338 -0.0110823 4
-0.640648 0.0928203 -0.0534938 90
-0.792066 0.113083 -0.12137 58
-0.769956 0.109283 -0.171266 52
-2.6921 0.885715 0.645195 49
-2.83488 0.397807 0.756706 49
-2.7121 0.891795 0.445636 50
-2.84795 0.404632 0.551896 49
-2.84672 0.408477 0.348355 47
-2.8562 0.411839 0.149419 44
-0.621665 0.203415 -0.0325564 58
-0.669574 0.100478 -0.0112132 4
-0.645085 0.096877 -0.0539288 90
-0.786574 0.116534 -0.120587 56
-0.771766 0.113787 -0.171827 52
-2.6907 0.889942 0.645195 47
-2.8294 0.402082 0.755413 49
-2.7107 0.896055 0.445636 56
-2.84481 0.409257 0.551419 49
-2.84607 0.412949 0.348355 49
-0.623679 0.205286 -0.0326876 58
-0.669398 0.101647 -0.0112132 4
-0.642449 0.0976467 -0.0537113 90
-0.788814 0.118258 -0.120979 58
-0.773998 0.115343 -0.172389 52
-2.67677 0.900905 0.642949 47
-2.82732 0.416398 0.755413 47
-2.70831 0.911024 0.446026 55
-2.84028 0.423293 0.550943 49
-2.84142 0.42748 0.348051 47
-2.63111 0.398059 0.137644 90
-0.624961 0.209346 -0.0328189 58
-0.681235 0.106885 -0.0114313 4
-0.641929 0.101009 -0.0537113 90
-0.788184 0.122387 -0.120979 58
-0.773383 0.119394 -0.172389 50
-2.67289 0.904794 0.642387 47
-2.82659 0.421332 0.755413 47
-2.70204 0.914164 0.445246 50
-2.83703 0.428383 0.550466 49
-2.8284 0.430592 0.34653 44
-0.626959 0.211239 -0.0329502 56
-0.681047 0.108074 -0.0114313 4
-0.636827 0.101383 -0.0532764 90
-0.785527 0.123394 -0.120587 55
-0.765946 0.119661 -0.170704 52
-2.66565 0.918447 0.641826 47
-2.82188 0.436254 0.754767 47
-2.69238 0.92716 0.444465 47
-2.83233 0.442857 0.54999 49
-2.83584 0.447419 0.347747 49
-2.82058 0.447037 0.147849 41
-0.623484 0.213704 -0.0328189 58
-0.685391 0.112533 -0.0115186 4
-0.641209 0.105488 -0.0537113 90
-0.782431 0.127124 -0.120196 55
-0.765287 0.123804 -0.170704 52
-2.6596 0.921037 0.640703 49
-2.82112 0.441179 0.754767 49
-2.68392 0.928961 0.443295 45
-2.83397 0.448178 0.550466 50
-2.83268 0.451486 0.347442 49
-2.8322 0.45342 0.148503 41
-0.630186 0.217248 -0.0332127 56
-0.687662 0.114122 -0.0115622 3
-0.641023 0.106607 -0.0537113 90
-0.782208 0.128489 -0.120196 55
-2.66163 0.937381 0.642387 50
-2.81408 0.45469 0.753475 47
-2.67669 0.942181 0.442904 44
-2.82682 0.461734 0.549513 49
-2.82538 0.465513 0.346834 49
-2.84457 0.470664 0.149288 55
-0.626724 0.219604 -0.0330815 56
-0.689543 0.118006 -0.0116058 4
-0.638018 0.109447 -0.0534938 90
-0.781524 0.132583 -0.120196 55
-2.65327 0.939119 0.640703 50
-2.80851 0.45883 0.752182 49
-2.67272 0.946026 0.442514 45
-2.81875 0.465479 0.548083 50
-2.82211 0.47004 0.34653 50
-2.84128 0.47522 0.149157 70
-0.62634 0.220698 -0.0330815 58
-0.68687 0.1188 -0.0115622 4
-0.645197 0.111782 -0.0541462 90
-0.781292 0.133947 -0.120196 55
-0.773816 0.131922 -0.17295 52
-2.64815 0.95346 0.640703 50
-2.80369 0.473131 0.751536 49
-2.66308 0.958332 0.441734 45
-2.81869 0.48064 0.54856 50
-2.82206 0.485227 0.346834 53
-1.44428 0.51907 0.0261786 4
-2.83875 0.49009 0.149157 61
-0.625136 0.224083 -0.0330815 56
-0.691166 0.123239 -0.0116495 4
-0.639673 0.114431 -0.0537113 89
-0.775712 0.137206 -0.119413 55
-0.773115 0.135972 -0.17295 52
-2.64419 0.95725 0.640141 50
-2.80524 0.478426 0.752182 47
-2.65908 0.962138 0.441344 47
-2.81776 0.486051 0.54856 50
-2.81876 0.489731 0.34653 55
-1.44563 0.522694 0.0262222 4
-2.83789 0.495044 0.149157 67
-0.624744 0.225174 -0.0330815 58
-0.688487 0.124018 -0.0116058 8
-1.42342 0.515475 -0.181327 4
-0.639473 0.115547 -0.0537113 89
-0.777904 0.138979 -0.119804 55
-0.763272 0.135676 -0.170704 52
-2.64126 0.972386 0.640703 49
-2.80023 0.493182 0.751536 49
-2.6492 0.974803 0.440563 47
-2.81518 0.500798 0.54856 50
-2.81851 0.505408 0.346834 56
-1.44053 0.529392 0.0261786 4
-2.83518 0.510391 0.149157 70
-0.628241 0.230169 -0.033344 56
-0.695188 0.129061 -0.0117367 8
-1.42061 0.523169 -0.181327 4
-0.641311 0.119331 -0.0539288 88
-0.779597 0.143482 -0.120196 55
-0.764925 0.140228 -0.171266 52
-2.63744 0.975687 0.640141 49
-2.79699 0.497649 0.75089 49
-2.64535 0.978105 0.440173 49
-2.8143 0.50571 0.54856 52
-2.81283 0.50896 0.346225 55
-1.44429 0.533642 0.0262659 4
-2.82946 0.51396 0.148896 55
-0.623157 0.22953 -0.0330815 58
-0.697421 0.130718 -0.0117804 8
-1.42676 0.52799 -0.18224 4
-0.63865 0.120008 -0.0537113 86
-1.3031 0.482869 -0.262844 4
-0.779345 0.144843 -0.120196 55
-0.764704 0.141429 -0.171266 50
-2.6323 0.989483 0.640141 49
-2.79444 0.5118 0.75089 49
-2.64482 0.993682 0.440953 50
-2.80929 0.519506 0.548083 52
-2.81257 0.524131 0.34653 53
-1.44391 0.541825 0.0263095 4
-2.82673 0.528768 0.148896 55
-0.626619 0.23455 -0.033344 56
-0.689378 0.132877 -0.0116495 8
-1.42398 0.535453 -0.18224 4
-0.640462 0.123805 -0.0539288 80
-1.30753 0.492059 -0.264272 4
-0.77372 0.148023 -0.119413 53
-1.018 0.383562 -0.281929 4
-0.768745 0.146312 -0.172389 50
-2.63057 0.994076 0.640141 50
-2.79354 0.516676 0.75089 50
-2.63846 0.996549 0.440173 52
-2.80829 0.524899 0.548083 52
-2.80677 0.52813 0.345921 50
-1.44053 0.543712 0.0262659 4
-2.82334 0.533241 0.148765 53
-0.626209 0.235643 -0.033344 58
-0.691601 0.13454 -0.0116931 8
-1.43 0.540576 -0.183153 4
-0.632901 0.123546 -0.0532764 79
-1.31126 0.496082 -0.265224 3
-0.775888 0.149826 -0.119804 55
-1.00823 0.382081 -0.279342 4
-0.770884 0.148099 -0.17295 50
-2.6297 1.01004 0.641264 50
-2.78833 0.531335 0.750244 50
-2.63073 1.00992 0.439783 52
-2.80309 0.539136 0.547607 50
-1.47912 0.56689 0.135527 4
-2.799 0.542372 0.345313 49
-1.43766 0.551247 0.0262659 4
-2.81797 0.548037 0.148634 55
-0.624967 0.238918 -0.033344 56
-0.695772 0.139228 -0.0117804 8
-1.42937 0.549198 -0.183457 4
-0.637136 0.127802 -0.0537113 79
-1.31085 0.504052 -0.265701 3
-0.775066 0.154022 -0.119804 53
-1.00171 0.385613 -0.278049 4
-0.767678 0.15181 -0.172389 50
-2.62129 1.01154 0.63958 50
-2.78502 0.535749 0.749597 49
-2.62896 1.01451 0.439783 52
-2.80456 0.544491 0.548083 50
-1.47116 0.566779 0.134874 4
-2.80048 0.547728 0.345617 50
-1.44603 0.55736 0.0264404 4
-2.81946 0.553431 0.148765 56
-0.62222 0.239108 -0.0332127 58
-0.685714 0.138529 -0.0116058 8
-1.42378 0.549899 -0.182848 4
-0.636912 0.128914 -0.0537113 77
-1.30539 0.504565 -0.264748 3
-0.774796 0.155375 -0.119804 53
-0.992034 0.383863 -0.275463 4
-0.769804 0.153611 -0.17295 50
-2.62049 1.02703 0.640703 50
-2.78228 0.549838 0.749597 49
-2.61919 1.026 0.439002 52
-2.80176 0.55868 0.548083 50
-1.47987 0.578763 0.135963 4
-2.79768 0.561896 0.345617 50
-1.43853 0.562846 0.0263531 4
-2.81417 0.567205 0.148634 59
-0.623326 0.243167 -0.033344 58
-0.689906 0.14298 -0.0116931 4
-1.43253 0.561638 -0.18437 4
-0.641136 0.133113 -0.0541462 76
-1.30282 0.511166 -0.264748 3
-0.774 0.159294 -0.119804 52
-0.996818 0.391537 -0.277403 4
-0.764238 0.156557 -0.171827 52
-2.61661 1.03025 0.640141 50
-2.78368 0.555161 0.750244 49
-2.62199 1.03239 0.439783 53
-2.80078 0.563569 0.548083 50
-1.46959 0.577693 0.135091 4
-2.80156 0.567756 0.346225 53
-1.44452 0.568106 0.026484 4
-2.81807 0.573103 0.148896 71
-0.6229 0.244254 -0.033344 58
-0.687205 0.143689 -0.0116495 4
-1.42693 0.562313 -0.183761 4
-0.633579 0.132753 -0.0534938 73
-1.29736 0.511633 -0.263796 4
-0.773721 0.160645 -0.119804 53
-0.991643 0.391497 -0.276109 3
-0.771129 0.159326 -0.173512 52
-2.611 1.04439 0.640141 50
-2.77837 0.569248 0.749597 49
-2.61426 1.04518 0.439392 52
-2.79539 0.577733 0.547607 50
-1.4781 0.590006 0.136181 4
-2.79855 0.582417 0.346225 55
-1.43921 0.574733 0.0264404 4
-2.81992 0.588863 0.149157 90
-0.626205 0.249479 -0.0336066 58
-0.686444 0.147285 -0.0116495 3
-1.43088 0.572549 -0.184674 4
-0.63529 0.136685 -0.0537113 73
-1.30605 0.522992 -0.266177 4
-0.772869 0.164694 -0.119804 52
-0.9963 0.399388 -0.278049 4
-0.767898 0.16287 -0.17295 52
-2.60917 1.04895 0.640141 50
-2.77501 0.573612 0.748951 49
-2.61472 1.05066 0.439783 52
-2.78947 0.582104 0.546653 52
-1.47245 0.590726 0.135745 4
-2.80238 0.588311 0.346834 59
-1.44042 0.578428 0.026484 4
-2.81889 0.593784 0.149157 90
-0.628084 0.251504 -0.0337378 58
-0.681292 0.147459 -0.0115622 3
-1.41837 0.570406 -0.183153 4
-0.637488 0.138304 -0.0539288 71
-1.30286 0.524352 -0.265701 3
-0.774997 0.166547 -0.120196 53
-0.991055 0.399488 -0.276756 4
-0.762842 0.163221 -0.171827 52
-2.60797 1.06489 0.641264 50
-2.77186 0.588618 0.748951 50
-2.609 1.0648 0.439783 53
-2.78638 0.596702 0.546653 50
-1.46923 0.598684 0.135745 4
-2.79673 0.602946 0.34653 59
-1.43506 0.585017 0.0264404 4
-2.81319 0.608503 0.149027 90
-0.624448 0.253844 -0.0336066 58
-0.682928 0.151668 -0.0116058 3
-1.41067 0.57619 -0.182544 4
-0.636755 0.14164 -0.0539288 70
-1.3 0.531394 -0.265701 4
-0.774115 0.170602 -0.120196 52
-0.995651 0.407425 -0.278696 4
-0.769096 0.168869 -0.173512 50
-2.60179 1.06714 0.640141 50
-2.77319 0.593956 0.749597 50
-2.60961 1.06983 0.440173 53
-2.78534 0.601564 0.546653 52
-1.4797 0.605977 0.136835 4
-2.79821 0.607861 0.346834 58
-1.44328 0.591319 0.0266149 4
-2.81224 0.612921 0.149027 86
-0.624004 0.254934 -0.0336066 58
-0.677777 0.151801 -0.0115186 3
-1.42123 0.583126 -0.184065 4
-0.641375 0.143805 -0.0543637 67
-1.30815 0.537401 -0.267605 3
-0.771402 0.171432 -0.119804 52
-0.986009 0.405476 -0.276109 3
-0.766448 0.169565 -0.17295 50
-2.60066 1.08262 0.641264 50
-2.76779 0.607471 0.748951 49
-2.60397 1.08348 0.440173 53
-2.78226 0.615654 0.546653 49
-1.46742 0.609628 0.135963 4
-2.78772 0.620898 0.345921 53
-1.43335 0.595733 0.026484 4
-2.79924 0.625476 0.148503 59
-0.620356 0.257236 -0.0334753 58
-0.691641 0.15848 -0.0117804 3
-1.41587 0.589603 -0.183761 4
-0.635751 0.146082 -0.0539288 67
-1.30088 0.542123 -0.266653 3
-0.770494 0.175469 -0.119804 52
-0.979489 0.408596 -0.274816 3
-0.767929 0.1741 -0.173512 50
-2.76673 0.612301 0.748951 49
-2.5998 1.08707 0.439783 52
-2.77867 0.620464 0.546177 49
-1.47555 0.616035 0.136835 4
-2.78179 0.624683 0.345313 49
-1.43682 0.600415 0.0265713 4
-2.79571 0.629816 0.148372 56
-0.629116 0.262179 -0.0340004 58
-0.691363 0.159687 -0.0117804 3
-1.41713 0.593033 -0.184065 4
-0.637925 0.147735 -0.0541462 65
-1.30446 0.546293 -0.267605 3
-0.770187 0.176813 -0.119804 52
-0.974252 0.408602 -0.273523 3
-0.762867 0.174384 -0.172389 50
-2.76337 0.627262 0.748951 49
-2.59615 1.10209 0.440173 52
-2.77778 0.635548 0.546653 49
-1.46302 0.620113 0.135963 4
-2.77836 0.639725 0.345313 50
-1.43595 0.608908 0.0266149 4
-2.79956 0.646606 0.148765 62
-0.627735 0.265469 -0.0340004 58
-0.678308 0.160629 -0.0115622 3
-1.41618 0.601664 -0.18437 4
-0.639571 0.15163 -0.0543637 64
-1.30149 0.553343 -0.267605 3
-0.766843 0.180293 -0.119413 50
-0.967657 0.4118 -0.27223 3
-0.769039 0.180132 -0.174073 49
-2.75757 0.631014 0.747659 49
-2.59214 1.10519 0.439783 52
-2.77428 0.639847 0.546177 50
-1.45507 0.619732 0.135309 4
-2.77977 0.644645 0.345617 56
-1.43259 0.610431 0.0265713 4
-2.79611 0.650441 0.148634 71
-0.622679 0.264602 -0.0337378 58
-1.42208 0.606816 -0.185282 4
-0.639305 0.152746 -0.0543637 64
-1.30277 0.55658 -0.268081 3
-0.766527 0.181631 -0.119413 50
-0.969156 0.414441 -0.272876 3
-0.76638 0.180795 -0.173512 50
-2.75198 0.644417 0.747013 49
-2.76861 0.653321 0.5457 52
-1.45648 0.629068 0.135745 4
-2.78844 0.662037 0.347138 68
-1.43636 0.620655 0.0267022 8
-2.79509 0.665647 0.148765 101
-0.623576 0.268852 -0.0338691 58
-1.41888 0.614254 -0.185282 4
-0.636073 0.155518 -0.0541462 64
-1.29994 0.563167 -0.268081 3
-0.767969 0.186209 -0.119804 52
-0.763052 0.184248 -0.17295 50
-2.75085 0.649219 0.747013 50
-2.76496 0.658071 0.545224 49
-1.45538 0.631609 0.135745 4
-2.78245 0.665756 0.34653 68
-1.42829 0.620418 0.0265713 4
-2.78907 0.669367 0.148503 128
-0.625394 0.270937 -0.0340004 58
-1.42691 0.620697 -0.186499 4
-0.640646 0.157784 -0.0545811 64
-1.28996 0.561508 -0.266177 3
-0.765241 0.186978 -0.119413 50
-0.765099 0.18614 -0.173512 50
-2.84684 1.25644 0.709209 27
-2.74965 0.664656 0.747659 45
-2.7183 1.19908 0.463977 15
-2.75671 0.671386 0.544271 49
-1.4565 0.641486 0.136181 4
-2.78363 0.681973 0.347138 68
-1.4296 0.629907 0.0266585 8
-2.78541 0.684448 0.148503 124
-0.626251 0.275217 -0.0341317 58
-1.41445 0.624391 -0.185282 4
-0.637391 0.160545 -0.0543637 64
-1.29139 0.570467 -0.267129 4
-0.771448 0.192734 -0.120587 50
-0.766449 0.190851 -0.174073 52
-2.82259 1.25103 0.703594 29
-2.74614 0.668887 0.747013 32
-2.72093 1.20536 0.464757 11
-2.76507 0.67852 0.546177 52
-1.44627 0.639988 0.135309 4
-2.77532 0.684574 0.346225 61
-1.42393 0.630374 0.0265713 4
-2.7819 0.688227 0.148372 114
-0.623488 0.275297 -0.0340004 58
-1.41574 0.62762 -0.185587 4
-0.639528 0.162252 -0.0545811 61
-1.29263 0.573717 -0.267605 3
-0.766315 0.192904 -0.119804 50
-0.768514 0.192633 -0.174635 50
-2.76491 1.24279 0.690679 24
-2.74506 0.683357 0.747659 49
-2.71683 1.2206 0.465147 12
-2.75922 0.691914 0.5457 52
-1.44756 0.649342 0.135745 4
-2.77411 0.699699 0.34653 68
-1.43212 0.6427 0.0267894 4
-2.78068 0.703391 0.148503 116
-0.62659 0.280607 -0.0342629 58
-1.40791 0.632985 -0.184978 4
-0.63867 0.165599 -0.0545811 59
-1.28524 0.578234 -0.266653 3
-0.765294 0.196914 -0.119804 50
-0.762768 0.195474 -0.173512 50
-2.74276 1.23859 0.685625 53
-2.74387 0.688147 0.747659 45
-2.7282 1.23144 0.467489 15
-2.76027 0.697807 0.546177 52
-1.44415 0.650843 0.135527 4
-2.77529 0.705147 0.346834 62
-1.4286 0.644418 0.0267458 8
-2.77703 0.707631 0.148372 115
-0.628374 0.28273 -0.0343942 56
-1.40906 0.636465 -0.185282 4
-0.633552 0.16549 -0.0541462 59
-1.28423 0.580477 -0.266653 3
-0.764949 0.198249 -0.119804 50
-0.767151 0.197993 -0.174635 50
-2.73159 1.25138 0.684502 47
-2.73776 0.702387 0.747013 45
-2.72374 1.24721 0.467879 53
-2.75658 0.71225 0.546177 52
-1.44967 0.662797 0.136399 4
-2.76663 0.718912 0.346225 71
-1.42975 0.653973 0.0268331 4
-2.77316 0.722646 0.148372 105
-0.622347 0.283934 -0.0341317 58
-1.41687 0.649258 -0.186804 4
-0.637498 0.170053 -0.0545811 59
-1.27438 0.584341 -0.265224 4
-0.768682 0.203487 -0.120587 50
-0.763709 0.201534 -0.174073 50
-2.70307 1.24344 0.677763 29
-2.73887 0.707764 0.747659 42
-2.70159 1.2422 0.464367 32
-2.75533 0.71706 0.546177 52
-1.44624 0.664284 0.136181 4
-2.7679 0.723881 0.34653 68
-1.41726 0.651239 0.0266149 4
-2.76961 0.726372 0.148242 120
-0.628653 0.288154 -0.0345255 58
-1.40684 0.647326 -0.185587 4
-0.637201 0.171166 -0.0545811 58
-1.28004 0.589651 -0.266653 4
-0.763547 0.203585 -0.119804 50
-0.76575 0.203344 -0.174635 50
-2.67224 1.24623 0.671587 29
-2.73292 0.721006 0.747013 45
-2.67491 1.24692 0.460855 29
-2.75166 0.730997 0.546177 50
-1.45415 0.676861 0.13727 4
-2.76407 0.738364 0.34653 59
-1.41394 0.658404 0.0266149 4
-2.77059 0.742147 0.148503 132
-0.622611 0.289329 -0.0342629 58
-1.40792 0.656785 -0.186195 4
-0.633889 0.173859 -0.0543637 58
-1.27259 0.594042 -0.265701 4
-0.76232 0.206728 -0.174073 50
-2.65242 1.24262 0.667094 52
-2.73399 0.72639 0.747659 49
-2.65037 1.24111 0.456953 30
-2.75025 0.736278 0.546177 52
-1.45296 0.679397 0.13727 4
-2.75558 0.741265 0.345617 53
-1.40815 0.658994 0.0265277 8
-2.7717 0.747628 0.148634 100
-0.619845 0.289354 -0.0341317 58
-1.40228 0.657131 -0.185587 4
-0.63599 0.17561 -0.0545811 56
-1.27156 0.596262 -0.265701 3
-0.766666 0.209312 -0.175197 49
-2.65665 1.26218 0.669902 59
-2.72303 0.739286 0.74572 44
-2.64362 1.25543 0.456953 58
-2.74636 0.750669 0.546177 52
-1.45377 0.689387 0.137706 4
-2.76111 0.758777 0.346834 50
-1.40919 0.668505 0.0266149 4
-2.77002 0.763272 0.148765 70
-0.620576 0.293668 -0.0342629 58
-1.40319 0.666843 -0.186195 4
-0.639866 0.180254 -0.055016 56
-1.26388 0.601021 -0.264748 3
-0.763171 0.212817 -0.174635 50
-2.65906 1.26846 0.671025 59
-2.72872 0.745936 0.747659 45
-2.64365 1.26111 0.457343 58
-2.74031 0.754166 0.545224 49
-1.44807 0.689777 0.13727 4
-2.7526 0.761622 0.345921 55
-1.41254 0.673118 0.0267022 4
-2.76628 0.767442 0.148634 61
-0.61781 0.293674 -0.0341317 58
-1.39307 0.665007 -0.184978 4
-0.63955 0.18137 -0.055016 56
-1.26504 0.604286 -0.265224 3
-0.769847 0.216081 -0.17632 49
-2.65436 1.28389 0.671587 61
-2.72245 0.759568 0.747013 49
-2.64368 1.27816 0.458513 59
-2.74342 0.770483 0.546653 50
-1.43771 0.694096 0.136617 4
-2.74619 0.775354 0.345617 70
-1.40899 0.680505 0.0267022 4
-2.76223 0.781916 0.148634 58
-0.616264 0.296905 -0.0341317 58
-1.39403 0.674457 -0.185587 4
-0.6314 0.182692 -0.0543637 55
-1.25965 0.60983 -0.264748 3
-0.959417 0.464914 -0.276109 4
-0.764013 0.218796 -0.175197 47
-2.65672 1.29018 0.67271 62
-2.71647 0.76302 0.74572 49
-2.64588 1.28493 0.459294 59
-2.73971 0.774606 0.546177 50
-1.43874 0.697692 0.136835 4
-2.75438 0.782844 0.346834 68
-1.41005 0.684056 0.0267458 4
-2.76086 0.786736 0.148634 61
-0.620235 0.300165 -0.0343942 56
-1.39285 0.676889 -0.185587 4
-0.633476 0.184473 -0.0545811 55
-1.25859 0.612027 -0.264748 3
-0.954264 0.464468 -0.274816 4
-2.65648 1.30731 0.674394 71
-2.7149 0.777421 0.746366 49
-2.64821 1.30267 0.460855 67
-2.73339 0.787787 0.5457 49
-1.43742 0.706066 0.137052 4
-2.74085 0.794029 0.345617 55
-1.40433 0.69008 0.0267022 4
-2.76643 0.803469 0.149157 90
-0.616416 0.302304 -0.0342629 58
-1.38496 0.681735 -0.184978 4
-0.634894 0.188479 -0.0547986 55
-1.25107 0.616216 -0.263796 3
-0.949736 0.468222 -0.274169 4
-2.65638 1.31302 0.674956 80
-2.71354 0.782158 0.746366 49
-2.65036 1.30948 0.461635 77
-2.72952 0.792354 0.545224 50
-1.43172 0.706366 0.136617 4
-2.73469 0.79743 0.345008 49
-1.403 0.692775 0.0267022 4
-2.75544 0.80551 0.148634 100
-0.620362 0.305595 -0.0345255 56
-1.38821 0.686354 -0.185587 4
-0.634564 0.189586 -0.0547986 55
-1.2456 0.616218 -0.262844 3
-0.948835 0.470044 -0.274169 4
-2.65359 1.32956 0.676079 86
-2.71158 0.797505 0.747013 47
-2.64765 1.32601 0.462416 88
-2.72298 0.805942 0.544747 49
-1.43678 0.718565 0.137488 4
-2.72795 0.811511 0.344704 49
-1.40606 0.703472 0.0268331 4
-2.75583 0.821825 0.148896 80
-0.620985 0.309958 -0.0346568 58
-1.3867 0.694969 -0.185891 4
-0.631175 0.192198 -0.0545811 55
-1.24005 0.621846 -0.262367 3
-0.952832 0.478264 -0.276109 4
-2.62539 1.32058 0.669341 36
-2.71019 0.802237 0.747013 45
-2.62792 1.32129 0.459294 45
-2.72627 0.812086 0.5457 52
-1.43108 0.718832 0.137052 4
-2.72906 0.816502 0.345008 49
-1.40036 0.703677 0.0267458 4
-2.74496 0.8233 0.148372 53
-0.622672 0.312165 -0.034788 58
-1.38339 0.696029 -0.185587 4
-0.630839 0.1933 -0.0545811 53
-1.24116 0.625116 -0.262844 3
-0.947686 0.477747 -0.274816 4
-2.60325 1.32656 0.66541 33
-2.71303 0.818023 0.748951 47
-2.60116 1.32493 0.455782 35
-2.71978 0.825166 0.545224 49
-1.43186 0.728328 0.137488 4
-2.72949 0.832219 0.345617 55
-1.40124 0.713027 0.0268331 4
-0.618806 0.314286 -0.0346568 58
-1.39298 0.710036 -0.187412 4
-0.634584 0.19805 -0.055016 53
-1.22705 0.625803 -0.260463 3
-0.953853 0.486941 -0.277403 4
-2.57491 1.31777 0.658671 33
-2.71391 0.823454 0.749597 47
-2.57907 1.31934 0.45227 33
-2.72054 0.831099 0.5457 49
-1.42615 0.728556 0.137052 4
-2.73041 0.837706 0.345921 83
-1.40209 0.716856 0.0268767 8
-0.622699 0.317643 -0.0349193 56
-1.38512 0.709068 -0.186499 4
-0.631855 0.198428 -0.0547986 53
-1.23032 0.630186 -0.261415 3
-0.955064 0.489876 -0.278049 4
-2.54612 1.32045 0.653056 33
-2.70711 0.837416 0.748951 47
-2.55217 1.32304 0.448758 33
-2.72084 0.846783 0.546653 47
-1.4244 0.737409 0.13727 4
-2.71873 0.850256 0.345008 50
-1.39388 0.721884 0.0267894 8
-0.618812 0.319749 -0.034788 58
-1.38787 0.719986 -0.187412 4
-0.633185 0.202475 -0.055016 53
-1.2269 0.636834 -0.261415 3
-0.950344 0.493754 -0.277403 4
-2.52677 1.31544 0.648564 33
-2.70564 0.84214 0.748951 50
-2.52818 1.31564 0.444856 32
-2.71935 0.851531 0.546653 47
-1.41869 0.737592 0.136835 4
-2.71739 0.854526 0.345008 49
-1.3904 0.72316 0.0267458 4
-0.620467 0.321983 -0.0349193 58
-1.38013 0.718721 -0.186499 4
-0.632831 0.20358 -0.055016 53
-1.22796 0.640111 -0.261891 4
-0.9559 0.498771 -0.279342 4
-2.4983 1.31728 0.642949 33
-2.70365 0.856549 0.749597 49
-2.50379 1.31964 0.441734 33
-2.71969 0.866766 0.547607 49
-1.42375 0.749411 0.137706 4
-2.71761 0.870248 0.345617 47
-1.39557 0.734855 0.0269203 4
-0.618772 0.325227 -0.0349193 56
-1.37635 0.725937 -0.186499 4
-0.634129 0.207648 -0.0552335 49
-1.21385 0.640579 -0.25951 3
-1.97003 0.633018 -0.32261 12
-0.949095 0.501342 -0.278049 4
-2.48308 1.31479 0.63958 35
-2.69985 0.860537 0.748951 49
-2.48403 1.31475 0.438612 33
-2.72036 0.872732 0.548083 49
-2.71845 0.875747 0.345921 47
-1.38974 0.735191 0.0268331 4
-0.618204 0.326307 -0.0349193 56
-1.36851 0.724848 -0.185587 4
-0.624281 0.205706 -0.0543637 45
-1.20623 0.639243 -0.258082 4
-1.97127 0.637209 -0.323002 14
-0.954526 0.506568 -0.279989 4
-2.45876 1.31899 0.635087 35
-2.69056 0.873648 0.747659 45
-2.45947 1.31883 0.43549 33
-2.70875 0.88469 0.546653 49
-2.71603 0.891212 0.346225 47
-1.38587 0.742458 0.0268331 8
-0.616487 0.329539 -0.0349193 58
-1.37331 0.736943 -0.186804 4
-0.625563 0.209747 -0.0545811 39
-1.20708 0.648086 -0.259034 4
-1.96556 0.646756 -0.32261 14
-0.945483 0.50812 -0.278049 4
-2.43739 1.31244 0.630034 35
-2.68673 0.877597 0.747013 44
-2.43783 1.31215 0.431978 33
-2.7072 0.889416 0.546653 49
-2.71462 0.895477 0.346225 49
-1.38017 0.742503 0.0267458 4
-0.615911 0.330614 -0.0349193 56
-1.36996 0.73792 -0.186499 4
-0.629927 0.212396 -0.055016 35
-1.20163 0.647858 -0.258082 3
-1.95505 0.647104 -0.321044 14
-0.948843 0.512069 -0.279342 4
-2.41124 1.31468 0.62498 36
-2.67308 0.888154 0.744428 45
-2.41792 1.3178 0.429637 35
-2.70266 0.903107 0.546653 49
-2.70754 0.908893 0.345921 49
-1.38298 0.753071 0.0268767 4
-0.618553 0.336228 -0.0351819 56
-1.36173 0.742703 -0.185891 4
-0.631168 0.216482 -0.0552335 29
-1.2091 0.659821 -0.260463 3
-1.95397 0.658114 -0.321436 14
-0.939885 0.513384 -0.277403 4
-2.39399 1.31069 0.621049 35
-2.67153 0.892818 0.744428 45
-2.3983 1.31252 0.426515 35
-2.6986 0.907516 0.546177 45
-2.71066 0.915196 0.34653 90
-1.37495 0.75212 0.0267458 4
-0.617966 0.337307 -0.0351819 56
-1.37131 0.751048 -0.187412 4
-0.628429 0.216788 -0.055016 24
-1.20579 0.660748 -0.259987 3
-1.93878 0.656803 -0.319086 12
-0.941013 0.516352 -0.278049 4
-2.37408 1.31653 0.61768 36
-2.66208 0.905712 0.743135 47
-2.37173 1.31469 0.423003 35
-2.68684 0.919261 0.544747 44
-2.70332 0.929047 0.346225 49
-1.37755 0.762948 0.0268767 4
-0.618374 0.34175 -0.0353131 56
-1.36722 0.758457 -0.187412 4
-0.622573 0.218461 -0.0545811 27
-1.2022 0.667263 -0.259987 3
-1.93064 0.665347 -0.318303 12
-0.946735 0.525974 -0.280636 4
-2.35499 1.31077 0.613188 36
-2.66507 0.911912 0.744428 49
-2.35024 1.3076 0.419491 33
-2.68523 0.923949 0.544747 44
-2.69951 0.932485 0.345921 45
-1.36967 0.761701 0.0267458 4
-0.615596 0.341613 -0.0351819 56
-1.43247 0.49913 -0.0258732 4
-1.35953 0.756976 -0.186499 4
-0.624546 0.220358 -0.0547986 38
-1.19461 0.665769 -0.258558 3
-1.92948 0.668716 -0.318303 12
-0.943708 0.526447 -0.279989 4
-2.33112 1.31351 0.608696 38
-2.65814 0.9246 0.743782 49
-2.33046 1.31261 0.41715 35
-2.67588 0.935916 0.543794 44
-2.69225 0.945789 0.345617 44
-1.37015 0.771079 0.0268331 8
-0.613799 0.344832 -0.0351819 55
-1.42756 0.505547 -0.0258296 4
-1.35771 0.765305 -0.186804 4
-0.623383 0.223625 -0.0547986 47
-1.19977 0.676638 -0.260463 3
-1.92595 0.678809 -0.318303 12
-0.941031 0.531216 -0.279989 4
-2.3161 1.31037 0.605326 38
-2.6588 0.930031 0.744428 49
-2.31312 1.30816 0.414418 35
-2.67176 0.940241 0.543317 45
-2.68591 0.948841 0.345008 44
-1.35997 0.76878 0.0266585 4
-0.615368 0.347133 -0.0353131 55
-1.43375 0.510531 -0.0259605 4
-1.36069 0.770121 -0.187412 4
-0.62769 0.226369 -0.0552335 50
-1.19218 0.675096 -0.259034 3
-1.92476 0.68217 -0.318303 12
-0.94001 0.533022 -0.279989 4
-1.0633 0.377932 -0.252126 3
-2.28996 1.31197 0.600273 36
-2.65145 0.943598 0.743782 49
-2.28887 1.31083 0.411296 35
-2.66449 0.953394 0.542841 47
-2.6784 0.962524 0.344704 42
-1.3646 0.780864 0.0268331 8
-1.47174 0.532332 0.0802048 4
-0.611376 0.349108 -0.0351819 53
-1.43097 0.518281 -0.0259605 4
-1.34789 0.772529 -0.186195 4
-0.62884 0.230493 -0.0554509 50
-1.18426 0.679091 -0.258082 3
-1.90954 0.688081 -0.316346 12
-0.939299 0.539141 -0.280636 4
-1.05665 0.382043 -0.251003 4
-2.27101 1.30584 0.59578 36
-2.64753 0.947414 0.743135 47
-2.27183 1.3058 0.408565 36
-2.66514 0.95887 0.543317 49
-2.67455 0.965891 0.3444 42
-1.3654 0.784492 0.0268767 4
-1.46386 0.532106 0.0798123 4
-0.61942 0.355159 -0.035707 56
-1.43476 0.522474 -0.0260477 4
-1.34668 0.774645 -0.186195 4
-0.626094 0.230746 -0.0552335 50
-1.18732 0.68361 -0.259034 3
-1.90833 0.691413 -0.316346 12
-0.934175 0.538363 -0.279342 4
-1.06522 0.38699 -0.253249 4
-2.25151 1.31036 0.592411 36
-2.64043 0.959981 0.742489 47
-2.25429 1.31147 0.406614 36
-2.66255 0.973186 0.543794 49
-2.66479 0.978179 0.343792 41
-1.45871 0.538905 0.0796815 4
-1.42506 0.52715 -0.0259168 4
-0.622539 0.233164 -0.055016 49
-1.16901 0.680948 -0.255701 3
-1.90237 0.700547 -0.315954 12
-0.939776 0.547961 -0.281929 4
-1.06776 0.39423 -0.254372 3
-2.2345 1.30567 0.588481 36
-2.64329 0.966238 0.743782 47
-2.23282 1.30418 0.403102 36
-2.66068 0.978296 0.543794 49
-2.20673 1.28842 0.220504 36
-2.65144 0.978553 0.34227 38
-1.46245 0.543175 0.0799432 4
-1.42883 0.531364 -0.0260041 4
-0.622131 0.23425 -0.055016 49
-1.16994 0.684229 -0.256177 3
-1.89883 0.703015 -0.315563 12
-0.934558 0.547318 -0.280636 4
-1.05792 0.392741 -0.252126 4
-2.21273 1.30905 0.58455 36
-2.64255 0.982201 0.745074 47
-2.21085 1.30743 0.40037 35
-2.65552 0.992214 0.543794 50
-2.19544 1.2978 0.220068 36
-2.64145 0.991149 0.341662 36
-1.46183 0.551954 0.080074 4
-1.42593 0.539087 -0.0260041 4
-0.620896 0.237505 -0.055016 45
-1.15989 0.686791 -0.254749 3
-1.89731 0.714142 -0.315954 12
-0.935831 0.554672 -0.281929 4
-1.06035 0.40016 -0.253249 4
-2.19602 1.30381 0.580619 35
-2.63404 0.984287 0.743135 47
-2.19159 1.3012 0.397248 35
-2.65149 0.995988 0.543317 50
-2.19745 1.30418 0.220504 36
-2.62578 0.990526 0.339836 33
-1.45619 0.552747 0.0798123 4
-1.43669 0.545978 -0.0262222 4
-0.62048 0.238588 -0.055016 45
-1.16501 0.692583 -0.256177 3
-1.89144 0.715716 -0.315171 12
-0.930714 0.553829 -0.280636 4
-1.06877 0.405428 -0.255495 4
-2.17223 1.30563 0.576127 35
-2.62885 0.998065 0.743135 47
-2.16993 1.30374 0.394517 36
-2.64624 1.00986 0.543317 50
-2.17352 1.3054 0.218761 38
-2.60665 0.998957 0.338011 32
-1.46494 0.564819 0.0804665 4
-0.625322 0.374709 -0.0364946 42
-1.42447 0.549921 -0.0260477 4
-0.623875 0.243612 -0.0554509 45
-1.15086 0.692337 -0.253796 3
-1.88536 0.724729 -0.31478 12
-0.927802 0.558694 -0.280636 4
-1.06436 0.410152 -0.254933 3
-2.15349 1.29896 0.571635 36
-2.62936 1.00351 0.743782 47
-2.15708 1.30114 0.392566 36
-2.64676 1.01535 0.543794 50
-2.15845 1.30147 0.217454 36
-2.58868 0.997289 0.335881 30
-1.45696 0.56469 0.080074 4
-0.624667 0.375799 -0.0364946 38
-1.42817 0.554201 -0.026135 4
-0.623449 0.2447 -0.0554509 45
-1.15385 0.696887 -0.254749 3
-1.87948 0.72625 -0.313997 12
-0.926825 0.560313 -0.280636 4
-1.07047 0.414619 -0.256618 3
-2.13604 1.30424 0.568827 36
-2.62182 1.01639 0.743135 47
-2.13549 1.30341 0.389834 35
-2.64141 1.02919 0.543794 50
-2.1346 1.30237 0.21571 38
-2.56724 1.00453 0.333752 27
-1.45631 0.573218 0.0802048 4
-1.42525 0.561671 -0.026135 4
-0.619839 0.247056 -0.0552335 44
-1.146 0.700355 -0.253796 3
-1.88038 0.737545 -0.31478 12
-0.925937 0.566421 -0.281282 4
-1.06147 0.417572 -0.254933 3
-2.11738 1.2974 0.564335 35
-2.62454 1.02271 0.744428 47
-2.1166 1.29643 0.386712 38
-2.63504 1.03202 0.542841 49
-2.12171 1.29958 0.214621 39
-2.55641 1.00494 0.332535 27
-1.45773 0.576416 0.0803357 4
-1.42427 0.564158 -0.026135 4
-0.624044 0.249957 -0.0556684 41
-1.14477 0.702354 -0.253796 3
-1.88139 0.741726 -0.315171 12
-0.922891 0.56677 -0.280636 4
-1.06081 0.419239 -0.254933 3
-2.10021 1.30205 0.561527 38
-2.61484 1.03422 0.743135 47
-2.09929 1.30099 0.384761 38
-2.63206 1.04625 0.543317 50
-2.10029 1.30111 0.213096 39
-2.55573 1.02015 0.333143 27
-1.45237 0.583117 0.0802048 4
-1.42372 0.572284 -0.0261786 4
-0.622727 0.253221 -0.0556684 39
-1.13912 0.706843 -0.25332 3
-1.87518 0.750655 -0.31478 12
-0.930259 0.577818 -0.283869 4
-1.05407 0.422993 -0.25381 3
-2.08553 1.29798 0.558158 38
-2.61528 1.03967 0.743782 47
-2.08864 1.29943 0.3832 38
-2.63233 1.05221 0.543794 50
-2.08533 1.29688 0.211788 39
-2.54703 1.02185 0.33223 29
-1.46062 0.58936 0.0807282 4
-1.42504 0.575697 -0.0262222 4
-0.624596 0.255233 -0.0558859 36
-1.13997 0.71013 -0.253796 3
-0.927101 0.578322 -0.283222 4
-1.05107 0.42393 -0.253249 3
-2.06611 1.30145 0.554789 38
-2.61185 1.0547 0.744428 45
-2.06487 1.30017 0.380078 38
-2.62678 1.06597 0.543794 50
-2.06143 1.29752 0.210045 39
-2.53916 1.03468 0.331926 27
-1.4551 0.596314 0.0805974 4
-1.41959 0.582457 -0.0261786 4
-0.627865 0.260375 -0.0563208 35
-1.12988 0.712354 -0.252368 3
-0.92406 0.583168 -0.283222 3
-1.05102 0.430524 -0.25381 3
-2.0476 1.29427 0.550297 38
-2.61001 1.05926 0.744428 47
-2.05239 1.29681 0.378127 38
-2.62492 1.07056 0.543794 49
-2.04864 1.29446 0.208956 39
-2.53064 1.03586 0.331013 27
-1.45185 0.597656 0.0804665 4
-1.42782 0.588717 -0.0263531 4
-0.632021 0.263354 -0.0567557 33
-1.12035 0.709066 -0.250463 3
-0.923041 0.58478 -0.283222 3
-1.05485 0.434009 -0.254933 3
-2.02848 1.29709 0.546928 36
-2.60238 1.07154 0.743782 47
-2.03309 1.29956 0.375786 38
-2.6172 1.08289 0.543317 50
-2.02947 1.29676 0.207649 39
-2.52977 1.05099 0.331622 29
-1.66393 1.0633 0.0338577 11
-1.4487 0.605249 0.0804665 4
-1.4179 0.593064 -0.0262222 4
-0.626032 0.264752 -0.0563208 32
-1.11261 0.712077 -0.249511 4
-0.926165 0.593361 -0.285162 3
-1.04806 0.437668 -0.25381 4
-2.01597 1.29404 0.54412 36
-2.60274 1.077 0.744428 47
-2.01628 1.29376 0.373054 39
-2.01673 1.29357 0.206559 41
-2.54168 1.06112 0.333447 30
-1.64717 1.05703 0.0335523 12
-1.44995 0.608736 0.0805974 4
-1.42378 0.598422 -0.0263531 4
-1.11137 0.714018 -0.249511 3
-0.933141 0.600375 -0.287749 3
-1.0518 0.441363 -0.254933 3
-1.99668 1.29696 0.540751 38
-1.99889 1.29792 0.371103 39
-1.99717 1.29632 0.205252 41
-1.6458 1.06837 0.0336395 12
-1.44433 0.615601 0.0804665 4
-1.59759 1.03742 -0.0983254 14
-1.41592 0.604169 -0.0262659 4
-1.10749 0.720021 -0.249511 3
-1.48597 0.632319 -0.250571 9
-0.923917 0.601293 -0.285809 3
-1.04266 0.444212 -0.253249 4
-1.9824 1.29211 0.537382 38
-1.98444 1.29296 0.368762 39
-1.98447 1.293 0.204162 41
-1.64603 1.07261 0.0336831 12
-1.44796 0.61982 0.0807282 4
-1.61041 1.04976 -0.0992444 14
-1.41716 0.607617 -0.0263095 4
-1.09802 0.716578 -0.247606 4
-1.46895 0.628164 -0.24783 8
-0.934987 0.610845 -0.289688 3
-1.0442 0.446798 -0.25381 3
-1.96341 1.29442 0.534012 39
-1.96322 1.29381 0.36603 38
-1.96751 1.29617 0.203073 41
-1.64266 1.0823 0.0337268 12
-1.4447 0.627392 0.0807282 4
-1.41407 0.614782 -0.0263095 4
-1.09642 0.723481 -0.248082 4
-0.929869 0.614236 -0.289042 3
-1.04857 0.45514 -0.255495 3
-1.951 1.29111 0.531205 38
-1.94861 1.28906 0.363689 39
-1.95279 1.29135 0.201766 42
-2.79087 1.21063 0.368739 14
-1.43902 0.62793 0.0804665 4
-1.40382 0.613275 -0.026135 4
-1.08902 0.721321 -0.246654 3
-0.940753 0.624044 -0.292922 3
-1.0433 0.455041 -0.254372 3
-1.93387 1.29487 0.528397 39
-1.93135 1.29271 0.361738 39
-2.86813 1.25774 0.601462 26
-1.93542 1.29496 0.200676 41
-2.76609 1.21775 0.366305 14
-1.44017 0.637714 0.0807282 4
-1.40735 0.623879 -0.0262659 4
-1.08307 0.725834 -0.246178 3
-1.47474 0.652013 -0.250179 4
-0.929458 0.62357 -0.290335 4
-1.04082 0.460679 -0.254372 3
-1.91768 1.28839 0.524467 39
-2.84721 1.24866 0.822618 26
-1.92112 1.29023 0.360177 39
-2.83447 1.24894 0.59479 26
-1.92903 1.29556 0.20024 42
-2.76191 1.22109 0.366001 29
-1.43688 0.638968 0.0805974 4
-1.40397 0.625325 -0.0262222 4
-1.07366 0.722235 -0.244273 4
-1.46908 0.652595 -0.249396 4
-0.936373 0.630597 -0.292922 4
-1.04456 0.464273 -0.255495 3
-1.90084 1.29156 0.521659 39
-2.81657 1.25231 0.81551 26
-1.90617 1.29471 0.358616 41
-2.80793 1.25429 0.5905 24
-1.90391 1.29271 0.198279 41
-2.72375 1.22137 0.361742 29
-1.43352 0.646483 0.0805974 4
-1.41219 0.63753 -0.0264404 4
-1.07405 0.730425 -0.245225 4
-1.47015 0.662293 -0.250179 4
-0.929181 0.632605 -0.291628 3
-1.04211 0.469736 -0.255495 3
-1.88852 1.288 0.518851 39
-2.77245 1.23857 0.803232 24
-1.88963 1.28829 0.355884 39
-2.74503 1.23263 0.577632 23
-1.89137 1.28901 0.19719 41
-2.72841 1.22917 0.362654 15
-1.43922 0.652054 0.0809899 4
-1.4088 0.638968 -0.0263968 4
-1.06669 0.728141 -0.243797 4
-1.46899 0.664858 -0.250179 4
-0.937924 0.641215 -0.294862 3
-1.03462 0.468568 -0.25381 3
-1.87351 1.29266 0.516605 39
-2.7481 1.2456 0.798063 55
-1.87654 1.29429 0.354714 39
-2.74524 1.25003 0.579062 52
-1.87617 1.29356 0.196318 42
-2.68332 1.22644 0.357482 14
-1.8786 1.29573 0.0392243 41
-1.43567 0.659832 0.0809899 4
-1.40987 0.648657 -0.026484 4
-1.06072 0.732504 -0.243321 4
-0.926615 0.640614 -0.292275 3
-1.0365 0.476174 -0.254933 4
-1.86146 1.28867 0.513797 39
-2.74372 1.2494 0.797417 44
-1.86232 1.28879 0.352372 39
-2.72072 1.24465 0.574296 32
-1.85753 1.28549 0.194575 41
-2.65657 1.21931 0.354136 14
-1.86401 1.29046 0.0389625 42
-1.43917 0.664164 0.0812516 4
-1.40419 0.649033 -0.0263968 4
-1.05944 0.734355 -0.243321 4
-0.92946 0.644988 -0.293568 3
-1.02689 0.473757 -0.252687 3
-1.84671 1.2928 0.511551 39
-2.70445 1.24815 0.787723 26
-1.84544 1.29144 0.350421 41
-2.68988 1.24709 0.569053 27
-1.84488 1.29059 0.193922 42
-2.62538 1.22173 0.350789 14
-1.84722 1.2927 0.0387443 41
-1.43794 0.672742 0.0813824 4
-1.39862 0.655079 -0.0263531 4
-1.20342 0.842826 -0.175851 8
-1.05571 0.739708 -0.243321 4
-0.916307 0.642738 -0.290335 3
-1.03103 0.482195 -0.254372 4
-1.82652 1.28341 0.506498 39
-2.67595 1.24072 0.779969 26
-1.83712 1.2904 0.349251 41
-2.66299 1.24089 0.563811 29
-1.83244 1.28664 0.192832 42
-2.603 1.21688 0.348051 14
-1.83451 1.28906 0.0385262 41
-1.43902 0.676306 0.0815132 4
-1.39521 0.656462 -0.0263095 4
-1.19789 0.842067 -0.175242 9
-1.04639 0.735893 -0.241416 4
-0.922962 0.650068 -0.292922 3
-1.03239 0.485021 -0.254933 4
-1.81558 1.29044 0.505375 41
-2.65826 1.25006 0.776738 49
-1.81402 1.28887 0.346129 41
-2.65645 1.25481 0.563811 58
-1.8153 1.28932 0.191743 42
-2.55823 1.21294 0.342879 24
-1.81959 1.29285 0.0383517 41
-1.42857 0.68088 0.0811207 4
-1.40067 0.668278 -0.026484 4
-1.02535 0.488523 -0.25381 4
-1.80364 1.28622 0.502567 41
-2.66263 1.25778 0.778677 56
-1.80373 1.28629 0.344568 41
-2.6587 1.26154 0.564764 58
-1.80494 1.2867 0.190871 42
-2.56059 1.21953 0.343487 24
-1.80309 1.28585 0.0380462 41
-1.43415 0.686586 0.0815132 4
-1.39499 0.668575 -0.0263968 4
-1.02009 0.488227 -0.252687 4
-1.787 1.28851 0.499759 41
-2.65841 1.27228 0.779323 56
-1.78718 1.28818 0.342617 42
-2.66113 1.27922 0.56667 59
-1.78831 1.28853 0.189782 42
-2.55662 1.23355 0.343792 26
-1.78845 1.28911 0.0378717 41
-1.43065 0.693836 0.0815132 4
-1.39159 0.675627 -0.0263968 4
-1.0198 0.494437 -0.253249 4
-1.77489 1.28448 0.496952 41
-2.65837 1.27796 0.779969 58
-1.77893 1.28695 0.341446 42
-2.65646 1.28327 0.566194 59
-1.77395 1.28289 0.188474 44
-2.5567 1.23909 0.344096 26
-1.77788 1.28668 0.0376972 42
-1.43169 0.697418 0.0816441 4
-1.39041 0.678055 -0.0263968 4
-1.01674 0.495159 -0.252687 4
-1.76202 1.28975 0.495267 41
-2.66011 1.29654 0.782554 58
-1.75999 1.2878 0.339105 41
-2.65853 1.30146 0.5681 61
-1.75895 1.28658 0.187603 44
-2.54996 1.2529 0.344096 27
-1.76305 1.29006 0.0375227 42
-1.41668 0.69966 0.0809899 4
-1.38672 0.685568 -0.0263968 4
-1.75753 1.28789 -0.262864 42
-1.01624 0.501722 -0.253249 4
-1.74822 1.28385 0.491898 41
-2.66435 1.30436 0.784492 65
-1.75001 1.28471 0.337544 42
-2.65846 1.30718 0.568577 68
-1.74667 1.28227 0.186513 42
-2.53685 1.25144 0.342575 29
-1.75073 1.28573 0.0373045 42
-1.42006 0.704089 0.0812516 4
-1.38776 0.689092 -0.0264404 4
-1.75151 1.28771 -0.262255 44
-1.01107 0.501173 -0.252126 3
-1.72778 1.28281 0.487967 41
-2.66205 1.31997 0.785785 74
-1.73136 1.28502 0.335203 42
-2.6584 1.32389 0.570007 77
-1.73216 1.28516 0.185642 42
-2.56137 1.28018 0.346834 32
-1.73015 1.28414 0.0369991 42
-1.41636 0.711515 0.0812516 4
-1.39097 0.699456 -0.0265713 4
-1.0128 0.508628 -0.253249 3
-1.71773 1.28 0.485721 42
-2.65325 1.32139 0.783846 59
-1.72714 1.28656 0.334812 42
-2.64707 1.32461 0.5681 52
-1.72392 1.28371 0.184988 44
-2.57245 1.29131 0.348659 21
-1.72568 1.28596 0.0369555 41
-1.41958 0.716222 0.0815132 4
-1.39421 0.704122 -0.0266585 4
-1.00755 0.508219 -0.252126 4
-1.70106 1.28194 0.482913 42
-2.6288 1.32705 0.778677 33
-1.70635 1.28548 0.332081 41
-2.62038 1.3285 0.563811 33
-1.70104 1.28102 0.183245 42
-2.56099 1.30296 0.348051 15
-1.70296 1.28293 0.0366064 42
-1.41123 0.721632 0.0812516 4
-1.39261 0.712787 -0.0267022 4
-1.70374 1.28538 -0.257387 47
-1.97122 1.00459 -0.345318 12
-1.00261 0.512563 -0.251564 3
-1.69322 1.2802 0.481229 42
-2.60061 1.31857 0.770922 32
-1.69646 1.2822 0.33052 42
-2.58961 1.31864 0.557615 30
-1.69285 1.27948 0.182591 42
-2.52798 1.29123 0.343792 15
-1.69872 1.2844 0.0365628 44
-1.41454 0.726115 0.0815132 4
-1.69048 1.27862 -0.109615 23
-1.39582 0.717489 -0.0267894 4
-1.69579 1.28356 -0.256475 47
-1.97826 1.01251 -0.346884 12
-1.00181 0.514138 -0.251564 4
-1.67875 1.28312 0.478983 42
-2.5767 1.32292 0.765752 30
-1.68187 1.28506 0.328959 42
-2.56325 1.32164 0.553326 30
-1.68041 1.28349 0.181938 44
-2.50133 1.29422 0.341053 15
-1.68426 1.2869 0.0363883 44
-1.40629 0.731221 0.0812516 4
-1.68795 1.29019 -0.109878 27
-1.37662 0.716514 -0.026484 4
-1.97952 1.02625 -0.348059 14
-0.994767 0.517147 -0.250441 4
-1.66707 1.27834 0.476175 42
-2.5529 1.31639 0.75929 30
-1.66984 1.28047 0.327008 42
-2.54349 1.31711 0.549513 32
-1.67027 1.28036 0.181066 45
-2.49246 1.29517 0.340141 15
-1.67408 1.28375 0.0362137 44
-1.40944 0.735972 0.0815132 4
-1.67778 1.28705 -0.109353 30
-1.37759 0.720067 -0.0265277 4
-1.96676 1.02403 -0.346101 14
-0.991698 0.517765 -0.24988 3
-1.65629 1.28435 0.475052 42
-2.52455 1.31859 0.752828 29
-1.65726 1.28466 0.325837 42
-2.51263 1.31791 0.544271 30
-1.65174 1.27993 0.179759 44
-2.47245 1.30129 0.338315 21
-1.65944 1.28637 0.0360392 44
-1.40778 0.744503 0.0816441 4
-1.65524 1.28357 -0.108302 35
-1.37159 0.726107 -0.026484 4
-1.94607 1.02628 -0.343361 14
-0.999766 0.528597 -0.252687 4
-1.64466 1.27947 0.472244 42
-2.50726 1.31517 0.748305 30
-1.64527 1.27996 0.323886 42
-2.49511 1.31432 0.540934 30
-1.64557 1.27975 0.179323 44
-2.46359 1.30213 0.337402 27
-1.64733 1.28158 0.0358211 45
-1.39985 0.743465 0.0812516 4
-1.64906 1.28339 -0.10804 38
-1.36811 0.727333 -0.0264404 4
-1.9268 1.02047 -0.340228 14
-0.990216 0.525809 -0.250441 3
-1.62814 1.28081 0.469437 44
-2.48113 1.31811 0.742489 32
-1.63079 1.28245 0.322325 44
-2.47086 1.31815 0.537122 32
-1.62906 1.28064 0.178233 44
-2.44141 1.30684 0.335273 32
-1.63078 1.28246 0.0356029 45
-1.39814 0.751961 0.0813824 4
-1.63643 1.28737 -0.107646 39
-1.37089 0.738021 -0.0265713 4
-1.90835 1.02357 -0.337879 14
-0.993901 0.534419 -0.252126 4
-1.62039 1.27883 0.467752 44
-2.46389 1.31451 0.737966 32
-1.6208 1.27917 0.320764 44
-2.45123 1.31322 0.533309 32
-1.61901 1.27731 0.177362 45
-2.43256 1.30759 0.33436 32
-1.62266 1.28065 0.035472 44
-1.39243 0.75204 0.0811207 4
-1.62635 1.28403 -0.107121 42
-1.36079 0.735685 -0.0263968 4
-1.61933 1.28076 -0.393789 47
-1.89786 1.02224 -0.336313 14
-0.982224 0.530412 -0.249318 4
-1.60394 1.27998 0.464945 44
-2.43783 1.3171 0.73215 33
-1.60443 1.27993 0.318813 42
-2.42921 1.31787 0.529973 32
-1.60062 1.27644 0.176055 47
-2.41041 1.31203 0.33223 33
-1.61202 1.28601 0.0353848 45
-1.61158 1.28658 -0.106596 44
-1.36351 0.74638 -0.0265277 4
-1.61069 1.28769 -0.393313 52
-1.8838 1.02745 -0.334747 14
-0.988003 0.540186 -0.251564 3
-1.5979 1.27973 0.463822 44
-2.42066 1.31331 0.727626 32
-1.59449 1.27655 0.317252 42
-2.41158 1.31434 0.526637 32
-1.59645 1.27768 0.175837 45
-2.39068 1.30675 0.329796 33
-1.60175 1.28285 0.0352102 45
-1.60154 1.28314 -0.106071 45
-1.35782 0.746364 -0.0264404 4
-1.59505 1.27974 -0.38998 52
-1.86683 1.02247 -0.332007 14
-1.59332 1.28062 -0.537993 58
-0.982778 0.539583 -0.250441 3
-1.58149 1.28068 0.461014 45
-2.39445 1.31596 0.721811 32
-1.57797 1.27738 0.315301 44
-2.3853 1.31631 0.522347 33
-1.58177 1.28003 0.174965 45
-2.3662 1.31008 0.327363 33
-1.5853 1.28335 0.0349921 45
-1.58317 1.28207 -0.105283 45
-1.35814 0.756118 -0.0265277 4
-1.58048 1.28216 -0.388075 53
-1.85064 1.02627 -0.330049 14
-1.57722 1.28132 -0.53476 58
-0.97771 0.543718 -0.24988 3
-1.56814 1.27394 0.457645 44
-2.37733 1.31199 0.717287 33
-1.57021 1.27518 0.314131 44
-2.36796 1.31217 0.519011 33
-1.57181 1.2765 0.174094 47
-2.34894 1.30538 0.325233 33
-1.57724 1.28138 0.0348612 45
-1.57512 1.28011 -0.104889 45
-1.359 0.7597 -0.0265713 4
-1.56492 1.27406 -0.384742 52
-1.83588 1.02232 -0.3277 14
-1.56937 1.27949 -0.53282 58
-0.968325 0.54054 -0.247634 3
-1.55768 1.27904 0.456522 44
-2.35589 1.31579 0.712764 33
-1.55779 1.27868 0.31296 44
-2.34201 1.31337 0.514722 35
-1.5557 1.27653 0.173004 47
-2.32692 1.30917 0.323103 35
-1.56108 1.28141 0.034643 45
-1.56261 1.28358 -0.104495 47
-1.35732 0.767793 -0.0266149 4
