# .PCD v0.7 - Point Cloud Data file format
VERSION 0.7
FIELDS x y z intensity
SIZE 4 4 4 4
TYPE F F F F
COUNT 1 1 1 1
WIDTH 1538
HEIGHT 1
VIEWPOINT 0 0 0 1 0 0 0
POINTS 1538
DATA ascii
-3.17195 -1.92792 0.0641812 29
-0.643781 -0.392431 -0.0378074 15
-2.48428 -2.18228 -0.057113 35
-0.850229 -0.517356 -0.117741 41
-0.591658 -0.514867 -0.0654539 18
-0.851904 -0.517972 -0.186657 41
-1.58634 -1.3931 -0.329266 11
-0.859824 -0.521768 -0.259944 42
-1.24835 -1.09718 -0.3751 14
-7.30537 -4.38421 1.9558 33
-6.25871 -5.49383 2.21907 11
-7.30647 -4.3866 1.3412 35
-6.50592 -5.69108 1.67189 3
-7.41281 -4.45216 0.753461 32
-6.56907 -5.73025 1.06454 3
-3.17343 -1.90614 0.0640067 29
-0.639405 -0.385202 -0.0374136 15
-2.50359 -2.17537 -0.0572875 35
-0.850887 -0.511473 -0.117437 41
-0.586837 -0.505215 -0.064584 18
-0.854694 -0.513355 -0.186657 41
-0.860472 -0.51602 -0.259297 42
-1.25243 -1.0888 -0.374539 14
-7.29761 -4.36398 1.95187 32
-6.28646 -5.49881 2.22553 9
-7.29852 -4.36624 1.33847 33
-6.53434 -5.69585 1.67666 3
-7.39279 -4.4226 0.750629 30
-6.60988 -5.74762 1.06971 3
-3.16817 -1.89547 0.0638322 30
-0.637933 -0.382804 -0.0372823 15
-2.5187 -2.18083 -0.0575493 35
-0.847429 -0.507592 -0.116828 41
-0.587717 -0.504191 -0.064584 18
-0.85348 -0.510606 -0.186181 41
-0.857221 -0.512046 -0.258004 42
-1.26332 -1.09484 -0.377346 14
-7.29938 -4.31332 1.94625 29
-6.33793 -5.48749 2.23393 9
-7.30002 -4.3154 1.33457 32
-6.58351 -5.68035 1.6819 4
-7.40221 -4.37752 0.749322 32
-6.61168 -5.68864 1.06515 3
-3.16911 -1.87432 0.0636576 30
-0.644228 -0.381998 -0.0375448 15
-2.53729 -2.17458 -0.0577238 36
-0.8458 -0.500626 -0.11622 41
-0.590349 -0.501106 -0.064584 18
-0.85394 -0.505033 -0.185705 41
-0.853558 -0.504026 -0.256064 42
-1.27273 -1.09139 -0.378469 14
-7.2922 -4.29193 1.94232 29
-6.36943 -5.49536 2.24168 9
-7.29052 -4.29264 1.33145 33
-6.59812 -5.6709 1.68285 4
-7.38624 -4.3507 0.746925 33
-6.61407 -5.67063 1.06393 3
-3.16624 -1.86443 0.0635268 30
-0.642742 -0.379607 -0.0374136 15
-2.54868 -2.17665 -0.0578984 35
-0.842394 -0.496635 -0.115611 41
-0.583657 -0.493595 -0.0637142 18
-0.856936 -0.504784 -0.186181 41
-0.858691 -0.504828 -0.257357 42
-1.28017 -1.09393 -0.380154 14
-7.29425 -4.24017 1.93671 30
-6.42845 -5.48592 2.25202 9
-7.30296 -4.24692 1.32949 33
-6.62212 -5.63151 1.68142 4
-7.40321 -4.30691 0.746271 33
-6.57844 -5.57855 1.05328 2
-3.17164 -1.84532 0.0634395 32
-0.644721 -0.376236 -0.0374136 15
-2.57568 -2.17575 -0.0582474 35
-0.845069 -0.49207 -0.115611 41
-0.590033 -0.493752 -0.0641491 18
-0.846916 -0.492753 -0.183324 41
-0.852963 -0.495485 -0.254771 42
-1.29164 -1.09172 -0.381839 14
-7.28615 -4.22017 1.93278 30
-6.46376 -5.49661 2.26107 9
-7.28612 -4.22183 1.3252 33
-6.58141 -5.57707 1.66856 2
-7.39347 -4.284 0.744528 33
-6.60425 -5.58264 1.05602 2
-3.1662 -1.83477 0.063265 32
-0.645376 -0.375111 -0.0374136 15
-2.5852 -2.17609 -0.0583783 35
-0.847989 -0.491984 -0.115916 39
-0.590894 -0.492722 -0.0641491 18
-0.84565 -0.490047 -0.182848 41
-0.849643 -0.491583 -0.253477 42
-1.29893 -1.09442 -0.383523 14
-7.28911 -4.17107 1.92772 29
-6.5192 -5.48717 2.27076 9
-7.29741 -4.17749 1.32325 32
-6.56633 -5.50739 1.65759 2
-7.39993 -4.23786 0.743003 33
-6.65812 -5.56869 1.05997 8
-3.16894 -1.815 0.0631341 32
-0.647267 -0.371839 -0.0374136 17
-2.60385 -2.16939 -0.0585528 33
-0.848399 -0.486306 -0.115611 41
-0.587648 -0.484933 -0.0634968 18
-0.848119 -0.485761 -0.182848 41
-0.854218 -0.488472 -0.254124 42
-1.30091 -1.08447 -0.3824 14
-7.28296 -4.15238 1.92435 27
-6.54726 -5.49131 2.27723 9
-7.29181 -4.15741 1.32091 32
-6.65122 -5.55892 1.67666 9
-7.38568 -4.21261 0.740824 33
-6.46967 -5.39173 1.02833 1
-3.16776 -1.80699 0.0630468 33
-0.652253 -0.373181 -0.0376761 17
-2.62108 -2.17604 -0.0588582 33
-0.847089 -0.483597 -0.115307 41
-0.588493 -0.483907 -0.0634968 18
-0.848966 -0.48428 -0.182848 41
-0.850869 -0.484596 -0.252831 42
-1.30654 -1.08532 -0.383523 14
-7.27984 -4.09858 1.91762 23
-6.59821 -5.47547 2.28498 9
-7.28766 -4.10464 1.31623 33
-6.71048 -5.54906 1.68428 14
-7.39245 -4.16532 0.739299 32
-6.70257 -5.52681 1.06089 14
-3.16629 -1.78424 0.0628287 33
-0.652087 -0.368422 -0.0375448 18
-2.64209 -2.17023 -0.0590764 33
-0.845283 -0.476724 -0.114699 39
-0.587258 -0.477549 -0.0630619 18
-0.84507 -0.476222 -0.181419 41
-0.86182 -0.484859 -0.255417 45
-1.32159 -1.08623 -0.386331 12
-7.26573 -4.07395 1.912 21
-6.64125 -5.49167 2.29661 9
-7.28189 -4.08467 1.31388 33
-6.68515 -5.5065 1.67523 14
-7.38667 -4.1451 0.737991 35
-6.67963 -5.48831 1.05571 14
-3.16753 -1.77694 0.062785 33
-0.648373 -0.364843 -0.0372823 20
-2.6536 -2.17196 -0.0592509 33
-0.846114 -0.475248 -0.114699 42
-0.588091 -0.476523 -0.0630619 18
-0.839474 -0.471153 -0.179991 41
-0.858532 -0.480849 -0.254124 44
-1.331 -1.09012 -0.388577 12
-7.27275 -4.02633 1.90807 20
-6.69328 -5.47402 2.30437 8
-7.29308 -4.03923 1.31193 33
-6.68346 -5.4466 1.6676 11
-7.38721 -4.09301 0.735812 32
-6.66303 -5.4145 1.04841 12
-3.16585 -1.75428 0.0625669 33
-0.650274 -0.361443 -0.0372823 20
-2.67696 -2.16702 -0.0595127 33
-0.853017 -0.473063 -0.115307 44
-0.590578 -0.473437 -0.0630619 20
-0.846308 -0.468977 -0.180943 42
-0.863153 -0.477513 -0.254771 45
-1.34255 -1.08751 -0.390261 12
-7.25986 -4.00431 1.90302 17
-6.73464 -5.48828 2.31535 9
-7.28644 -4.02061 1.30959 33
-6.64345 -5.39467 1.65521 11
-7.38343 -4.0741 0.734723 33
-6.63491 -5.37434 1.04263 12
-3.15796 -1.74272 0.0623487 33
-0.650904 -0.360308 -0.0372823 20
-2.68656 -2.16706 -0.0596436 33
-0.847238 -0.468132 -0.114394 42
-0.589467 -0.470839 -0.0628444 20
-0.847125 -0.467499 -0.180943 41
-0.853401 -0.470195 -0.251538 44
-1.34804 -1.08848 -0.391385 12
-7.2465 -3.9476 1.89403 15
-6.78864 -5.47536 2.3244 9
-7.29005 -3.97295 1.30647 33
-6.65346 -5.34713 1.65092 12
-7.38647 -4.02714 0.73298 33
-6.65522 -5.33331 1.04141 14
-3.16016 -1.72312 0.0622178 35
-2.6935 -2.15177 0.178858 3
-0.650589 -0.355701 -0.037151 21
-2.71116 -2.16437 -0.059949 33
-0.851857 -0.464875 -0.114699 44
-0.58998 -0.46619 -0.0626269 18
-0.851637 -0.464377 -0.181419 42
-0.851524 -0.463566 -0.250244 44
-7.21911 -3.91637 1.88505 14
-6.82829 -5.48773 2.33474 8
-7.28178 -3.95198 1.30374 33
-6.6752 -5.34356 1.65378 11
-7.38473 -4.00949 0.732108 32
-6.66258 -5.32014 1.04111 12
-3.16126 -1.71586 0.0621742 33
-2.70701 -2.15485 0.179512 3
-0.653404 -0.355755 -0.0372823 21
-2.72861 -2.17055 -0.0602544 33
-0.850485 -0.462206 -0.114394 44
-0.590793 -0.465159 -0.0626269 18
-0.845971 -0.459386 -0.179991 44
-0.856662 -0.464225 -0.251538 44
-7.21657 -3.86461 1.87887 14
-6.88056 -5.46875 2.34249 8
-7.28346 -3.90204 1.30023 33
-6.7377 -5.33598 1.66236 9
-7.39095 -3.96124 0.730583 33
-6.71851 -5.30556 1.04537 12
-3.16139 -1.69456 0.0619997 35
-2.73626 -2.1541 0.18069 4
-0.653056 -0.35115 -0.037151 23
-2.74816 -2.16195 -0.060429 33
-0.848597 -0.455258 -0.113786 44
-0.59322 -0.462059 -0.0626269 18
-0.852774 -0.457115 -0.180943 42
-1.58962 -1.25016 -0.315171 12
-0.85482 -0.457461 -0.250244 44
-7.19039 -3.83607 1.87045 14
-6.9128 -5.47474 2.35025 8
-7.28522 -3.88826 1.29945 33
-6.77011 -5.34247 1.66808 9
-7.38247 -3.94013 0.729058 32
-6.75413 -5.3165 1.04963 11
-3.16214 -1.68787 0.061956 35
-2.74749 -2.15597 0.181213 4
-0.658074 -0.352359 -0.0374136 23
-2.76372 -2.16642 -0.0606907 33
-0.849311 -0.453924 -0.113786 44
-0.59011 -0.457944 -0.062192 18
-0.84707 -0.452168 -0.179515 42
-1.57628 -1.23516 -0.312039 12
-0.853484 -0.454836 -0.249598 44
-7.18451 -3.78475 1.86371 15
-6.97082 -5.46353 2.36059 8
-7.28145 -3.83741 1.29515 33
-7.38469 -3.89342 0.727315 32
-3.15958 -1.66602 0.0617379 35
-2.77844 -2.15689 0.182522 4
-0.651073 -0.344257 -0.0368885 23
-2.79044 -2.16468 -0.0610398 32
-0.84948 -0.448316 -0.113482 42
-0.590534 -0.453319 -0.0619746 18
-0.849348 -0.447875 -0.179515 44
-0.851498 -0.448266 -0.248304 44
-7.16737 -3.75976 1.85753 15
-7.27283 -3.81666 1.29242 33
-7.37824 -3.87359 0.726007 33
-3.15835 -1.65763 0.0616506 35
-2.79798 -2.16428 0.183568 8
-0.651673 -0.34312 -0.0368885 24
-2.80606 -2.16899 -0.0613016 38
-0.843666 -0.443379 -0.112569 44
-0.591325 -0.452288 -0.0619746 18
-0.850128 -0.446392 -0.179515 44
-0.850216 -0.445513 -0.247658 44
-7.16597 -3.70973 1.85192 18
-7.27802 -3.76931 1.28969 33
-7.3814 -3.82445 0.724264 33
-2.8582 -2.1895 0.437193 3
-3.16254 -1.63877 0.0615634 35
-2.81956 -2.15671 0.184223 9
-0.660113 -0.343146 -0.0372823 24
-2.82172 -2.15682 -0.0613888 49
-0.843848 -0.437669 -0.112265 42
-0.591708 -0.44767 -0.0617571 18
-0.845989 -0.438407 -0.178086 44
-0.850391 -0.439949 -0.247011 44
-0.858773 -0.654494 -0.240895 26
-7.1588 -3.69177 1.84855 20
-7.27296 -3.75221 1.28774 33
-2.86684 -2.1945 0.694398 4
-7.37921 -3.80699 0.723393 33
-2.83997 -2.16841 0.433847 9
-3.16096 -1.63095 0.0614761 36
-2.82889 -2.15683 0.184615 11
-0.656272 -0.339706 -0.0370197 27
-2.83939 -2.16251 -0.0616943 36
-0.840122 -0.434071 -0.111656 42
-0.59051 -0.445125 -0.0615397 18
-0.846753 -0.43693 -0.178086 44
-0.849009 -0.437361 -0.246365 44
-0.854001 -0.648697 -0.239211 33
-7.15415 -3.64209 1.84237 21
-2.87106 -2.1826 0.955737 8
-7.28371 -3.7096 1.28618 33
-2.8525 -2.16066 0.688202 11
-7.38285 -3.76168 0.721868 33
-2.85128 -2.15351 0.433847 14
-3.16026 -1.6104 0.0613016 36
-2.83616 -2.13897 0.184353 14
-0.669108 -0.342041 -0.0376761 27
-2.8503 -2.14811 -0.0616943 17
-0.844596 -0.430791 -0.11196 44
-0.590768 -0.440628 -0.0613222 18
-0.844577 -0.430416 -0.177134 42
-0.853366 -0.43415 -0.247011 44
-7.15334 -3.62754 1.84069 23
-2.86141 -2.16736 0.951213 9
-7.27695 -3.69018 1.28384 33
-2.86214 -2.16012 0.689632 9
-7.3783 -3.74316 0.720778 33
-2.85702 -2.15003 0.434151 29
-3.15638 -1.60149 0.0611707 36
-2.85185 -2.14304 0.185138 11
-0.667477 -0.339744 -0.0375448 29
-2.85604 -2.14464 -0.0617379 2
-0.843132 -0.428195 -0.111656 44
-0.595515 -0.442593 -0.0617571 18
-0.845327 -0.428942 -0.177134 44
-0.843343 -0.42722 -0.243778 44
-7.15606 -3.57882 1.83619 24
-2.87309 -2.15184 0.951213 4
-7.27694 -3.64082 1.28033 33
-2.88165 -2.15049 0.691538 8
-7.3784 -3.69315 0.718817 33
-2.86065 -2.1286 0.432934 1
-3.16052 -1.58215 0.0610834 36
-2.8534 -2.12012 0.184484 2
-0.678238 -0.340593 -0.0380699 33
-2.8676 -2.12915 -0.0617379 3
-0.845437 -0.423627 -0.111656 44
-0.595904 -0.437877 -0.0615397 20
-0.841046 -0.421075 -0.175705 44
-0.84348 -0.421574 -0.243131 44
-0.861973 -0.638065 -0.239211 41
-7.14859 -3.56106 1.83283 24
-2.89038 -2.15695 0.955737 3
-7.26717 -3.62167 1.27759 35
-2.87359 -2.13665 0.688679 2
-7.37591 -3.67583 0.717945 33
-2.87196 -2.13003 0.434151 1
-3.15209 -1.57106 0.0608653 36
-2.87276 -2.12754 0.185531 2
-0.674361 -0.337184 -0.0378074 39
-2.88938 -2.13755 -0.0621306 2
-0.846101 -0.422299 -0.111656 44
-0.596667 -0.436836 -0.0615397 18
-0.843978 -0.420699 -0.176181 44
-0.853115 -0.628036 -0.16248 45
-0.839887 -0.417956 -0.241838 42
-0.859067 -0.6338 -0.238088 39
-7.15839 -3.51928 1.83058 26
-2.8702 -2.1193 0.945397 2
-7.27274 -3.57704 1.27525 35
-2.88437 -2.12208 0.688679 2
-7.37655 -3.62966 0.716202 33
-2.87308 -2.10761 0.43263 1
-2.88788 -2.11543 0.185793 1
-0.689563 -0.340253 -0.038595 45
-2.94248 -2.15396 -0.0630468 9
-0.846073 -0.41677 -0.111352 44
-0.594931 -0.430759 -0.0611048 18
-0.846097 -0.416421 -0.176181 44
-0.860371 -0.626485 -0.163263 45
-0.837654 -0.411576 -0.240545 42
-0.858451 -0.626403 -0.236965 39
-7.14482 -3.49715 1.82553 26
-2.87778 -2.11716 0.94669 2
-7.26788 -3.55891 1.2733 35
-7.36721 -3.60911 0.714677 33
-2.95201 -2.15462 0.189718 3
-0.690155 -0.339049 -0.038595 49
-2.95229 -2.15325 -0.0631777 24
-0.84457 -0.414203 -0.111048 44
-0.597692 -0.43119 -0.0613222 20
-0.844617 -0.413867 -0.175705 44
-0.857479 -0.622065 -0.16248 47
-0.836271 -0.40891 -0.239898 42
-0.85758 -0.623463 -0.236403 39
-7.15048 -3.45209 1.82216 26
-7.27369 -3.51309 1.27096 35
-7.38439 -3.56811 0.714459 33
-2.98385 -2.15325 0.191026 4
-0.689673 -0.334345 -0.0384638 53
-2.98212 -2.15042 -0.0635704 18
-0.846798 -0.409627 -0.111048 44
-0.59187 -0.422216 -0.0604524 20
-0.835787 -0.403968 -0.173324 44
-0.858724 -0.616118 -0.162088 47
-0.849284 -0.409756 -0.243131 45
-0.856997 -0.615952 -0.23528 39
-7.14052 -3.43346 1.81823 26
-7.2614 -3.4931 1.26784 33
-7.37041 -3.54551 0.712498 33
-3.01355 -2.16754 0.192727 4
-0.690255 -0.333141 -0.0384638 53
-3.00007 -2.15544 -0.0638758 17
-0.840729 -0.405076 -0.110135 44
-0.592606 -0.421182 -0.0604524 20
-0.84313 -0.405691 -0.174753 44
-0.857796 -0.613173 -0.161697 47
-0.847819 -0.407231 -0.242485 44
-0.859937 -0.616033 -0.235841 39
-7.14739 -3.39081 1.81542 26
-7.26843 -3.44974 1.26589 33
-7.37026 -3.49961 0.710755 33
-3.05128 -2.17058 0.194428 8
-0.687478 -0.327384 -0.0382012 55
-3.02315 -2.14894 -0.0641376 18
-0.842839 -0.400668 -0.110135 44
-0.596831 -0.419519 -0.0606699 18
-0.842954 -0.400369 -0.174277 44
-0.858985 -0.607239 -0.161305 49
-0.84987 -0.402935 -0.242485 44
-0.853245 -0.604434 -0.233034 41
-7.14669 -3.37521 1.81373 26
-7.26104 -3.43073 1.26355 33
-7.36735 -3.48249 0.709884 33
-3.07565 -2.18309 0.458186 4
-3.05914 -2.16815 0.19469 11
-0.690306 -0.327249 -0.0383325 52
-3.0432 -2.15523 -0.0644866 20
-0.843537 -0.399196 -0.110135 44
-0.599593 -0.419919 -0.0608873 20
-0.841432 -0.397851 -0.173801 42
-0.858032 -0.604308 -0.160914 47
-0.850642 -0.401302 -0.242485 44
-0.852315 -0.60153 -0.232472 41
-7.14718 -3.32827 1.80924 24
-3.08183 -2.17687 1.00032 2
-7.26831 -3.38618 1.26159 33
-3.10098 -2.18239 0.729666 3
-7.36802 -3.43416 0.70814 32
-3.08741 -2.16642 0.458186 9
-3.07286 -2.153 0.194821 11
-0.689747 -0.322576 -0.0382012 52
-3.05687 -2.14017 -0.0645303 15
-0.843434 -0.393581 -0.109831 42
-0.591592 -0.409617 -0.0598 20
-0.845798 -0.394327 -0.174277 44
-0.857249 -0.596816 -0.160131 49
-0.85054 -0.395827 -0.241838 42
-0.853565 -0.595507 -0.231911 41
-7.13251 -3.30782 1.80419 24
-3.08168 -2.1687 0.999032 2
-7.26524 -3.36933 1.26003 33
-3.08672 -2.16427 0.725376 9
-7.36497 -3.41711 0.707269 32
-3.07493 -2.14963 0.455752 11
-3.07253 -2.14477 0.194559 11
-0.683513 -0.318223 -0.0378074 50
-3.06879 -2.14057 -0.0647048 12
-0.84412 -0.392108 -0.109831 44
-0.592307 -0.408584 -0.0598 20
-0.842029 -0.39079 -0.173324 44
-0.854245 -0.592486 -0.159347 49
-0.842459 -0.390295 -0.239252 42
-0.848622 -0.589817 -0.230226 42
-7.15473 -3.2712 1.80531 23
-3.09299 -2.15254 0.999032 9
-7.26482 -3.32303 1.25691 33
-3.10607 -2.15368 0.727283 9
-7.36464 -3.37021 0.705526 32
-3.09431 -2.13915 0.456969 9
-3.09193 -2.13434 0.195082 11
-0.68517 -0.31464 -0.0378074 50
-3.08201 -2.12589 -0.0647484 2
-0.843904 -0.386653 -0.109526 44
-0.590342 -0.402643 -0.0593651 20
-0.841831 -0.385358 -0.172848 44
-0.857232 -0.588155 -0.159347 47
-0.844491 -0.385878 -0.239252 44
-0.849697 -0.583976 -0.229665 41
-7.21751 -3.2862 1.81991 18
-3.11856 -2.1623 1.00614 8
-7.2543 -3.30445 1.25418 35
-3.11385 -2.15105 0.728236 8
-7.35918 -3.35219 0.704436 32
-3.0997 -2.1357 0.457273 2
-3.09939 -2.13231 0.195344 11
-0.683446 -0.31241 -0.0376761 50
-3.09601 -2.1276 -0.0649666 3
-0.849028 -0.38738 -0.110135 45
-0.593094 -0.403025 -0.0595826 21
-0.835798 -0.380845 -0.17142 44
-0.858258 -0.586658 -0.159347 47
-0.838564 -0.381415 -0.237312 42
-0.850613 -0.582641 -0.229665 41
-7.24795 -3.25435 1.82328 14
-3.11951 -2.13965 1.00291 3
-7.267 -3.2644 1.2534 35
-3.12268 -2.13388 0.727759 2
-7.36469 -3.3098 0.703347 33
-3.12314 -2.12784 0.459099 2
-3.11669 -2.12027 0.195736 3
-0.685072 -0.308827 -0.0376761 49
-3.12326 -2.12317 -0.0653156 8
-0.844252 -0.379885 -0.109222 44
-0.59108 -0.397109 -0.0591477 21
-0.842194 -0.378616 -0.172372 44
-0.8552 -0.577979 -0.158173 49
-0.838279 -0.37618 -0.236665 42
-0.853652 -0.578179 -0.229665 41
-7.30256 -3.26355 1.83563 12
-3.14117 -2.14648 1.00873 3
-7.25465 -3.24365 1.25028 35
-3.13285 -2.13203 0.729189 2
-7.35909 -3.29186 0.702257 32
-3.12685 -2.12239 0.459099 3
-3.13278 -2.12325 0.196522 8
-0.68561 -0.307631 -0.0376761 47
-3.13937 -2.12614 -0.0655774 12
-0.844914 -0.378411 -0.109222 45
-0.595893 -0.398875 -0.0595826 20
-0.838371 -0.375148 -0.17142 44
-0.852124 -0.573709 -0.15739 49
-0.836793 -0.373589 -0.236019 44
-0.846608 -0.5712 -0.227419 44
-7.26883 -3.20142 1.82272 30
-3.14874 -2.12675 1.00743 2
-7.26757 -3.20236 1.2495 36
-3.15007 -2.11971 0.730619 3
-7.3654 -3.24697 0.701168 33
-3.14034 -2.10682 0.459403 4
-2.10626 -0.92917 0.0395733 4
-3.14629 -2.10766 0.196652 11
-0.689496 -0.305043 -0.0378074 47
-3.14668 -2.10633 -0.0654901 14
-0.846949 -0.373834 -0.109222 45
-0.595906 -0.394361 -0.0593651 20
-0.840388 -0.370606 -0.17142 44
-0.857165 -0.570617 -0.157781 47
-0.836525 -0.368233 -0.235372 42
-0.845646 -0.563888 -0.226295 42
-7.26046 -3.18413 1.81935 32
-3.16246 -2.128 1.01066 2
-7.2545 -3.18301 1.24638 35
-3.16803 -2.1238 0.733955 4
-7.35052 -3.22511 0.699207 35
-3.16014 -2.11294 0.461837 4
-2.11933 -0.93051 0.0397915 4
-3.15375 -2.10549 0.196914 1
-0.683167 -0.300834 -0.0374136 49
-3.15243 -2.10223 -0.0655338 8
-0.847535 -0.372503 -0.109222 44
-0.596593 -0.39332 -0.0593651 20
-0.843282 -0.370122 -0.171896 45
-0.854057 -0.566372 -0.156998 49
-0.837167 -0.366772 -0.235372 42
-0.846531 -0.562559 -0.226295 44
-7.25914 -3.13834 1.81486 33
-3.16716 -2.10795 1.00873 3
-7.25973 -3.14008 1.24443 35
-3.18895 -2.11453 0.736338 3
-7.35532 -3.18292 0.698118 33
-3.17116 -2.09637 0.461837 3
-2.1286 -0.921755 0.0398787 4
-3.17098 -2.09309 0.197307 8
-0.682441 -0.296263 -0.0372823 45
-3.1672 -2.089 -0.065621 3
-0.84036 -0.364128 -0.108005 44
-0.602799 -0.392939 -0.0598 20
-0.838384 -0.362934 -0.170467 44
-0.861128 -0.564619 -0.157781 47
-0.839013 -0.36253 -0.235372 42
-0.851494 -0.559467 -0.226857 44
-7.25566 -3.12181 1.81261 33
-3.19698 -2.1198 1.01713 2
-7.2584 -3.12448 1.24325 35
-3.18687 -2.10434 0.734908 3
-7.35172 -3.16614 0.697246 33
-3.17067 -2.08809 0.461228 3
-2.13496 -0.919641 0.039966 4
-3.16003 -2.07793 0.196391 2
-0.682957 -0.295071 -0.0372823 49
-3.14996 -2.06972 -0.0651847 1
-0.843274 -0.363639 -0.10831 45
-0.595165 -0.386405 -0.0589302 20
-0.845782 -0.364373 -0.171896 45
-0.85799 -0.560395 -0.156998 47
-0.839707 -0.360919 -0.235372 44
-0.844342 -0.552604 -0.224611 44
-7.26795 -3.08061 1.81149 35
-7.26156 -3.07938 1.24091 33
-7.36415 -3.12437 0.69681 33
-3.17332 -2.06216 0.196522 1
-0.682194 -0.290517 -0.037151 49
-3.16321 -2.05401 -0.0652284 2
-0.847515 -0.360038 -0.108614 45
-0.601354 -0.386002 -0.0593651 20
-0.845481 -0.358836 -0.17142 45
-0.854709 -0.551848 -0.155824 47
-0.837135 -0.35464 -0.234079 42
-0.84528 -0.546695 -0.224049 44
-7.25707 -3.06256 1.80756 33
-7.25046 -3.06125 1.23818 33
-7.35354 -3.10473 0.695285 35
-3.1619 -2.04766 0.195606 2
-0.685001 -0.290296 -0.0372823 49
-3.15211 -2.03896 -0.064923 2
-0.848079 -0.358707 -0.108614 47
-0.602027 -0.384952 -0.0593651 21
-0.837056 -0.353554 -0.169515 45
-0.8536 -0.54901 -0.155432 47
-0.831073 -0.350375 -0.232139 42
-0.844096 -0.544037 -0.223488 44
-7.25951 -3.01891 1.80419 33
-7.25271 -3.01755 1.23584 35
-7.35536 -3.06173 0.693978 35
-3.15577 -2.02029 0.194559 3
-0.686461 -0.286825 -0.0372823 49
-3.1666 -2.02568 -0.0650102 15
-0.845362 -0.352359 -0.108005 45
-0.601871 -0.380555 -0.0591477 20
-0.843369 -0.351193 -0.170467 45
-0.852308 -0.541864 -0.154649 45
-0.832835 -0.346164 -0.232139 42
-0.844885 -0.538291 -0.222926 44
-7.25749 -3.00471 1.8025 33
-7.24427 -2.99923 1.2335 35
-7.35149 -3.04508 0.693106 32
-3.17191 -2.02285 0.195344 9
-0.682347 -0.283718 -0.0370197 49
-3.1596 -2.01342 -0.0647921 14
-0.843682 -0.349936 -0.107701 45
-0.59624 -0.37548 -0.0584953 20
-0.841712 -0.348785 -0.169991 45
-0.853253 -0.540375 -0.154649 45
-0.840137 -0.347468 -0.234079 44
-0.839672 -0.532869 -0.221242 44
-7.26011 -2.95988 1.79913 33
-7.25073 -2.95753 1.23194 36
-7.35119 -2.99996 0.691581 33
-0.683823 -0.280142 -0.0370197 49
-3.16798 -1.99552 -0.0647484 35
-0.847802 -0.346449 -0.108005 45
-0.598197 -0.372353 -0.0584953 20
-0.843527 -0.344373 -0.169991 45
-0.853984 -0.53458 -0.154258 45
-0.832994 -0.339433 -0.231492 42
-0.844508 -0.52977 -0.221803 44
-7.25572 -2.94481 1.79689 33
-7.24673 -2.94115 1.23038 35
-7.34718 -2.98338 0.690709 33
-0.681997 -0.27801 -0.0368885 49
-3.16088 -1.98333 -0.0645303 30
-0.846105 -0.344037 -0.107701 45
-0.841851 -0.34198 -0.169515 45
-0.844471 -0.526506 -0.1523 45
-0.835824 -0.338883 -0.232139 42
-0.843372 -0.526994 -0.221242 42
-7.25848 -2.89882 1.79352 33
-7.25107 -2.89732 1.22843 35
-7.35165 -2.93897 0.68962 32
-7.26242 -4.51306 0.446295 1
-0.68581 -0.275241 -0.0370197 49
-3.1652 -1.96224 -0.0643994 29
-0.843344 -0.337617 -0.107093 45
-0.839129 -0.335604 -0.168563 45
-0.853504 -0.525994 -0.153475 45
-0.835402 -0.333464 -0.231492 42
-0.840011 -0.518554 -0.219557 42
-7.2517 -2.88292 1.79071 32
-7.23955 -2.87954 1.22569 35
-7.30677 -4.54414 1.66427 39
-7.3452 -2.92153 0.68853 32
-7.41006 -4.59594 1.06484 42
-7.25465 -4.49244 0.445379 1
-0.681649 -0.272201 -0.0367572 49
-3.15799 -1.95013 -0.0641812 29
-0.846179 -0.337207 -0.107397 45
-0.839714 -0.334139 -0.168563 45
-0.850224 -0.5219 -0.152692 45
-0.835982 -0.332005 -0.231492 42
-0.840824 -0.517234 -0.219557 41
-7.25989 -2.84225 1.78903 32
-7.24073 -2.8362 1.22335 29
-7.32132 -4.50195 1.66236 41
-7.34366 -2.87796 0.687005 32
-7.4171 -4.5467 1.06241 39
-7.31426 -4.47657 0.447603 1
-0.68074 -0.267719 -0.0366259 50
-3.16143 -1.93021 -0.0640503 29
-0.843311 -0.330966 -0.106788 45
-0.839108 -0.328992 -0.168087 45
-0.85084 -0.51615 -0.1523 47
-0.837652 -0.32777 -0.231492 44
-0.837295 -0.508997 -0.217873 41
-7.31623 -4.49875 2.28886 41
-7.31321 -4.47762 1.65855 38
-7.40386 -4.5208 1.05936 36
-7.29862 -4.44949 0.446164 1
-0.683533 -0.267435 -0.0367572 50
-3.15839 -1.92078 -0.0639194 29
-0.839262 -0.327695 -0.10618 45
-0.835105 -0.325751 -0.167134 45
-0.849633 -0.513377 -0.151909 47
-0.836028 -0.325289 -0.230846 42
-0.840259 -0.508807 -0.218434 42
-7.32602 -4.45031 2.28433 35
-7.31557 -4.42655 1.65378 36
-7.40697 -4.46785 1.05632 35
-7.31403 -4.40478 0.445641 1
-0.682592 -0.26296 -0.0366259 49
-3.16445 -1.90108 -0.0638322 29
-0.84334 -0.324036 -0.106484 45
-0.839148 -0.322104 -0.16761 44
-0.854423 -0.510198 -0.1523 45
-0.833207 -0.319186 -0.229552 42
-0.838831 -0.501732 -0.217311 41
-7.31725 -4.42751 2.27916 33
-7.29387 -4.39603 1.64711 32
-3.08975 -1.18011 0.286307 11
-7.40122 -4.44853 1.0545 33
-7.29954 -4.38043 0.444332 1
-0.68305 -0.261768 -0.0366259 50
-3.15705 -1.88913 -0.063614 30
-0.836891 -0.320063 -0.105571 45
-0.842003 -0.32151 -0.168087 45
-0.85108 -0.506161 -0.151517 47
-0.83602 -0.318588 -0.230199 42
-0.837532 -0.499156 -0.21675 41
-7.31885 -4.37801 2.2727 35
-7.21486 -4.2987 1.62423 26
-3.11434 -1.17146 0.28805 11
-7.40095 -4.39577 1.05115 33
-7.31379 -4.33705 0.443809 1
-0.677399 -0.255558 -0.0362321 50
-3.16012 -1.8693 -0.0634831 30
-0.845526 -0.318288 -0.106484 45
-0.836724 -0.314664 -0.166658 45
-0.849473 -0.499175 -0.150734 47
-0.833098 -0.312663 -0.228906 42
-0.842227 -0.49601 -0.217311 42
-7.30781 -4.35409 2.26689 38
-7.20833 -4.27607 1.6209 20
-3.11871 -1.1669 0.288268 3
-7.39794 -4.37652 1.04963 35
-7.30416 -4.31411 0.442762 1
-0.682522 -0.25612 -0.0364946 50
-3.15693 -1.85996 -0.0633522 30
-0.84143 -0.315079 -0.105876 47
-0.834972 -0.312346 -0.166182 45
-0.854593 -0.500207 -0.151517 47
-0.833696 -0.311063 -0.228906 42
-0.840996 -0.493296 -0.21675 41
-7.31046 -4.30223 2.26042 30
-7.2412 -4.24448 1.62328 18
-3.12264 -1.14915 0.28805 3
-7.40009 -4.3239 1.04659 35
-7.31446 -4.26697 0.441977 1
-0.683854 -0.252543 -0.0364946 50
-3.15831 -1.83782 -0.0631777 30
-0.843122 -0.310522 -0.105876 45
-0.849622 -0.490535 -0.0826328 52
-0.834345 -0.30698 -0.165706 45
-0.850806 -0.491986 -0.150343 44
-0.826241 -0.303378 -0.226319 42
-0.839449 -0.486276 -0.215626 42
-7.24012 -4.22688 1.62137 15
-3.12464 -1.1437 0.28805 2
-7.39186 -4.30352 1.04446 35
-7.31036 -4.2492 0.441323 1
-0.681948 -0.250493 -0.0363633 50
-3.15503 -1.82853 -0.0630468 32
-0.834284 -0.305796 -0.104659 47
-0.848324 -0.487799 -0.0824153 50
-0.837186 -0.306364 -0.166182 44
-0.851663 -0.4905 -0.150343 47
-0.831308 -0.303585 -0.227612 42
-0.838108 -0.483728 -0.215065 41
-7.24867 -4.18281 1.61851 14
-3.12571 -1.12618 0.287614 2
-7.39494 -4.25361 1.04172 35
-1.7095 -0.616255 0.0311089 50
-7.33035 -4.20962 0.441192 1
-0.678551 -0.245231 -0.0361008 49
-3.15991 -1.81005 -0.0629596 32
-0.840545 -0.303099 -0.105267 45
-0.855185 -0.485832 -0.0828502 50
-0.841036 -0.30295 -0.166658 45
-0.84994 -0.483571 -0.14956 45
-0.832834 -0.299374 -0.227612 44
-0.84063 -0.479333 -0.215065 42
-5.80168 -3.34665 1.78288 8
-7.23967 -4.1591 1.6147 14
-3.11125 -1.11485 0.286089 2
-7.39375 -4.23576 1.0405 35
-1.70832 -0.612131 0.0310653 50
-7.33335 -4.19434 0.44093 1
-0.68368 -0.245726 -0.0363633 50
-3.15221 -1.79832 -0.0627414 32
-0.836399 -0.299964 -0.104659 47
-0.849547 -0.480628 -0.0821979 50
-0.832316 -0.298186 -0.164753 45
-0.850783 -0.482087 -0.14956 47
-0.824306 -0.294539 -0.225026 44
-0.839353 -0.476652 -0.214503 42
-5.826 -3.31881 1.78482 9
-7.25068 -4.11507 1.61232 12
-3.10314 -1.09304 0.284781 2
-7.39928 -4.18591 1.03807 35
-1.70679 -0.601519 0.030978 50
-7.35376 -4.15337 0.4408 1
-0.677891 -0.23966 -0.0359695 50
-3.15319 -1.77632 -0.0625669 32
-0.835668 -0.294613 -0.104354 47
-0.852052 -0.476173 -0.0821979 53
-0.83855 -0.295301 -0.165706 45
-0.846849 -0.473976 -0.148385 47
-0.828116 -0.291016 -0.225673 44
-0.841919 -0.472103 -0.214503 42
-5.83388 -3.30983 1.78546 9
-7.24077 -4.09274 1.60851 12
-3.09564 -1.08433 0.28391 3
-7.39288 -4.16696 1.03624 35
-1.70312 -0.59689 0.0308908 50
-7.35375 -4.13814 0.440407 1
-0.683022 -0.240123 -0.0362321 50
-3.14757 -1.76591 -0.0623923 32
-0.833787 -0.292482 -0.10405 45
-0.848541 -0.472242 -0.081763 52
-0.834429 -0.292222 -0.164753 44
-0.849826 -0.47371 -0.148777 47
-0.828623 -0.28957 -0.225673 44
-0.84266 -0.47078 -0.214503 44
-7.24425 -4.04645 1.60469 12
-7.39293 -4.11612 1.0332 35
-1.70612 -0.588262 0.0308908 50
-7.38186 -4.10322 0.4408 15
-0.674826 -0.233299 -0.035707 50
-3.1521 -1.74753 -0.0623051 32
-0.837654 -0.288918 -0.104354 47
-0.846649 -0.465371 -0.081328 52
-0.828932 -0.285608 -0.163325 45
-0.850137 -0.468052 -0.148385 49
-0.827793 -0.284591 -0.225026 42
-0.838732 -0.462798 -0.212819 42
-7.24343 -4.02776 1.60279 12
-7.38057 -4.09237 1.03046 35
-1.69778 -0.581752 0.0307162 50
-7.38246 -4.0867 0.440407 17
-0.677595 -0.232928 -0.0358382 50
-3.15078 -1.7396 -0.0622178 32
-0.831112 -0.285051 -0.103442 47
-0.856175 -0.46872 -0.0821979 53
-0.831752 -0.284952 -0.163801 45
-0.844476 -0.462974 -0.14721 47
-0.823765 -0.281447 -0.223733 42
-0.841668 -0.462518 -0.21338 42
-7.29877 -4.02521 2.22101 35
-7.25797 -3.98623 1.60136 12
-7.3852 -4.04283 1.02803 35
-1.69843 -0.572058 0.0306726 50
-7.40009 -4.0443 0.440145 15
-0.681172 -0.230172 -0.0359695 50
-3.15576 -1.72013 -0.0621306 33
-0.837347 -0.282128 -0.10405 47
-0.856432 -0.463035 -0.0819804 53
-0.833282 -0.280448 -0.163801 44
-0.840392 -0.454986 -0.146036 45
-0.829808 -0.27866 -0.225026 45
-0.839887 -0.455612 -0.212257 42
-7.29732 -4.00781 2.21842 35
-7.24124 -3.96059 1.59611 12
-7.38719 -4.02885 1.02742 35
-1.69943 -0.569093 0.0306726 50
-7.39109 -4.0243 0.439229 14
-0.681572 -0.228983 -0.0359695 50
-3.14997 -1.70984 -0.061956 33
-0.837789 -0.280812 -0.10405 47
-0.855052 -0.460348 -0.081763 52
-0.831441 -0.278218 -0.163325 45
-0.83685 -0.451154 -0.145253 45
-0.828001 -0.27645 -0.224379 44
-0.840602 -0.454293 -0.212257 42
-7.29842 -3.96045 2.2126 35
-7.2504 -3.91805 1.59373 14
-7.38852 -3.97951 1.02468 35
-1.69991 -0.559704 0.030629 50
-7.39667 -3.97726 0.438314 14
-0.68035 -0.224751 -0.0358382 50
-3.14758 -1.68795 -0.0617379 33
-0.834532 -0.274877 -0.103442 47
-0.852985 -0.453654 -0.081328 53
-0.835172 -0.27477 -0.163801 45
-0.843548 -0.449108 -0.146036 49
-0.827094 -0.271506 -0.223733 44
-0.836539 -0.446411 -0.210573 42
-7.29257 -3.94081 2.20873 35
-7.24427 -3.8984 1.59087 12
-7.38016 -3.95839 1.02255 35
-1.69614 -0.555185 0.0305417 52
-7.4014 -3.96317 0.438183 12
-0.678368 -0.222789 -0.035707 52
-3.14832 -1.68128 -0.0616943 33
-0.832651 -0.272651 -0.103137 47
-0.85158 -0.450988 -0.0811106 53
-0.83565 -0.273311 -0.163801 47
-0.839979 -0.4453 -0.145253 45
-0.834458 -0.272299 -0.225673 45
-0.839462 -0.446105 -0.211134 42
-7.29394 -3.89233 2.20291 33
-7.24508 -3.85004 1.58658 12
-7.33914 -2.35638 0.671317 18
-7.39201 -3.91504 1.02133 35
-1.69664 -0.545533 0.0304981 52
-7.4066 -3.91618 0.437267 9
-0.679564 -0.219116 -0.035707 52
-3.15045 -1.66126 -0.0615634 33
-0.831704 -0.267532 -0.102833 47
-0.851807 -0.445209 -0.0808931 52
-0.832394 -0.267438 -0.162849 47
-0.837936 -0.438584 -0.14447 45
-0.824368 -0.264259 -0.222439 44
-0.839635 -0.44056 -0.210573 44
-7.29219 -3.87505 2.20033 35
-6.95224 -2.21754 1.14765 1
-7.24595 -3.83268 1.58515 12
-7.31951 -2.336 0.669138 17
-7.38347 -3.89402 1.0192 35
-1.6953 -0.541516 0.0304544 52
-7.40018 -3.89626 0.436482 8
-0.675187 -0.216415 -0.0354444 52
-3.15113 -1.6546 -0.0615197 33
-0.854786 -0.444883 -0.0811106 52
-0.83052 -0.265242 -0.162373 47
-0.845251 -0.440578 -0.145644 45
-0.824874 -0.262675 -0.222439 45
-0.840403 -0.439094 -0.210573 42
-7.29381 -3.82543 2.19451 35
-7.23752 -2.2654 1.19292 30
-7.2507 -3.78673 1.58182 12
-7.33442 -2.29711 0.669356 18
-7.38683 -3.84484 1.01677 35
-1.69811 -0.532632 0.0304544 53
-7.40122 -3.8458 0.435304 11
-0.676311 -0.212876 -0.0354444 52
-3.15338 -1.63407 -0.0613888 35
-0.852684 -0.438102 -0.0806757 53
-0.827257 -0.259284 -0.16142 47
-0.841053 -0.432577 -0.14447 45
-0.828544 -0.25907 -0.223086 45
-0.842766 -0.434541 -0.210573 42
-7.23516 -2.25082 1.73849 38
-7.29191 -3.80822 2.19193 35
-7.16364 -2.22858 1.18004 30
-7.24642 -3.7684 1.57943 14
-7.30275 -2.27321 0.666088 15
-7.38472 -3.82737 1.01555 35
-1.68949 -0.526699 0.0302799 53
-7.39018 -3.82368 0.434258 11
-0.676682 -0.211696 -0.0354444 50
-3.15179 -1.62626 -0.0613016 35
-0.851236 -0.435468 -0.0804582 53
-0.825364 -0.257114 -0.160944 45
-0.841806 -0.431108 -0.14447 45
-0.828995 -0.257623 -0.223086 45
-0.8392 -0.430822 -0.20945 42
-7.23286 -2.20864 1.73512 32
-7.29607 -3.7635 2.1874 33
-7.23624 -2.21104 1.19018 26
-7.25885 -3.72831 1.578 12
-7.31178 -2.23549 0.66587 15
-7.38633 -3.78089 1.01312 36
-1.69692 -0.519601 0.0303672 53
-7.39833 -3.78054 0.433603 9
-0.677781 -0.20815 -0.0354444 50
-3.14885 -1.6046 -0.0610834 35
-0.851287 -0.429871 -0.0802408 53
-0.831351 -0.254362 -0.161896 47
-0.839582 -0.42459 -0.143687 45
-0.832599 -0.254125 -0.223733 45
-0.837036 -0.424343 -0.208327 42
-7.22272 -2.19177 1.73175 32
-7.28975 -3.74414 2.18353 35
-7.23772 -2.19769 1.18979 26
-7.25944 -3.71101 1.57657 11
-7.29899 -2.21766 0.664345 17
-7.37082 -3.75671 1.01008 35
-1.68595 -0.512715 0.030149 53
-7.39157 -3.76082 0.432818 9
-3.15165 -1.5991 -0.0610834 35
-0.826303 -0.251559 -0.101616 49
-0.856475 -0.430645 -0.0806757 53
-0.827095 -0.25149 -0.160944 47
-0.846921 -0.42649 -0.144861 45
-0.826149 -0.250436 -0.221793 45
-0.837775 -0.422881 -0.208327 42
-7.23914 -2.15405 1.73287 33
-7.29052 -3.6948 2.17771 35
-7.2424 -2.15638 1.18862 26
-7.25906 -3.66298 1.57228 11
-7.31565 -2.17956 0.66478 15
-7.37552 -3.70897 1.00795 35
-1.69341 -0.505306 0.0302363 53
-7.39174 -3.71069 0.431641 9
-0.830031 -0.247791 -0.10192 49
-0.849817 -0.421681 -0.0798059 53
-0.830797 -0.247709 -0.16142 50
-0.835909 -0.415388 -0.142512 45
-0.822817 -0.244738 -0.2205 47
-0.840051 -0.418342 -0.208327 42
-7.22383 -2.13715 1.72838 32
-7.29049 -3.67881 2.17577 35
-7.23158 -2.1408 1.18628 26
-7.26544 -3.65031 1.57228 11
-7.30034 -2.16113 0.663037 14
-7.37469 -3.69404 1.00704 35
-1.69189 -0.501641 0.0301927 53
-7.39532 -3.69795 0.43151 8
-0.672389 -0.200105 -0.0350506 50
-0.828039 -0.245784 -0.101616 49
-0.855006 -0.422426 -0.0802408 52
-0.831228 -0.246258 -0.16142 49
-0.836633 -0.413929 -0.142512 45
-0.818609 -0.24194 -0.219206 45
-0.83853 -0.415928 -0.207765 42
-7.23726 -2.09998 1.72894 33
-7.29173 -3.63323 2.1706 33
-7.24743 -2.10429 1.18706 27
-7.27064 -3.60694 1.56942 11
-7.32314 -2.12763 0.664127 12
-7.37391 -3.64546 1.0043 35
-1.69441 -0.493072 0.0301927 53
-7.39444 -3.64922 0.430332 8
-0.675791 -0.197394 -0.0351819 50
-0.824548 -0.240066 -0.101008 49
-0.850434 -0.414784 -0.0795884 52
-0.834821 -0.242729 -0.161896 50
-0.836576 -0.408448 -0.142121 45
-0.829104 -0.240469 -0.221793 47
-0.831967 -0.407203 -0.205519 42
-7.22884 -2.08523 1.72613 33
-7.28941 -3.6162 2.16802 36
-7.23923 -2.08821 1.18511 26
-7.27252 -3.59207 1.56847 11
-7.32206 -2.11346 0.663691 12
-7.37359 -3.6293 1.00338 35
-1.68325 -0.486652 0.0299745 55
-7.3896 -3.6308 0.429678 8
-0.673735 -0.195523 -0.0350506 49
-0.824965 -0.238626 -0.101008 49
-0.851157 -0.413299 -0.0795884 52
-0.823449 -0.237885 -0.159516 47
-0.837288 -0.406987 -0.142121 45
-0.822558 -0.237027 -0.219853 47
-0.839229 -0.408986 -0.207204 42
-7.23064 -2.04344 1.72389 33
-7.28872 -3.56842 2.1622 35
-7.25244 -2.05095 1.1855 26
-7.28461 -3.55071 1.56704 11
-7.32823 -2.07374 0.663255 12
-7.37241 -3.58087 1.00065 35
-1.69059 -0.479191 0.0300618 53
-7.39503 -3.58552 0.428893 4
-0.679589 -0.193231 -0.0353131 50
-0.826204 -0.234304 -0.101008 50
-0.846658 -0.405427 -0.078936 52
-0.829408 -0.234901 -0.160468 49
-0.834965 -0.400439 -0.141338 47
-0.823788 -0.232717 -0.219853 47
-0.834789 -0.401385 -0.205519 42
-7.21543 -2.02556 1.7194 32
-7.28626 -3.55145 2.15962 36
-7.25125 -2.03696 1.18472 26
-7.27596 -3.52921 1.56371 9
-7.36524 -3.56151 0.998821 35
-1.68188 -0.473244 0.0298872 53
-7.40353 -3.57369 0.429024 4
-0.672713 -0.190023 -0.0349193 50
-0.821832 -0.231523 -0.100399 50
-0.849607 -0.405031 -0.0791535 52
-0.82509 -0.232131 -0.159516 49
-0.835663 -0.398981 -0.141338 45
-0.817254 -0.22919 -0.217913 45
-0.835489 -0.399927 -0.205519 42
-7.21454 -1.98326 1.71659 33
-7.28143 -3.50045 2.15251 35
-7.26217 -1.99769 1.18472 26
-7.28328 -3.48576 1.56132 11
-7.37545 -3.51733 0.997604 35
-1.68675 -0.465094 0.0299309 52
-7.40923 -3.52714 0.428239 4
-0.676106 -0.18716 -0.0350506 50
-0.825466 -0.227729 -0.100704 49
-0.826333 -0.227663 -0.159516 50
-0.831056 -0.391408 -0.140163 45
-0.825432 -0.226816 -0.219853 47
-0.831048 -0.392246 -0.203834 42
-7.20825 -1.96936 1.71434 32
-7.281 -3.48461 2.15057 35
-7.26291 -1.98563 1.18433 29
-7.28935 -3.47304 1.56132 9
-7.36752 -3.49934 0.995778 35
-1.68514 -0.461491 0.0298872 55
-0.674023 -0.185322 -0.0349193 50
-0.825823 -0.226433 -0.100704 50
-0.821993 -0.224933 -0.158563 49
-0.833968 -0.391017 -0.140555 45
-0.818834 -0.223479 -0.217913 45
-0.836061 -0.393036 -0.204957 44
-7.21611 -1.93096 1.71378 32
-7.27671 -3.43738 2.14411 33
-7.2756 -1.94822 1.18472 29
-7.28685 -3.42669 1.55703 9
-7.37002 -3.45334 0.993649 35
-1.68987 -0.453602 0.0299309 55
-0.677396 -0.182435 -0.0350506 52
-0.824599 -0.221466 -0.100399 50
-0.84547 -0.390399 -0.0782837 53
-0.827864 -0.222034 -0.159516 50
-0.833768 -0.385597 -0.140163 45
-0.826957 -0.221192 -0.219853 47
-0.829289 -0.384507 -0.202711 42
-7.20534 -1.91461 1.71041 33
-7.27615 -3.42159 2.14217 35
-7.26705 -1.93234 1.18277 29
-7.2912 -3.41165 1.55656 11
-7.36479 -3.43522 0.992128 35
-1.68349 -0.448432 0.0298 55
-0.668062 -0.178692 -0.0345255 52
-0.822586 -0.219391 -0.100095 50
-0.852922 -0.392078 -0.078936 52
-0.821132 -0.218705 -0.158087 50
-0.83444 -0.384141 -0.140163 47
-0.82271 -0.218373 -0.21856 47
-0.832165 -0.384092 -0.203273 42
-7.22031 -1.87682 1.71154 35
-7.28141 -3.37607 2.13829 35
-7.27501 -1.89238 1.18238 30
-7.28668 -3.36313 1.55179 11
-7.35848 -3.3839 0.988781 33
-1.68824 -0.44024 0.0298436 55
-0.671404 -0.175819 -0.0346568 52
-0.826163 -0.215559 -0.100399 50
-0.845911 -0.383447 -0.0780662 53
-0.827056 -0.215489 -0.159039 50
-0.827468 -0.375637 -0.138597 45
-0.82618 -0.214666 -0.219206 47
-0.825383 -0.375501 -0.201027 42
-7.21617 -1.86365 1.70985 33
-7.26975 -3.35525 2.13312 35
-7.28036 -1.88156 1.18277 29
-7.29254 -3.35041 1.55179 12
-7.35251 -3.36717 0.98726 35
-1.68658 -0.436669 0.0298 55
-0.674128 -0.17527 -0.034788 53
-2.05218 -0.933009 -0.0387443 4
-0.824098 -0.213643 -0.100095 50
-0.84205 -0.379898 -0.0776313 53
-0.82743 -0.214045 -0.159039 50
-0.830367 -0.375221 -0.138989 47
-0.828893 -0.213823 -0.219853 47
-0.830399 -0.376239 -0.20215 42
-7.21638 -1.82346 1.7076 33
-7.28225 -3.3164 2.13183 35
-7.27815 -1.84039 1.18082 30
-7.28483 -3.3023 1.54655 14
-7.36552 -3.32658 0.986651 33
-1.68635 -0.427514 0.0297564 55
-0.675036 -0.171738 -0.034788 52
-2.06599 -0.926722 -0.0389189 4
-0.825205 -0.209325 -0.100095 50
-0.844027 -0.375484 -0.0776313 53
-0.823743 -0.208657 -0.158087 50
-0.827821 -0.368834 -0.138206 49
-0.827622 -0.209037 -0.219206 47
-0.832358 -0.371886 -0.20215 44
-7.21246 -1.80909 1.70592 33
-7.26604 -3.29371 2.12537 35
-7.28614 -1.82889 1.1816 30
-7.28444 -3.28527 1.54512 14
-7.31406 -1.83724 0.656718 12
-7.35095 -3.30455 0.983913 33
-1.68716 -0.424276 0.0297564 56
-0.675335 -0.17056 -0.034788 53
-2.06761 -0.923115 -0.0389189 4
-0.820754 -0.20668 -0.0994866 50
-0.849225 -0.37605 -0.0780662 53
-0.826487 -0.207813 -0.158563 50
-0.830715 -0.368402 -0.138597 47
-0.825678 -0.206865 -0.21856 47
-0.828564 -0.368429 -0.201027 42
-7.21505 -1.7683 1.70424 33
-7.27493 -3.2504 2.12278 35
-7.29113 -1.78826 1.18082 32
-7.28809 -3.2411 1.54226 21
-7.29487 -1.79052 0.654104 14
-7.35964 -3.2607 0.982696 33
-1.69179 -0.416031 0.0298 56
-0.673794 -0.166427 -0.0346568 53
-2.08171 -0.91596 -0.0390934 4
-0.824271 -0.202826 -0.0997908 50
-0.846628 -0.369582 -0.0776313 53
-0.822831 -0.202175 -0.157611 50
-0.832632 -0.364047 -0.138597 47
-0.82675 -0.202539 -0.21856 49
-0.828319 -0.362951 -0.200465 44
-7.21545 -1.75639 1.70367 33
-7.26515 -3.23082 2.11826 35
-7.29153 -1.77623 1.18043 32
-7.27355 -3.21942 1.53797 35
-7.3004 -1.77837 0.654322 17
-7.3466 -3.24112 0.980262 33
-1.68523 -0.411305 0.0296691 55
-0.676509 -0.165841 -0.034788 53
-2.08788 -0.914341 -0.0391806 4
-0.819766 -0.20036 -0.0991823 50
-0.840434 -0.365091 -0.076979 53
-0.825568 -0.201316 -0.158087 50
-0.831008 -0.361596 -0.138206 47
-0.824755 -0.200529 -0.217913 47
-0.824434 -0.359677 -0.199342 42
-7.21744 -1.71689 1.70199 33
-7.27036 -3.18915 2.11503 33
-7.29112 -1.73574 1.17887 32
-7.26951 -3.17371 1.53368 35
-7.30204 -1.73967 0.653668 20
-7.35892 -3.20062 0.979654 32
-1.68486 -0.402192 0.0296255 56
-3.14284 -1.36133 0.177681 3
-0.674911 -0.161837 -0.0346568 53
-2.10395 -0.908741 -0.0393988 4
-0.823218 -0.196638 -0.0994866 50
-0.842272 -0.360833 -0.076979 53
-0.824188 -0.19657 -0.157611 50
-0.830626 -0.356254 -0.137814 47
-0.821059 -0.195242 -0.21662 47
-0.826306 -0.355355 -0.199342 42
-7.21301 -1.70387 1.7003 33
-7.26042 -3.16968 2.1105 33
-7.29654 -1.72358 1.17926 32
-7.26154 -3.15514 1.53082 35
-7.28325 -1.72177 0.651707 20
-7.35084 -3.18185 0.977828 33
-1.68556 -0.399251 0.0296255 58
-0.670333 -0.159513 -0.0343942 53
-2.10783 -0.906059 -0.0394424 4
-0.821145 -0.194632 -0.0991823 50
-0.840614 -0.358374 -0.0767615 53
-0.819751 -0.194009 -0.156659 50
-0.831246 -0.354804 -0.137814 47
-0.82375 -0.19436 -0.217266 47
-0.822456 -0.351971 -0.198219 42
-7.21263 -1.66264 1.69806 35
-7.26583 -3.12684 2.10727 33
-7.29584 -1.68313 1.1777 33
-7.26443 -3.11127 1.52796 35
-7.28489 -1.68193 0.651053 18
-7.34686 -3.13454 0.97509 32
-1.68275 -0.389297 0.0295382 56
-3.13619 -1.3325 0.176765 3
-0.673619 -0.156444 -0.0345255 53
-0.824571 -0.190886 -0.0994866 52
-0.844832 -0.354797 -0.076979 53
-0.823148 -0.190262 -0.157135 49
-0.830822 -0.349477 -0.137423 47
-0.824756 -0.190044 -0.217266 47
-0.831006 -0.350537 -0.199904 44
-7.20602 -1.64787 1.69581 35
-7.26462 -3.1113 2.10533 33
-7.29877 -1.67039 1.1777 33
-7.25459 -3.09058 1.52462 33
-7.29024 -1.66977 0.651271 17
-7.34547 -3.1188 0.974177 32
-1.67862 -0.384952 0.0294509 56
-0.673891 -0.155268 -0.0345255 53
-0.822483 -0.188895 -0.0991823 50
-0.840864 -0.351377 -0.076544 53
-0.823479 -0.188826 -0.157135 50
-0.83143 -0.348027 -0.137423 49
-0.82983 -0.189528 -0.21856 47
-0.822652 -0.345266 -0.197658 44
-7.21721 -1.60939 1.69637 33
-7.26577 -3.06537 2.10081 33
-7.30047 -1.62927 1.17653 33
-7.26162 -3.04875 1.52272 33
-7.2943 -1.62922 0.650836 15
-7.34621 -3.0723 0.972048 33
-1.68305 -0.376702 0.0294946 58
-0.672258 -0.151194 -0.0343942 53
-0.823493 -0.184442 -0.0991823 50
-0.84499 -0.34793 -0.0767615 53
-0.826884 -0.184899 -0.157611 50
-0.828746 -0.341617 -0.136639 47
-0.828453 -0.184659 -0.217913 47
-0.822261 -0.339867 -0.197096 44
-7.20308 -1.59437 1.69244 35
-7.25776 -3.04706 2.09693 33
-7.3033 -1.61652 1.17653 35
-7.25108 -3.02944 1.51938 33
-7.2947 -1.61594 0.650618 15
-7.34011 -3.0547 0.970526 33
-1.68859 -0.374843 0.0295818 56
-0.670083 -0.149482 -0.0342629 53
-0.823814 -0.183005 -0.0991823 50
-0.840997 -0.344542 -0.0763266 53
-0.822412 -0.182401 -0.156659 50
-0.83162 -0.341119 -0.137031 47
-0.826415 -0.182695 -0.217266 47
-0.825101 -0.33937 -0.197658 44
-7.20895 -1.55612 1.69188 33
-7.25747 -3.00381 2.09241 33
-7.30415 -1.57797 1.17536 33
-7.25952 -2.98989 1.51795 33
-7.29792 -1.57795 0.650182 15
-7.3486 -3.01468 0.969614 33
-1.68069 -0.364182 0.0294073 58
-0.673297 -0.146497 -0.0343942 55
-0.822304 -0.178311 -0.0988781 50
-0.84279 -0.340133 -0.0763266 53
-0.820925 -0.17772 -0.156182 50
-0.833336 -0.336906 -0.137031 47
-0.822606 -0.177499 -0.215973 49
-0.826808 -0.33519 -0.197658 44
-7.20689 -1.54252 1.69076 35
-7.26493 -2.99206 2.09306 35
-7.30689 -1.56522 1.17536 35
-7.24481 -2.96756 1.51366 33
-7.29823 -1.56469 0.649964 15
-7.34006 -2.99622 0.967788 32
-1.68383 -0.361477 0.0294509 58
-0.673552 -0.145322 -0.0343942 53
-0.827467 -0.17791 -0.0994866 53
-0.843382 -0.338662 -0.0763266 53
-0.823635 -0.176798 -0.156659 50
-0.829351 -0.333583 -0.136248 47
-0.820583 -0.175419 -0.215327 47
-0.818375 -0.330052 -0.195412 42
-7.20797 -1.50201 1.68907 33
-7.26983 -2.94817 2.08983 35
-7.25797 -2.92867 1.51319 35
-7.29927 -1.52365 0.64931 17
-7.35387 -2.95553 0.967484 32
-1.68081 -0.351636 0.0293637 58
-0.674303 -0.141793 -0.0343942 53
-0.830848 -0.173935 -0.0997908 52
-0.840522 -0.332385 -0.0758917 53
-0.822176 -0.171842 -0.156182 50
-0.828796 -0.328314 -0.135856 47
-0.823855 -0.171608 -0.215973 47
-0.820149 -0.325619 -0.195412 42
-7.19362 -1.48724 1.68514 33
-7.27049 -2.93367 2.08853 35
-7.25852 -2.91416 1.51223 36
-7.28241 -1.50688 0.647567 20
-7.34007 -2.93659 0.96505 33
-1.67897 -0.348196 0.02932 55
-0.821398 -0.170627 -0.0985738 50
-0.843413 -0.331842 -0.0761091 53
-0.822475 -0.170406 -0.156182 50
-0.829367 -0.326867 -0.135856 47
-0.817056 -0.168717 -0.214033 47
-0.82292 -0.325238 -0.195973 42
-7.2037 -1.45003 1.6857 35
-7.26729 -2.88968 2.08336 35
-7.0495 -1.42029 1.13087 1
-7.25949 -2.87196 1.50937 35
-7.29483 -1.47098 0.648003 27
-7.3415 -2.89265 0.963225 29
-1.68071 -0.339694 0.02932 55
-0.82228 -0.166324 -0.0985738 53
-0.842821 -0.326509 -0.0758917 53
-0.823327 -0.166241 -0.156182 50
-0.828771 -0.321615 -0.135465 47
-0.825004 -0.165997 -0.215973 50
-0.817816 -0.318237 -0.194288 39
-7.19905 -1.43603 1.68402 36
-7.26559 -2.87432 2.08143 33
-7.03986 -1.40557 1.12892 1
-7.29006 -1.45679 0.647349 33
-1.67401 -0.335001 0.0291891 58
-0.825003 -0.165372 -0.0988781 53
-0.848028 -0.326854 -0.0763266 52
-0.821208 -0.164326 -0.155706 50
-0.829331 -0.320168 -0.135465 47
-0.818214 -0.163009 -0.214033 47
-0.822904 -0.318593 -0.195412 41
-7.20432 -1.3966 1.68346 36
-7.04493 -1.36699 1.12853 1
-7.29539 -1.41685 0.647131 35
-1.67819 -0.326707 0.0292328 58
-1.70186 -0.651226 0.0936814 29
-0.828322 -0.161377 -0.0991823 53
-0.840433 -0.318826 -0.0754568 53
-0.826905 -0.16081 -0.156659 52
-0.830996 -0.315821 -0.135465 47
-0.823799 -0.159633 -0.215327 50
-0.8178 -0.311497 -0.193727 41
-7.20172 -1.38436 1.68234 36
-7.0301 -1.35266 1.1258 1
-3.17061 -1.21889 0.652934 9
-7.28562 -1.40176 0.646042 35
-3.08884 -1.18303 0.401293 11
-1.67385 -0.322835 0.0291455 59
-1.71687 -0.65392 0.0944664 47
-0.669092 -0.129773 -0.0340004 53
-1.70292 -0.647552 -0.0311962 39
-0.821263 -0.158676 -0.0982696 52
-0.845639 -0.319142 -0.0758917 53
-0.819952 -0.157986 -0.15523 50
-0.83385 -0.315256 -0.135856 47
-0.824077 -0.158195 -0.215327 50
-0.820562 -0.311088 -0.194288 42
-7.20408 -1.34574 1.68121 36
-7.03223 -1.31493 1.12502 1
-3.13545 -1.18712 0.644355 2
-7.03313 -1.31635 0.622946 1
-3.08571 -1.16332 0.400076 11
-1.67792 -0.314818 0.0291891 59
-1.70859 -0.640509 0.0938122 47
-0.667308 -0.125811 -0.0338691 53
-1.70618 -0.638924 -0.0311962 53
-0.826962 -0.155281 -0.0988781 53
-0.844968 -0.31383 -0.0756742 53
-0.818328 -0.153385 -0.154754 50
-0.83318 -0.310012 -0.135465 47
-0.824867 -0.154022 -0.215327 50
-0.815346 -0.304195 -0.192604 42
-7.20163 -1.33228 1.68009 36
-7.02966 -1.30175 1.12424 1
-3.1492 -1.18544 0.646738 2
-7.02562 -1.30226 0.622074 1
-3.09935 -1.16231 0.401597 11
-1.67361 -0.310687 0.0291019 58
-1.70971 -0.637526 0.0938122 49
-0.662616 -0.123739 -0.0336066 53
-0.822351 -0.152938 -0.0982696 53
-0.840851 -0.310604 -0.0752393 53
-0.818595 -0.151957 -0.154754 52
-0.83372 -0.308557 -0.135465 47
-0.813284 -0.150265 -0.212093 47
-0.820434 -0.304492 -0.193727 44
-7.20633 -1.29286 1.67953 36
-7.0366 -1.2637 1.12424 1
-3.12317 -1.15695 0.640066 2
-7.03011 -1.26379 0.621856 1
-3.11257 -1.14811 0.40251 2
-1.67521 -0.30192 0.0291019 59
-1.70376 -0.624803 0.0932888 45
-0.66817 -0.121149 -0.0338691 55
-0.825609 -0.148923 -0.0985738 53
-0.84013 -0.305334 -0.0750219 53
-0.824237 -0.148387 -0.155706 50
-0.830693 -0.302473 -0.134682 47
-0.816437 -0.146427 -0.21274 47
-0.812935 -0.296657 -0.191481 44
-7.19636 -1.27941 1.67672 35
-7.02885 -1.25092 1.12268 1
-3.13899 -1.15661 0.642926 2
-7.0225 -1.24978 0.620985 1
-3.11437 -1.14322 0.40251 11
-1.66835 -0.297684 0.028971 62
-1.70474 -0.622126 0.0932888 45
-0.66838 -0.119982 -0.0338691 53
-1.70241 -0.620264 -0.0310216 50
-0.818512 -0.146328 -0.0976611 52
-0.842999 -0.304726 -0.0752393 53
-0.817244 -0.145669 -0.154278 50
-0.826586 -0.299316 -0.133899 47
-0.816691 -0.145002 -0.21274 47
-0.820255 -0.297912 -0.193165 45
-7.20056 -1.2413 1.67616 35
-7.0353 -1.2141 1.12268 1
-3.14019 -1.13903 0.641972 3
-7.02873 -1.21422 0.620985 1
-3.13431 -1.13197 0.404335 2
-1.67476 -0.290086 0.0290583 44
-1.70563 -0.612342 0.093158 47
-0.67146 -0.116904 -0.0340004 55
-1.69613 -0.60824 -0.0308471 50
-0.821712 -0.14246 -0.0979654 52
-0.839899 -0.298614 -0.0748044 53
-0.817971 -0.14153 -0.154278 52
-0.82582 -0.294142 -0.133507 47
-0.822176 -0.141678 -0.214033 47
-0.812645 -0.290284 -0.190919 44
-7.18831 -1.22628 1.67279 35
-7.03011 -1.20057 1.1215 1
-3.1516 -1.13634 0.643879 2
-7.04066 -1.20362 0.621856 1
-3.13628 -1.1265 0.404335 2
-1.68271 -0.288129 0.0291891 14
-1.7067 -0.609364 0.093158 47
-0.656896 -0.113219 -0.0332127 53
-1.69954 -0.606125 -0.0308908 52
-0.82196 -0.141026 -0.0979654 52
-0.842762 -0.297991 -0.0750219 53
-0.815797 -0.139692 -0.153802 50
-0.828655 -0.293538 -0.133899 49
-0.817684 -0.139296 -0.21274 47
-0.820024 -0.29135 -0.192604 45
-7.19484 -1.18737 1.67279 35
-7.03163 -1.16171 1.12072 1
-3.12746 -1.10912 0.637683 2
-7.05444 -1.16673 0.62251 1
-3.1283 -1.10454 0.40251 2
-1.70526 -0.598455 0.0928963 49
-0.662406 -0.11059 -0.0334753 55
-1.69572 -0.594421 -0.0307599 52
-0.822711 -0.136577 -0.0979654 53
-0.839615 -0.291913 -0.074587 53
-0.821385 -0.136071 -0.154754 50
-0.827854 -0.28837 -0.133507 49
-0.818402 -0.135013 -0.21274 47
-0.812406 -0.283645 -0.190358 44
-7.1967 -1.17606 1.67279 35
-7.03101 -1.15027 1.12033 1
-7.28505 -1.19177 0.642774 30
-3.13003 -1.09962 0.40251 2
-1.70149 -0.594117 0.0926346 50
-0.665062 -0.109835 -0.0336066 55
-1.69676 -0.59146 -0.0307599 52
-0.825374 -0.135683 -0.0982696 53
-0.835425 -0.288794 -0.074152 53
-0.819199 -0.134244 -0.154278 50
-0.826027 -0.286103 -0.133116 47
-0.82102 -0.133969 -0.213387 49
-0.812851 -0.282369 -0.190358 44
-7.19554 -1.13723 1.67111 36
-7.0223 -1.11113 1.11799 1
-7.28361 -1.15371 0.64212 36
-3.10293 -1.07183 0.398251 2
-1.69986 -0.583566 0.092373 49
-0.665628 -0.106352 -0.0336066 56
-1.69973 -0.582865 -0.0307599 52
-0.823621 -0.130974 -0.0979654 55
-0.834572 -0.283602 -0.0739346 53
-0.822292 -0.130476 -0.154754 52
-0.820515 -0.279348 -0.131941 47
-0.819302 -0.129439 -0.21274 47
-0.812017 -0.277309 -0.189796 42
-7.1951 -1.12429 1.67054 35
-7.02179 -1.09849 1.1176 1
-7.28561 -1.141 0.64212 30
-3.12121 -1.07208 0.40038 3
-1.69615 -0.578973 0.0921113 49
-0.663346 -0.104805 -0.0334753 56
-1.69365 -0.577458 -0.030629 53
-0.821397 -0.129155 -0.0976611 53
-0.83742 -0.282955 -0.074152 53
-0.824944 -0.129417 -0.15523 52
-0.82567 -0.279525 -0.132724 47
-0.819549 -0.127866 -0.21274 50
