# .PCD v0.7 - Point Cloud Data file format
VERSION 0.7
FIELDS x y z intensity
SIZE 4 4 4 4
TYPE F F F F
COUNT 1 1 1 1
WIDTH 1549
HEIGHT 1
VIEWPOINT 0 0 0 1 0 0 0
POINTS 1549
DATA ascii
0.209768 -2.30269 -0.609768 58
0.884938 -3.21353 -0.760308 4
1.80062 -6.59146 1.81907 1
1.78972 -6.59663 1.32064 36
0.197869 -2.25028 0.194575 11
1.77889 -6.593 0.83301 33
0.201005 -2.29081 0.0395297 58
0.200396 -2.29308 -0.119198 56
1.33105 -4.95833 -0.0890073 45
0.199701 -2.29429 -0.278076 55
1.33205 -4.96206 -0.445565 47
0.19888 -2.29406 -0.439977 50
1.24291 -4.61851 -0.752887 8
0.19811 -2.30373 -0.609768 58
0.869376 -3.22282 -0.761431 4
1.78024 -6.56197 1.81002 1
1.77577 -6.59531 1.31969 36
0.194578 -2.25806 0.195229 11
1.76352 -6.58172 0.831184 32
0.197031 -2.29617 0.039617 58
0.196817 -2.2984 -0.119461 58
1.32111 -4.95581 -0.08892 45
0.195487 -2.29217 -0.277771 55
1.31952 -4.94994 -0.44426 45
0.19467 -2.29196 -0.439501 52
1.22908 -4.59921 -0.749364 4
0.193084 -2.29688 -0.607829 59
0.86375 -3.22434 -0.761431 4
0.366364 -4.57586 1.05006 8
1.75403 -6.60651 1.81971 12
1.73871 -6.59503 1.31778 35
0.18196 -2.25412 0.194793 11
1.72599 -6.58397 0.830272 29
0.184607 -2.29219 0.0395297 59
1.29443 -4.95643 0.266652 8
0.184581 -2.29691 -0.11933 58
1.29301 -4.95805 -0.0888327 45
0.183278 -2.29566 -0.278076 55
1.29422 -4.95919 -0.444477 42
0.182266 -2.29298 -0.439501 52
1.20624 -4.61036 -0.750147 4
0.180867 -2.29545 -0.607182 61
0.36791 -4.68815 1.07589 1
1.72274 -6.53485 1.79903 1
1.72595 -6.5933 1.31683 35
0.17822 -2.25691 0.195011 11
0.180606 -2.2925 0.0395297 61
1.28412 -4.9488 0.266128 4
0.180378 -2.29474 -0.119198 59
1.27995 -4.94337 -0.0885273 14
0.17948 -2.29348 -0.277771 55
1.2749 -4.92046 -0.440781 2
0.178264 -2.29329 -0.439501 52
1.19196 -4.58856 -0.746232 4
0.177229 -2.30058 -0.608475 61
0.33946 -4.63656 1.06353 3
1.68662 -6.53179 1.7958 1
0.166431 -2.25282 0.194575 11
0.169183 -2.29588 0.0395733 65
1.25079 -4.92642 0.264558 1
0.168579 -2.29314 -0.119067 59
1.24382 -4.90618 -0.087742 2
0.167469 -2.29438 -0.277771 55
1.24875 -4.92203 -0.440346 2
0.166478 -2.29172 -0.439025 52
1.16731 -4.59235 -0.74584 4
0.165582 -2.30145 -0.608475 59
0.162143 -2.24814 0.194139 11
0.165175 -2.29617 0.0395733 67
1.23607 -4.90439 0.26325 2
0.164577 -2.29343 -0.119067 62
0.163114 -2.28972 -0.277163 55
1.23161 -4.8904 -0.437301 2
0.162478 -2.292 -0.439025 52
1.16354 -4.61113 -0.748581 4
0.160895 -2.2921 -0.605889 61
1.21631 -4.89471 0.972729 2
0.150798 -2.26141 0.195229 11
0.152749 -2.29703 0.0395733 70
0.15233 -2.29678 -0.119198 64
0.150885 -2.29305 -0.277467 56
0.149916 -2.2904 -0.438549 52
1.1376 -4.60997 -0.747406 3
0.1488 -2.29776 -0.607182 59
0.368534 -5.72362 1.31397 1
1.21739 -4.89928 1.34152 1
1.21248 -4.91588 0.976541 2
0.146371 -2.25421 0.194575 11
0.14842 -2.29231 0.0394861 76
0.147683 -2.28707 -0.118673 61
0.147125 -2.29081 -0.277163 55
0.145918 -2.29066 -0.438549 52
0.144338 -2.29078 -0.605242 61
0.335839 -5.67927 1.3033 1
1.19544 -4.91711 1.34475 2
0.134813 -2.25244 0.194357 12
0.136816 -2.29303 0.0394861 77
0.135853 -2.29031 -0.118804 65
0.13484 -2.28659 -0.276554 56
0.134464 -2.29382 -0.439025 52
0.13288 -2.29389 -0.605889 61
0.326899 -5.69687 1.30724 1
0.131024 -2.25515 0.194575 12
0.132128 -2.2883 0.0393988 80
0.131713 -2.28805 -0.118673 64
0.130849 -2.28682 -0.276554 56
0.130323 -2.2916 -0.438549 52
0.128342 -2.29173 -0.605242 61
0.297958 -5.73505 1.31566 3
0.118562 -2.25086 0.194139 12
0.120145 -2.28896 0.0393988 79
0.119731 -2.28871 -0.118673 64
0.118474 -2.2875 -0.276554 56
0.117673 -2.28737 -0.437596 52
0.11622 -2.28996 -0.604595 61
0.289559 -5.74768 1.31847 3
0.290253 -5.74171 0.902979 12
0.114884 -2.25603 0.194575 12
0.1164 -2.29416 0.0394861 83
0.115736 -2.28891 -0.118673 64
0.115003 -2.29016 -0.276859 56
0.11368 -2.28757 -0.437596 52
0.112223 -2.29016 -0.604595 61
0.260553 -5.77345 1.32408 21
0.26352 -5.81716 0.914686 20
0.103238 -2.25161 0.194139 12
0.104674 -2.29222 0.0394424 86
0.103639 -2.28699 -0.118542 68
0.103121 -2.29321 -0.277163 58
0.102209 -2.29057 -0.438073 52
0.10063 -2.2907 -0.604595 61
0.243022 -5.60109 1.28421 15
0.243857 -5.59804 0.879956 27
0.0994164 -2.25428 0.194357 12
0.100381 -2.29491 0.0394861 90
0.0999685 -2.29465 -0.118936 73
0.497221 -2.25003 -0.039617 12
0.0991181 -2.29338 -0.277163 58
0.098107 -2.28829 -0.437596 52
0.0961324 -2.28848 -0.603949 62
0.21152 -5.57068 1.27691 26
0.212443 -5.56967 0.875273 27
0.0874077 -2.25976 0.194793 14
0.0882689 -2.29291 0.0394424 86
0.486294 -2.25469 0.119064 8
0.0878583 -2.29265 -0.118804 76
0.485571 -2.25513 -0.0396606 9
0.0864316 -2.28645 -0.27625 58
0.486843 -2.25913 -0.198754 8
0.0858151 -2.29124 -0.438073 52
0.487383 -2.25418 -0.360196 8
0.0843232 -2.29377 -0.605242 61
0.490625 -2.25977 -0.525028 8
0.202945 -5.57587 1.27804 20
0.204591 -5.59467 0.879175 18
0.0837347 -2.26737 0.195447 14
0.483489 -2.25134 0.278076 8
0.0841766 -2.29056 0.0393988 90
0.480114 -2.24325 0.11841 9
0.0839465 -2.29529 -0.118936 77
0.480054 -2.24864 -0.0395297 9
0.08284 -2.28658 -0.27625 58
0.481848 -2.25511 -0.198319 11
0.0816438 -2.28648 -0.43712 52
0.484493 -2.25986 -0.360979 9
0.0801537 -2.28909 -0.603949 61
0.485002 -2.25102 -0.522782 9
0.177519 -5.66725 0.890492 24
0.0721797 -2.26528 0.195229 14
0.470154 -2.24656 0.277163 9
0.0725044 -2.28846 0.0393552 90
0.468877 -2.24818 0.118541 9
0.0719272 -2.2957 -0.118936 83
0.469181 -2.25349 -0.0395733 9
0.0709417 -2.28946 -0.276554 58
0.469009 -2.25273 -0.197884 8
0.0701436 -2.28932 -0.437596 52
0.472654 -2.26236 -0.360979 4
0.0685666 -2.28947 -0.603949 61
0.473715 -2.25591 -0.523343 4
0.168568 -5.69963 0.895565 35
0.068079 -2.26042 0.194793 14
0.465214 -2.24252 0.276554 9
0.0681835 -2.29109 0.0393988 90
0.463931 -2.24411 0.118279 8
0.0677757 -2.29083 -0.118673 85
0.462695 -2.24207 -0.0393552 9
0.0668747 -2.2871 -0.27625 61
0.463042 -2.24379 -0.197014 9
0.0661479 -2.28944 -0.437596 52
0.46567 -2.24868 -0.35863 4
0.064171 -2.2896 -0.603949 61
0.468272 -2.24958 -0.521659 3
0.136554 -5.69242 1.30443 23
0.13761 -5.69553 0.894784 32
0.055908 -2.26325 0.195011 14
0.45357 -2.24743 0.276859 9
0.0562463 -2.29392 0.0394424 90
0.451285 -2.24414 0.118148 8
0.0558986 -2.29615 -0.118936 90
0.449564 -2.23964 -0.0392679 9
0.0543842 -2.28247 -0.275642 58
0.451783 -2.24863 -0.197231 9
0.0537038 -2.28731 -0.43712 52
0.454382 -2.25351 -0.359021 4
0.0520748 -2.28507 -0.602656 61
0.455606 -2.2497 -0.521097 3
0.127126 -5.67071 1.29937 17
0.128277 -5.67845 0.892053 26
0.0519578 -2.26334 0.195011 15
0.448071 -2.23841 0.275642 8
0.0521318 -2.28902 0.0393552 90
0.44776 -2.24484 0.118148 8
0.0517812 -2.29125 -0.118673 90
0.445654 -2.24042 -0.0392679 8
0.0510136 -2.29248 -0.276859 61
0.447367 -2.24697 -0.197014 8
0.0497116 -2.2874 -0.43712 52
0.448982 -2.24704 -0.357847 4
0.0480865 -2.28516 -0.602656 64
0.452556 -2.2528 -0.521659 3
0.0967728 -5.63233 1.29039 14
0.0982052 -5.6593 0.888931 15
0.0405014 -2.26358 0.195011 15
0.438262 -2.25047 0.276859 4
0.0405454 -2.28925 0.0393552 90
0.436 -2.24716 0.118148 8
0.0397836 -2.29149 -0.118673 90
0.432868 -2.23529 -0.039137 9
0.0388468 -2.28279 -0.275642 59
0.436074 -2.25172 -0.197231 8
0.0381334 -2.28762 -0.43712 53
0.438163 -2.25421 -0.35863 4
0.0365197 -2.28537 -0.602656 59
0.43981 -2.25035 -0.520536 4
0.0861286 -5.5789 1.27804 14
0.0876072 -5.61255 0.881517 30
0.0364733 -2.25866 0.194575 15
0.432433 -2.24149 0.275642 4
0.0361503 -2.28932 0.0393552 90
0.429219 -2.23321 0.117363 9
0.0357841 -2.29156 -0.118673 90
0.430394 -2.2434 -0.0392679 9
0.0349716 -2.2903 -0.276554 59
0.431195 -2.24759 -0.196796 9
0.0341407 -2.28768 -0.43712 52
0.432812 -2.2477 -0.357455 8
0.0320023 -2.27578 -0.600069 61
0.434009 -2.24156 -0.51829 4
0.0560618 -5.59146 1.28084 20
0.0573375 -5.62282 0.883077 30
0.0242271 -2.25634 0.194357 20
0.420299 -2.24379 0.275642 4
0.0241878 -2.29198 0.0393988 91
0.417593 -2.23795 0.117494 11
0.0237851 -2.29171 -0.118673 90
0.416861 -2.23833 -0.039137 9
0.0225106 -2.28301 -0.275642 59
0.419882 -2.25227 -0.197014 8
0.0217627 -2.28784 -0.43712 52
0.420578 -2.24751 -0.357064 4
0.0201652 -2.28558 -0.602656 61
0.42324 -2.25105 -0.519974 4
0.0473786 -5.60372 1.28365 18
0.0485258 -5.62537 0.883468 30
0.0202681 -2.25389 0.194139 21
0.417232 -2.24689 0.275946 4
0.0201465 -2.28702 0.0393115 95
0.414995 -2.24351 0.117756 15
0.0197252 -2.28426 -0.118279 90
0.412496 -2.2366 -0.0390934 9
0.0189626 -2.288 -0.27625 61
0.414578 -2.24565 -0.196362 9
0.0177697 -2.28787 -0.43712 53
0.0161761 -2.28561 -0.602656 65
0.419704 -2.25171 -0.519974 4
0.0174154 -5.39439 1.23536 1
0.00884344 -2.24898 0.193704 23
0.404126 -2.24172 0.275033 4
0.00857066 -2.28709 0.0393115 95
0.402796 -2.2432 0.117625 17
0.00777156 -2.28683 -0.118411 90
0.399832 -2.23128 -0.0389625 11
0.00698243 -2.28807 -0.27625 61
0.405481 -2.2625 -0.197666 9
0.00618441 -2.28548 -0.436644 52
0.00459391 -2.276 -0.600069 61
0.408786 -2.25867 -0.521097 4
0.00830104 -5.64046 1.29207 15
0.00492213 -2.25148 0.193922 23
0.400212 -2.24242 0.275033 8
0.00418279 -2.28961 0.0393552 90
0.398881 -2.2439 0.117625 15
0.00378028 -2.28684 -0.118411 90
0.397704 -2.24181 -0.039137 11
0.00298899 -2.28808 -0.27625 64
0.399771 -2.25339 -0.196796 11
0.00219464 -2.28303 -0.436168 53
0.00021924 -2.28566 -0.602656 62
0.403539 -2.25219 -0.519413 4
-0.0223494 -5.67209 1.29937 17
-0.0214425 -5.68974 0.893613 32
-0.00725 -2.24898 0.193704 23
0.388502 -2.247 0.275337 8
-0.00780556 -2.2896 0.0393552 96
0.386734 -2.24602 0.117625 14
-0.00817266 -2.28183 -0.118148 90
0.385569 -2.24393 -0.039137 12
-0.00939069 -2.28806 -0.27625 62
0.389676 -2.26527 -0.197666 11
-0.0101826 -2.28792 -0.43712 53
-0.0116789 -2.27356 -0.599422 61
0.393035 -2.26394 -0.521659 4
-0.0314555 -5.70616 1.30724 23
-0.0305178 -5.71439 0.897516 36
-0.0112169 -2.25644 0.194357 24
0.385396 -2.25005 0.275642 9
-0.011816 -2.29208 0.0393988 97
0.383631 -2.24909 0.117756 12
-0.01217 -2.28431 -0.118279 90
0.383773 -2.25692 -0.0393552 11
-0.0129848 -2.28804 -0.27625 65
0.385722 -2.26595 -0.197666 11
-0.014159 -2.28544 -0.436644 52
0.387329 -2.266 -0.359021 8
-0.0157013 -2.28078 -0.601362 64
0.390732 -2.27175 -0.523343 4
-0.0612252 -5.69617 1.30499 21
-0.0601972 -5.69193 0.894004 27
-0.0225581 -2.24888 0.193704 27
0.373609 -2.25204 0.275642 4
-0.0233359 -2.28449 0.0392679 97
0.373497 -2.26092 0.118279 12
-0.0237318 -2.28422 -0.118279 90
0.371521 -2.2539 -0.0392679 11
-0.0248789 -2.2805 -0.275337 62
0.376712 -2.28261 -0.198971 8
-0.0256973 -2.28289 -0.436168 53
0.378726 -2.28748 -0.362153 8
-0.0271238 -2.27101 -0.598776 61
0.378832 -2.27377 -0.523343 3
-0.0697747 -5.6644 1.29769 15
-0.0698522 -5.6696 0.890492 24
-0.0265448 -2.25382 0.194139 26
0.370492 -2.25758 0.27625 4
-0.0274487 -2.29444 0.0394424 98
0.370774 -2.26895 0.118672 9
-0.0278139 -2.29167 -0.118673 90
0.367587 -2.25454 -0.0392679 9
-0.0289579 -2.2879 -0.27625 67
0.371509 -2.27589 -0.198319 9
-0.0297151 -2.28529 -0.436644 53
0.374329 -2.2857 -0.361762 4
-0.0312602 -2.28304 -0.602009 62
0.37406 -2.26962 -0.52222 4
-0.10079 -5.62982 1.28983 14
-0.099905 -5.63457 0.885029 21
-0.0386944 -2.25115 0.193922 24
0.358666 -2.262 0.276554 9
-0.0397725 -2.28926 0.0393552 98
0.358887 -2.27339 0.118803 8
-0.0400312 -2.2815 -0.118148 90
0.356565 -2.26391 -0.0393988 9
-0.0412898 -2.28523 -0.275946 65
0.359583 -2.28033 -0.198536 8
-0.0420325 -2.28264 -0.436168 52
0.361175 -2.28281 -0.360979 4
-0.0434216 -2.27317 -0.599422 62
0.36294 -2.27883 -0.523905 4
-0.109057 -5.60043 1.28309 14
-0.109203 -5.60723 0.880736 17
-0.0426233 -2.25108 0.193922 26
0.355886 -2.26998 0.277467 8
-0.043768 -2.28919 0.0393552 98
0.355309 -2.27648 0.118933 8
-0.0441125 -2.28642 -0.118411 90
0.351444 -2.25712 -0.0392679 9
-0.0453288 -2.28763 -0.27625 65
0.354047 -2.27111 -0.197666 8
-0.0460164 -2.28257 -0.436168 53
0.355257 -2.27125 -0.359021 4
-0.0474926 -2.27792 -0.600716 61
0.358578 -2.27705 -0.523343 8
-0.133541 -5.3684 1.22974 1
-0.138315 -5.5967 0.879175 24
-0.0545944 -2.2583 0.194575 27
0.344015 -2.2693 0.277163 4
-0.0558783 -2.29393 0.0394424 99
0.342253 -2.27091 0.118541 8
-0.0560835 -2.28615 -0.118411 90
0.339998 -2.2614 -0.0393115 9
-0.056907 -2.28737 -0.27625 65
0.342151 -2.27293 -0.197666 8
-0.058031 -2.28475 -0.436644 53
0.343382 -2.27058 -0.35863 4
-0.0594191 -2.27764 -0.600716 61
0.346676 -2.27643 -0.522782 8
-0.147567 -5.57761 1.27804 14
-0.147957 -5.62857 0.884248 24
-0.0579448 -2.25074 0.193922 27
0.339681 -2.26744 0.276859 3
-0.0598151 -2.29133 0.0393988 99
0.337938 -2.2665 0.118279 8
-0.0601406 -2.28855 -0.118542 90
0.336072 -2.25946 -0.0392679 9
-0.0608991 -2.28727 -0.27625 64
0.339324 -2.27839 -0.198101 9
-0.0616198 -2.28465 -0.436644 52
0.340159 -2.27606 -0.359413 8
-0.0627237 -2.26789 -0.598129 61
0.341232 -2.2674 -0.520536 4
-0.177343 -5.62549 1.28927 15
-0.17777 -5.66971 0.890882 26
-0.069336 -2.25042 0.193922 29
0.326759 -2.25931 0.275642 4
-0.0710909 -2.29351 0.0394424 100
0.326462 -2.26819 0.118279 8
-0.0715637 -2.28322 -0.118279 90
0.325713 -2.26855 -0.0393988 11
-0.0723951 -2.28445 -0.275946 67
0.325953 -2.27028 -0.197231 9
-0.0731026 -2.28186 -0.436168 53
0.326846 -2.26553 -0.357455 9
-0.0745236 -2.2772 -0.600716 59
0.329396 -2.26669 -0.519974 4
-0.180468 -5.42552 1.24322 1
-0.189064 -5.71135 0.897516 35
-0.0734288 -2.25527 0.194357 29
0.323171 -2.26233 0.275946 4
-0.0754102 -2.29087 0.0393988 99
0.322503 -2.26875 0.118279 9
-0.0757167 -2.28809 -0.118542 91
0.320329 -2.25922 -0.0392243 11
-0.0764665 -2.2868 -0.27625 67
0.32199 -2.27085 -0.197231 9
-0.0770851 -2.28173 -0.436168 53
0.322538 -2.26366 -0.357064 9
-0.0785549 -2.2674 -0.598129 61
0.326493 -2.27449 -0.521659 4
-0.219963 -5.68494 1.3033 17
-0.219867 -5.70777 0.897125 15
0.315051 -2.27072 0.438467 4
-0.0854378 -2.24986 0.193922 29
0.31024 -2.25914 0.275337 4
-0.0875009 -2.29294 0.0394424 99
0.30988 -2.26799 0.118148 8
-0.0875989 -2.28516 -0.118411 90
0.308444 -2.26339 -0.0392679 9
-0.0887403 -2.28388 -0.275946 64
0.310096 -2.2725 -0.197231 8
-0.0893316 -2.27883 -0.435692 53
0.311646 -2.27515 -0.35863 8
-0.0908169 -2.27661 -0.600716 64
0.314182 -2.27622 -0.521659 3
-0.224652 -5.57991 1.27916 12
-0.22613 -5.61609 0.882687 20
0.310411 -2.2664 0.437513 4
-0.0893644 -2.24971 0.193922 29
0.306974 -2.26459 0.275946 8
-0.0914015 -2.29029 0.0393988 99
0.304905 -2.26111 0.117756 8
-0.0916886 -2.2875 -0.118542 90
0.304493 -2.26393 -0.0392679 9
-0.0928284 -2.2862 -0.27625 64
0.305792 -2.27057 -0.197014 9
-0.0935126 -2.28357 -0.436644 53
0.306667 -2.26835 -0.357455 8
-0.0947901 -2.27645 -0.600716 59
0.309541 -2.27194 -0.520536 4
-0.254504 -5.57132 1.27747 15
-0.255758 -5.61976 0.883468 27
0.298865 -2.27043 0.43799 4
-0.101143 -2.24921 0.193922 27
-0.103506 -2.29227 0.0394424 100
0.293062 -2.26267 0.117756 9
-0.103665 -2.28699 -0.118542 90
0.292635 -2.26549 -0.0392679 9
-0.104567 -2.28072 -0.275642 64
0.295847 -2.28696 -0.198319 9
-0.105238 -2.27815 -0.435692 53
0.296402 -2.28217 -0.359413 2
-0.106479 -2.27109 -0.599422 61
0.297641 -2.27353 -0.520536 3
-0.264064 -5.58794 1.28141 15
-0.265684 -5.62177 0.883858 27
0.295223 -2.27338 0.438467 4
-0.105068 -2.24903 0.193922 26
-0.107626 -2.29459 0.0394861 100
0.291041 -2.27804 0.118541 8
-0.107537 -2.28431 -0.118411 90
0.289965 -2.27592 -0.0394424 2
-0.108548 -2.28054 -0.275642 65
0.291855 -2.28747 -0.198319 11
-0.109453 -2.28286 -0.436644 52
0.292418 -2.28268 -0.359413 14
-0.110561 -2.27332 -0.600069 59
0.294624 -2.28129 -0.52222 18
-0.293521 -5.57184 1.27804 17
-0.292904 -5.57838 0.877224 29
0.283624 -2.27733 0.438943 3
-0.117104 -2.25343 0.194357 27
-0.119375 -2.289 0.0393988 99
0.280035 -2.28696 0.118933 12
-0.119364 -2.28122 -0.118279 90
0.278352 -2.27988 -0.0394861 29
-0.12062 -2.28241 -0.275946 65
0.279566 -2.2865 -0.198101 42
-0.121008 -2.27491 -0.435216 53
0.281992 -2.29643 -0.36137 45
-0.1222 -2.26788 -0.598776 61
0.283588 -2.29005 -0.523905 45
-0.301743 -5.56164 1.27579 17
-0.303177 -5.58773 0.878785 20
0.281474 -2.29243 0.441803 3
-0.120767 -2.24825 0.193922 23
-0.12337 -2.28879 0.0393988 99
0.275131 -2.28001 0.118541 45
-0.123482 -2.28351 -0.118411 90
0.276195 -2.29525 -0.0397479 50
-0.124603 -2.2822 -0.275946 62
0.277091 -2.29934 -0.199188 49
-0.125115 -2.27714 -0.435692 53
0.277682 -2.29447 -0.360979 45
-0.126701 -2.27731 -0.601362 64
0.279591 -2.29055 -0.523905 45
-0.340283 -5.70097 1.30836 23
-0.339648 -5.70684 0.897906 33
0.269759 -2.29631 0.442279 8
-0.132685 -2.25007 0.194139 21
-0.135501 -2.2906 0.0394424 98
0.264937 -2.2963 0.119326 49
-0.135835 -2.2828 -0.118411 90
0.263883 -2.29418 -0.0397042 50
-0.136551 -2.28152 -0.275946 62
0.264067 -2.29586 -0.198754 49
-0.137036 -2.27646 -0.435692 53
0.265953 -2.29834 -0.36137 45
-0.138475 -2.27421 -0.600716 59
0.267594 -2.29198 -0.523905 45
-0.333583 -5.43047 1.24603 1
-0.348547 -5.68899 0.895174 32
0.268791 -2.32607 0.447998 9
-0.136917 -2.2548 0.194575 18
-0.139745 -2.28785 0.0393988 98
0.260928 -2.29676 0.119326 49
-0.139819 -2.28256 -0.118411 90
0.259878 -2.29464 -0.0397042 52
-0.140532 -2.28127 -0.275946 67
0.260059 -2.29632 -0.198754 49
-0.141316 -2.28111 -0.436644 52
0.261942 -2.2988 -0.36137 45
-0.142688 -2.27153 -0.600069 61
0.26331 -2.29002 -0.523343 45
-0.378133 -5.65463 1.29825 15
-0.377012 -5.65253 0.889711 24
0.253868 -2.30306 0.443233 4
-0.149114 -2.25403 0.194575 15
-0.151722 -2.28708 0.0393988 98
0.248224 -2.29565 0.119195 49
-0.151768 -2.2818 -0.118411 90
0.246913 -2.29104 -0.039617 50
-0.152706 -2.27801 -0.275642 61
0.248577 -2.3026 -0.199188 49
-0.153489 -2.27787 -0.436168 52
0.249358 -2.29524 -0.360587 45
-0.154579 -2.27075 -0.600069 59
0.250646 -2.28899 -0.522782 45
-0.384343 -5.61515 1.28927 14
-0.383528 -5.61744 0.884248 15
0.249578 -2.30106 0.442756 3
-0.153048 -2.25377 0.194575 15
-0.155714 -2.28681 0.0393988 97
0.244618 -2.29604 0.119195 50
-0.155922 -2.28402 -0.118542 90
0.243452 -2.29644 -0.0397042 53
-0.156284 -2.27776 -0.275642 59
0.243754 -2.2956 -0.198536 49
-0.157464 -2.27759 -0.436168 52
0.245619 -2.29812 -0.360979 45
-0.158542 -2.27048 -0.600069 61
0.247316 -2.2918 -0.523343 45
-0.410684 -5.57176 1.27972 15
0.238186 -2.30473 0.443233 8
-0.164636 -2.25545 0.194793 15
0.585071 -5.66962 0.694581 11
-0.167102 -2.2835 0.0393552 97
0.232336 -2.29481 0.119064 50
-0.16751 -2.2782 -0.118279 90
0.231057 -2.29019 -0.0395733 55
-0.168761 -2.28434 -0.276554 64
0.231986 -2.29932 -0.198754 50
-0.169357 -2.28166 -0.43712 52
0.233583 -2.29938 -0.360979 47
-0.170032 -2.26964 -0.600069 59
0.235313 -2.29307 -0.523343 45
-0.421879 -5.59047 1.28421 18
0.590933 -5.65018 1.51083 11
0.232497 -2.29298 0.44085 11
-0.16876 -2.25764 0.195011 15
0.574418 -5.66323 0.693668 12
-0.171675 -2.28567 0.0393988 97
0.228331 -2.29521 0.119064 50
-0.171675 -2.28039 -0.118411 90
0.227311 -2.29307 -0.039617 55
-0.17237 -2.27909 -0.275946 62
0.22722 -2.29229 -0.198101 49
-0.173151 -2.27892 -0.436644 52
0.229319 -2.29732 -0.360587 45
-0.174762 -2.27413 -0.601362 59
0.231311 -2.29348 -0.523343 45
-0.452711 -5.59539 1.2859 15
0.561796 -5.66772 1.5147 9
0.219768 -2.28684 0.43942 9
-0.181173 -2.25918 0.195229 15
-0.183438 -2.28225 0.0393552 96
0.215909 -2.29641 0.119064 52
-0.183613 -2.27946 -0.118411 90
0.214901 -2.29427 -0.039617 55
-0.185103 -2.28307 -0.276554 61
0.215452 -2.29593 -0.198319 50
-0.185679 -2.28039 -0.43712 52
0.216649 -2.29607 -0.360196 45
-0.186468 -2.27078 -0.600716 59
0.218662 -2.29227 -0.522782 45
-0.46371 -5.62137 1.29207 14
0.553319 -5.68311 1.51858 11
0.215777 -2.28722 0.43942 4
-0.184501 -2.25141 0.194575 14
-0.187215 -2.27943 0.0393115 95
0.211432 -2.29181 0.118803 53
-0.187384 -2.27665 -0.118279 90
0.210429 -2.28966 -0.0395297 58
-0.188468 -2.27533 -0.275642 61
0.211445 -2.2963 -0.198319 50
-0.189454 -2.27762 -0.436644 52
0.212176 -2.29153 -0.359413 47
-0.190431 -2.27045 -0.600716 59
0.214196 -2.2878 -0.521659 45
-0.477852 -5.43435 1.2494 1
-0.500287 -5.69997 0.898686 35
0.204466 -2.29565 0.44085 2
-0.196286 -2.25041 0.194575 15
-0.199367 -2.28091 0.0393552 95
0.199872 -2.29786 0.119064 53
-0.199741 -2.28061 -0.118542 90
0.198658 -2.29322 -0.0395733 58
-0.201037 -2.28172 -0.276554 61
0.199418 -2.29738 -0.198319 52
-0.201377 -2.2766 -0.436644 52
0.200574 -2.29258 -0.359413 47
-0.202316 -2.26942 -0.600716 59
0.202215 -2.28889 -0.521659 45
-0.510567 -5.70292 1.31173 27
-0.508358 -5.68934 0.897125 35
0.200241 -2.29356 0.440373 2
-0.200436 -2.25255 0.194793 15
-0.203124 -2.27807 0.0393115 91
0.196045 -2.29569 0.118933 55
-0.203721 -2.28026 -0.118542 90
0.194655 -2.29357 -0.0395733 59
-0.204398 -2.27893 -0.27625 61
0.195408 -2.29772 -0.198319 52
-0.205572 -2.27869 -0.43712 52
0.196789 -2.29538 -0.359804 47
-0.206277 -2.26906 -0.600716 61
0.198403 -2.28678 -0.521097 45
-0.538576 -5.68077 1.30724 18
-0.536275 -5.66693 0.894004 26
0.18863 -2.29454 0.440373 2
-0.211835 -2.2515 0.194793 15
-0.214651 -2.27701 0.0393115 90
0.184431 -2.30166 0.119195 55
-0.215496 -2.28168 -0.118673 90
0.18284 -2.29203 -0.0395297 59
-0.2168 -2.28277 -0.276859 59
0.183165 -2.29123 -0.197666 52
-0.216869 -2.27517 -0.436644 52
0.184768 -2.29638 -0.359804 47
-0.218224 -2.2728 -0.602009 59
0.18663 -2.29021 -0.521659 45
-0.543749 -5.64112 1.29825 14
-0.544027 -5.64387 0.890492 15
-0.216481 -2.25857 0.195447 15
-0.218625 -2.27664 0.0393115 90
0.179813 -2.29451 0.118803 56
-0.219719 -2.28379 -0.118804 90
0.17884 -2.29235 -0.0395297 61
-0.220303 -2.27745 -0.27625 61
0.179365 -2.29403 -0.197884 50
-0.221078 -2.27723 -0.43712 52
0.180362 -2.29178 -0.359021 47
-0.22219 -2.27241 -0.602009 59
0.182434 -2.2881 -0.521097 47
-0.570784 -5.59437 1.28814 14
-0.228446 -2.25489 0.195229 15
-0.231194 -2.27791 0.0393552 90
0.167583 -2.29794 0.118933 56
-0.231818 -2.28008 -0.118673 90
0.166434 -2.29328 -0.0395297 62
-0.232622 -2.27623 -0.27625 59
0.166951 -2.29497 -0.197884 55
-0.233396 -2.276 -0.43712 52
0.16836 -2.29269 -0.359021 47
-0.234731 -2.27358 -0.602656 58
0.170051 -2.28906 -0.521097 47
-0.576299 -5.56197 1.28084 15
-0.554125 -5.35747 0.845616 1
-0.23161 -2.24705 0.194575 14
-0.235686 -2.28247 0.0394424 90
0.163607 -2.29322 0.118672 58
-0.235797 -2.27967 -0.118673 86
0.16225 -2.29107 -0.0394861 68
-0.235939 -2.27339 -0.275946 58
0.162945 -2.29526 -0.197884 55
-0.237368 -2.27559 -0.43712 52
0.164539 -2.29544 -0.359413 47
-0.238953 -2.27557 -0.603302 59
0.166456 -2.28932 -0.521097 47
-0.612287 -5.62184 1.29544 14
-0.586985 -5.39868 0.85264 1
-0.243519 -2.2508 0.195011 14
-0.246693 -2.27628 0.0393552 90
0.151598 -2.29405 0.118672 59
-0.248273 -2.28337 -0.118936 80
0.150821 -2.29436 -0.0395297 68
-0.24811 -2.27459 -0.27625 58
0.150757 -2.29359 -0.197666 55
-0.249151 -2.2768 -0.437596 52
0.152181 -2.29135 -0.35863 49
-0.24967 -2.26713 -0.601362 59
0.154466 -2.29016 -0.521097 45
-0.615115 -5.55781 1.28084 15
-0.583903 -5.28475 0.83469 1
-0.247447 -2.25037 0.195011 14
-0.251063 -2.2758 0.0393552 90
0.147593 -2.29431 0.118672 61
-0.25143 -2.27549 -0.118542 79
0.146651 -2.29213 -0.0394861 73
-0.252354 -2.27662 -0.276554 58
0.146753 -2.29385 -0.197666 55
-0.253124 -2.27636 -0.437596 52
0.148346 -2.29407 -0.359021 49
-0.254833 -2.27384 -0.603302 59
0.150139 -2.28557 -0.519974 45
-0.64912 -5.58828 1.28871 17
-0.615338 -5.30604 0.838592 1
-0.259045 -2.24406 0.194575 14
-0.262687 -2.27197 0.0393115 90
0.13533 -2.29756 0.118803 62
-0.263053 -2.27166 -0.118411 77
0.134399 -2.29538 -0.0395297 76
-0.264092 -2.27029 -0.275946 58
0.135194 -2.30205 -0.198319 58
-0.264865 -2.27009 -0.436644 52
0.136484 -2.29728 -0.359413 49
-0.265603 -2.26289 -0.600716 59
0.137923 -2.28878 -0.520536 45
-0.629063 -5.3429 1.23199 1
-0.622805 -5.29771 0.837421 1
-0.262961 -2.2436 0.194575 14
-0.266945 -2.27399 0.0393552 90
0.131425 -2.29279 0.118541 65
-0.267603 -2.27616 -0.118673 76
0.129952 -2.28813 -0.0393988 77
-0.267658 -2.26987 -0.275946 55
0.130589 -2.29234 -0.197449 58
-0.269987 -2.27937 -0.438549 52
0.132179 -2.29259 -0.35863 49
-0.270127 -2.26721 -0.602009 59
0.134032 -2.28413 -0.519413 47
-0.685354 -5.56922 1.28534 17
-0.64963 -5.28702 0.836251 1
-0.274314 -2.24224 0.194575 14
-0.279062 -2.27758 0.0394424 90
0.119688 -2.29843 0.118803 68
-0.278293 -2.26482 -0.118148 67
0.118637 -2.29375 -0.0394861 79
-0.279844 -2.2709 -0.27625 58
0.118986 -2.30045 -0.198101 59
-0.280008 -2.26579 -0.436168 50
0.120442 -2.29818 -0.359413 49
-0.281299 -2.26342 -0.601362 59
0.122611 -2.29453 -0.521659 47
-0.695375 -5.57043 1.2859 15
0.313539 -5.66025 1.5076 8
-0.657326 -5.27363 0.834299 1
-0.278227 -2.24176 0.194575 14
-0.283124 -2.27456 0.0393988 90
0.115284 -2.29116 0.11841 71
-0.283177 -2.27176 -0.118542 65
0.114374 -2.28896 -0.0393988 85
-0.284116 -2.27287 -0.276554 56
0.114453 -2.2907 -0.197231 59
-0.285189 -2.27504 -0.438073 52
0.116041 -2.29099 -0.358238 50
-0.286556 -2.27006 -0.603302 59
0.118082 -2.28501 -0.519413 47
-0.701845 -5.38542 1.24378 1
0.288304 -5.76799 1.53603 4
0.279721 -5.79761 1.12047 14
-0.289387 -2.23281 0.193922 14
0.269397 -5.7505 0.701578 15
-0.294706 -2.27056 0.0393552 83
0.103121 -2.29674 0.118672 71
-0.294098 -2.26282 -0.118148 61
0.101988 -2.28954 -0.0393988 90
-0.296087 -2.26884 -0.27625 55
0.102807 -2.29874 -0.197884 59
-0.296214 -2.26373 -0.436168 50
0.104278 -2.2965 -0.359021 50
-0.298122 -2.26614 -0.602656 58
0.105835 -2.28805 -0.519974 45
-0.739674 -5.6065 1.29544 14
0.27871 -5.77813 1.53861 18
-0.739694 -5.6141 0.889321 21
0.268789 -5.78093 1.11714 18
-0.293935 -2.23724 0.194357 12
0.253506 -5.60218 0.683324 24
-0.299324 -2.275 0.0394424 82
0.099173 -2.28941 0.118279 74
-0.299357 -2.2722 -0.118673 64
0.0978797 -2.28722 -0.0393552 90
-0.299977 -2.27083 -0.276554 55
0.098458 -2.29145 -0.197231 61
-0.301462 -2.27294 -0.438073 52
0.100044 -2.29174 -0.358238 50
-0.302076 -2.26561 -0.602656 58
0.101786 -2.27848 -0.517728 45
-0.772339 -5.62669 1.30106 15
0.250523 -5.80359 1.54508 12
-0.772439 -5.63461 0.893223 27
0.231547 -5.59342 1.08044 26
-0.304917 -2.23326 0.194139 12
0.223663 -5.59104 0.681802 29
-0.309815 -2.26603 0.0393115 79
0.0873848 -2.29489 0.118541 79
-0.309888 -2.26071 -0.118148 61
0.0866001 -2.29518 -0.0394861 90
-0.311184 -2.26432 -0.275946 55
0.0867559 -2.2994 -0.197884 61
-0.312626 -2.26896 -0.437596 52
0.0881432 -2.2947 -0.35863 52
-0.312874 -2.25927 -0.601362 59
0.0902588 -2.28871 -0.519974 47
-0.785855 -5.65187 1.30724 18
0.2304 -5.56756 1.48175 14
-0.786695 -5.66505 0.898296 33
0.220116 -5.57669 1.0771 26
-0.309842 -2.24012 0.194793 12
0.214584 -5.60878 0.683932 18
-0.315199 -2.27286 0.0394424 73
0.0831876 -2.29005 0.118279 80
-0.315558 -2.27253 -0.118804 64
0.0823089 -2.28783 -0.0393552 90
-0.316166 -2.27114 -0.276859 55
0.0826479 -2.29706 -0.197666 64
-0.316926 -2.27084 -0.438073 52
0.0840424 -2.29239 -0.358238 49
-0.318561 -2.26823 -0.603949 58
0.0861672 -2.28643 -0.519413 47
-0.781159 -5.40403 1.25052 1
0.200096 -5.5639 1.48045 15
-0.814153 -5.63871 0.894784 29
0.192205 -5.61455 1.08425 15
-0.32089 -2.23102 0.194139 11
0.186992 -5.6917 0.693972 26
-0.326022 -2.26375 0.0393115 71
0.0709608 -2.29546 0.118541 88
-0.326736 -2.2659 -0.118542 61
0.0701741 -2.29574 -0.0394861 90
-0.32845 -2.2694 -0.276859 55
0.0706194 -2.29746 -0.197666 64
-0.328854 -2.26666 -0.437596 52
0.0721212 -2.29526 -0.35863 50
-0.331132 -2.27131 -0.605242 59
0.073879 -2.2893 -0.519974 45
-0.823528 -5.63419 1.30443 15
0.191231 -5.58837 1.48692 14
-0.82158 -5.62766 0.893223 27
0.184123 -5.66639 1.09426 15
-0.325143 -2.23292 0.194357 12
0.17829 -5.69942 0.694885 38
-0.331421 -2.27307 0.0394861 70
0.0672766 -2.29307 0.11841 88
-0.332139 -2.27521 -0.119067 61
0.0658583 -2.28587 -0.0393115 90
-0.332375 -2.27133 -0.277163 55
0.0664548 -2.2926 -0.197231 64
-0.333167 -2.26851 -0.438073 50
0.0678798 -2.28798 -0.357455 50
-0.334034 -2.26357 -0.603302 59
0.0700431 -2.28211 -0.51829 47
-0.850458 -5.61295 1.3005 15
0.164684 -5.64721 1.50243 14
-0.848444 -5.60619 0.890492 27
0.156204 -5.69423 1.0995 26
-0.33756 -2.23863 0.195011 11
0.148246 -5.69284 0.693972 35
-0.343671 -2.27631 0.0395733 67
0.0552693 -2.29339 0.11841 89
-0.344048 -2.27344 -0.119067 61
0.0543523 -2.28867 -0.0393552 90
-0.344263 -2.26956 -0.277163 53
0.0543856 -2.29043 -0.197014 68
-0.344645 -2.2668 -0.438073 52
0.0558991 -2.28831 -0.357455 52
-0.346951 -2.27139 -0.605889 58
0.0580259 -2.28001 -0.517728 47
-0.858035 -5.597 1.29713 15
0.156329 -5.70059 1.51664 20
-0.855981 -5.59005 0.88815 26
0.145465 -5.70188 1.10093 21
-0.340712 -2.23312 0.194575 11
0.138247 -5.69061 0.693668 29
-0.348041 -2.27565 0.0395733 61
0.0512665 -2.29348 0.11841 90
-0.349532 -2.28271 -0.119592 59
0.0504179 -2.29126 -0.0393988 90
-0.348224 -2.26896 -0.277163 55
0.050388 -2.29052 -0.197014 70
-0.350099 -2.27589 -0.439977 50
0.0519664 -2.29087 -0.357847 52
-0.351311 -2.27072 -0.605889 58
0.0540465 -2.28011 -0.517728 47
-0.886008 -5.57784 1.29376 15
0.125318 -5.69411 1.5147 17
-0.884663 -5.57558 0.886589 26
0.115142 -5.68048 1.09664 15
-0.354351 -2.24108 0.195447 11
0.106869 -5.6615 0.690017 23
-0.359559 -2.27132 0.0395297 59
0.0388568 -2.29373 0.11841 90
-0.359911 -2.27098 -0.119067 58
0.0380204 -2.2915 -0.0393988 90
-0.360886 -2.26949 -0.277467 53
0.0383942 -2.29075 -0.197014 70
-0.361245 -2.2667 -0.438549 50
0.039523 -2.28865 -0.357455 52
-0.363196 -2.26885 -0.605889 58
0.0417589 -2.2828 -0.51829 47
-0.892836 -5.56442 1.29095 15
0.114666 -5.66052 1.50566 14
-0.894001 -5.57159 0.886199 18
0.104657 -5.65123 1.09092 14
-0.357078 -2.23308 0.194793 11
0.0962741 -5.62198 0.685149 30
-0.363522 -2.27069 0.0395297 58
0.0348103 -2.29129 0.118279 90
-0.364667 -2.27528 -0.11933 56
0.0340209 -2.29156 -0.0393988 90
-0.364055 -2.26396 -0.276859 52
0.0343534 -2.28832 -0.196796 71
-0.365984 -2.27091 -0.439501 50
0.0355285 -2.28871 -0.357455 52
-0.366768 -2.26583 -0.605242 58
0.0377291 -2.28044 -0.517728 47
-0.925726 -5.57633 1.29488 14
0.0846041 -5.63448 1.49855 12
-0.931658 -5.61799 0.894394 18
0.074476 -5.60998 1.08282 20
-0.369988 -2.23855 0.195447 11
0.0668995 -5.62737 0.685758 32
-0.374997 -2.26629 0.0394861 55
0.0228428 -2.29394 0.11841 90
-0.376166 -2.27088 -0.119198 56
0.0220219 -2.29171 -0.0393988 90
-0.377129 -2.26937 -0.277771 52
0.0223418 -2.28598 -0.196579 73
-0.37787 -2.26896 -0.439501 50
0.0239439 -2.28886 -0.357455 52
-0.379426 -2.26864 -0.606535 58
0.0257556 -2.27817 -0.517167 47
-0.940938 -5.61331 1.30387 15
0.074053 -5.58391 1.48498 14
-0.945791 -5.64818 0.899467 20
0.0647455 -5.61501 1.08378 23
-0.372247 -2.22808 0.194575 11
0.0581709 -5.63739 0.686975 30
-0.37978 -2.27057 0.0395733 56
0.0192133 -2.29148 0.118279 90
-0.380542 -2.27268 -0.11933 56
0.0180221 -2.29174 -0.0393988 90
-0.380693 -2.26877 -0.277771 52
0.0184024 -2.291 -0.197014 76
-0.382238 -2.27072 -0.439977 52
0.0199491 -2.2889 -0.357455 52
-0.382173 -2.26083 -0.604595 58
0.022177 -2.27821 -0.517167 47
-0.975307 -5.63711 1.3106 15
0.0458771 -5.59387 1.48756 15
-0.980827 -5.67478 0.90454 26
0.0364506 -5.63245 1.08711 23
-0.384792 -2.23353 0.195229 11
0.0287854 -5.65995 0.689713 30
-0.390415 -2.26369 0.0394861 55
0.00724108 -2.29654 0.118541 90
-0.392863 -2.27311 -0.119461 55
0.00642233 -2.2918 -0.0393988 90
-0.392567 -2.26675 -0.277771 52
0.00638226 -2.28608 -0.196579 76
-0.394147 -2.27117 -0.440453 50
0.0079642 -2.28897 -0.357455 52
-0.396107 -2.27314 -0.608475 58
0.0102804 -2.28316 -0.51829 47
-0.992706 -5.67859 1.32071 24
0.0361847 -5.6036 1.49015 15
-0.995834 -5.70225 0.909222 32
0.0256901 -5.64232 1.08902 23
-0.386975 -2.22304 0.194357 11
0.01899 -5.67985 0.692147 30
-0.394329 -2.26047 0.0394424 55
0.00322414 -2.29405 0.11841 90
-0.39683 -2.27243 -0.119461 53
0.00241452 -2.28931 -0.0393552 92
-0.396952 -2.2685 -0.278076 50
0.00240794 -2.29107 -0.197014 82
-0.398961 -2.27531 -0.441406 50
0.00396917 -2.28898 -0.357455 52
-0.400471 -2.27238 -0.608475 58
0.0062836 -2.28074 -0.517728 47
-1.02298 -5.67074 1.32015 21
0.0058891 -5.61579 1.49338 14
-1.02097 -5.66519 0.90415 20
-0.00384898 -5.66692 1.09378 20
-0.400765 -2.23071 0.195229 9
-0.0117714 -5.70468 0.695189 35
-0.406159 -2.25838 0.0394424 53
-0.00918787 -2.29404 0.11841 90
-0.408279 -2.26786 -0.11933 55
-0.00997183 -2.28929 -0.0393552 96
-0.40922 -2.26632 -0.278076 50
-0.00957762 -2.28607 -0.196579 82
-0.410389 -2.26829 -0.440453 50
-0.00840766 -2.28403 -0.356672 53
-0.411497 -2.2655 -0.607182 56
-0.00605897 -2.28561 -0.518851 47
-1.02752 -5.64516 1.31454 14
-0.00390557 -5.65444 1.50372 14
-1.02289 -5.61967 0.897125 15
-0.0137782 -5.69145 1.09855 21
-0.404212 -2.22756 0.195011 9
-0.0217868 -5.7245 0.697623 36
-0.411445 -2.26504 0.0395733 53
-0.0131826 -2.29152 0.118279 90
-0.413581 -2.27451 -0.119723 53
-0.0139674 -2.28927 -0.0393552 96
-0.413175 -2.2656 -0.278076 50
-0.013558 -2.28356 -0.196362 82
-0.41479 -2.26999 -0.44093 50
-0.0124022 -2.28648 -0.357064 53
-0.416325 -2.26953 -0.608475 56
-0.0100205 -2.27342 -0.516044 47
-1.04897 -5.5966 1.30443 14
-0.0326313 -5.67608 1.50953 15
-1.04495 -5.58044 0.891662 15
-0.0427314 -5.71339 1.10284 29
-0.41594 -2.22794 0.195229 9
-0.0507009 -5.71687 0.69671 30
-0.423364 -2.26539 0.039617 53
-0.0248026 -2.29392 0.11841 90
-0.424563 -2.26741 -0.119461 52
-0.0255996 -2.29417 -0.0394424 97
-0.424637 -2.26348 -0.278076 50
-0.0255144 -2.28346 -0.196362 82
-0.425365 -2.26304 -0.439977 49
-0.023975 -2.28639 -0.357064 53
-0.427358 -2.26502 -0.607829 56
-0.0215628 -2.27821 -0.517167 47
-1.05103 -5.55408 1.29488 14
-0.0427301 -5.70499 1.51729 18
-1.05009 -5.55435 0.88776 20
-0.0535323 -5.69367 1.09903 17
-0.419827 -2.22721 0.195229 9
-0.0606059 -5.70933 0.695797 26
-0.427713 -2.26457 0.039617 53
-0.0288062 -2.29387 0.11841 90
-0.429915 -2.27402 -0.119855 52
-0.0295766 -2.29162 -0.0393988 97
-0.428587 -2.26274 -0.278076 50
-0.0295267 -2.2859 -0.196579 82
-0.429773 -2.2647 -0.440453 52
-0.0279654 -2.28635 -0.357064 53
-0.431705 -2.26419 -0.607829 56
-0.025539 -2.27817 -0.517167 47
-1.0806 -5.54592 1.29432 15
-0.0733927 -5.68777 1.51277 15
-1.0943 -5.6213 0.899467 21
-0.0829712 -5.66632 1.09378 15
-0.431872 -2.2249 0.195229 9
-0.439086 -2.25985 0.0395733 52
-0.0412564 -2.29618 0.118541 90
-0.441338 -2.26929 -0.119723 50
-0.0419749 -2.29143 -0.0393988 98
-0.440823 -2.26039 -0.278076 50
-0.0415752 -2.29069 -0.197014 85
-0.442492 -2.26475 -0.44093 50
-0.0403736 -2.28863 -0.357455 53
-0.444021 -2.26427 -0.608475 56
-0.0378647 -2.278 -0.517167 47
-1.10107 -5.60397 1.30836 14
-0.0828534 -5.65383 1.50372 14
-1.10125 -5.60484 0.897125 21
-0.0924794 -5.64162 1.08902 15
-0.438636 -2.23881 0.196536 9
-0.443995 -2.26398 0.0396606 53
-0.0452639 -2.29611 0.118541 90
-0.445298 -2.26852 -0.119723 50
-0.0459742 -2.29135 -0.0393988 98
-0.445248 -2.26205 -0.27838 50
-0.0454401 -2.28315 -0.196362 86
-0.44692 -2.26638 -0.441406 50
-0.0442827 -2.28362 -0.356672 53
-0.447972 -2.26349 -0.608475 56
-0.0418405 -2.27793 -0.517167 47
-1.12461 -5.5645 1.3005 14
-0.111996 -5.62917 1.49726 14
-1.12422 -5.56753 0.892053 18
-0.121406 -5.61162 1.0833 15
-0.448873 -2.22916 0.195883 8
-0.0550116 -2.26478 0.273512 11
-0.455843 -2.26163 0.0396606 52
-0.0572856 -2.29584 0.118541 90
-0.457665 -2.2686 -0.119855 50
-0.058029 -2.29358 -0.0394424 98
-0.457579 -2.26212 -0.278684 49
-0.0574514 -2.28537 -0.196579 86
-0.458781 -2.26401 -0.441406 50
-0.0558405 -2.28337 -0.356672 53
-0.460783 -2.26585 -0.609768 58
-0.053767 -2.27768 -0.517167 47
-1.12994 -5.54602 1.29657 14
-0.121219 -5.59999 1.4895 14
-0.130537 -5.58196 1.07758 15
-0.453758 -2.23325 0.196318 8
-0.0584512 -2.25973 0.272904 11
-0.460788 -2.26572 0.0397479 53
-0.0608309 -2.29325 0.11841 90
-0.461624 -2.2678 -0.119855 50
-0.0619072 -2.28848 -0.0393552 98
-0.462127 -2.26626 -0.279293 49
-0.06144 -2.28526 -0.196579 86
-0.461745 -2.2584 -0.440453 49
-0.0598256 -2.28327 -0.356672 53
-0.465711 -2.26977 -0.611062 58
-0.0573447 -2.27759 -0.517167 47
-1.2069 -5.76893 1.35047 2
-0.148875 -5.57275 1.48239 14
-0.160006 -5.62538 1.08616 15
-0.466075 -2.2358 0.196754 8
-0.0703542 -2.26187 0.273208 11
-0.47225 -2.26336 0.0397479 50
-0.0726893 -2.28791 0.118148 90
-0.474004 -2.26779 -0.119986 50
-0.0736394 -2.29313 -0.0394424 99
-0.473476 -2.26138 -0.278988 49
-0.0734795 -2.2874 -0.196796 86
-0.474686 -2.26324 -0.441882 50
-0.0717075 -2.28045 -0.356281 53
-0.477692 -2.26975 -0.611708 58
-0.0692694 -2.27726 -0.517167 47
-1.2215 -5.78826 1.35553 24
-0.159334 -5.59904 1.4895 14
-1.22331 -5.80174 0.931465 21
-0.172253 -5.67413 1.09569 15
-0.468948 -2.23011 0.196318 4
-0.0743018 -2.26175 0.273208 11
-0.477112 -2.2649 0.0397915 52
-0.0769175 -2.29526 0.118541 90
-0.477961 -2.26696 -0.119986 50
-0.0774828 -2.288 -0.0393552 99
-0.477937 -2.26298 -0.279293 49
-0.0773925 -2.28478 -0.196579 88
-0.479654 -2.26721 -0.442834 49
-0.0756876 -2.28032 -0.356281 53
-0.0731707 -2.2747 -0.516605 47
-0.191218 -5.64637 1.50243 14
-0.483116 -2.23728 0.19719 4
-0.489493 -2.26481 0.0398351 52
-0.089243 -2.29232 0.11841 90
-0.490353 -2.26687 -0.120117 50
-0.0899538 -2.29005 -0.0393988 99
-0.491228 -2.26521 -0.279901 49
-0.0894466 -2.28683 -0.196796 86
-0.491391 -2.26218 -0.442358 50
-0.0877158 -2.28236 -0.356672 53
-0.0856495 -2.27914 -0.517728 47
-0.202582 -5.68947 1.51406 18
-1.17368 -5.38052 0.864737 1
-0.485957 -2.23156 0.196754 8
-0.492912 -2.26151 0.0397915 50
-0.0927478 -2.28968 0.118279 90
-0.493242 -2.26113 -0.119855 49
-0.0938533 -2.28739 -0.0393552 99
-0.494786 -2.26443 -0.279901 49
-0.0933413 -2.28418 -0.196579 89
-0.496392 -2.26611 -0.44331 50
-0.0917931 -2.28468 -0.357064 53
-0.0890492 -2.27413 -0.516605 47
-0.230608 -5.66907 1.50889 14
-0.498877 -2.23637 0.197408 4
-0.504352 -2.25899 0.0397915 50
-0.105062 -2.29665 0.118672 90
-0.505226 -2.26104 -0.119986 49
-0.105759 -2.29438 -0.0394861 99
-0.505004 -2.25455 -0.278988 47
-0.105229 -2.29115 -0.197231 88
-0.506778 -2.25878 -0.442358 50
-0.103968 -2.2891 -0.357847 53
-0.101264 -2.28094 -0.51829 47
-0.236089 -5.56249 1.48045 12
-0.503875 -2.24035 0.197844 4
-0.508844 -2.26054 0.0398351 49
-0.108844 -2.29147 0.11841 90
-0.508071 -2.25529 -0.119723 49
-0.109649 -2.29169 -0.0394424 99
-0.510034 -2.2585 -0.279597 30
-0.109 -2.28598 -0.196796 89
-0.511805 -2.26268 -0.44331 8
-0.107741 -2.28398 -0.357064 53
-0.10503 -2.27589 -0.517167 47
-0.266227 -5.58289 1.48627 15
-0.515038 -2.23526 0.197626 4
-0.519547 -2.25298 0.0397479 33
-0.120967 -2.29336 0.118541 90
-0.518013 -2.24278 -0.119198 11
-0.121774 -2.29358 -0.0394861 99
-0.520171 -2.24855 -0.278684 30
-0.121494 -2.28785 -0.197014 86
-0.521424 -2.25041 -0.441406 8
-0.119822 -2.28585 -0.357455 53
-0.117185 -2.28018 -0.51829 45
-0.275619 -5.57518 1.48433 15
-0.518939 -2.23435 0.197626 4
-0.295534 -5.62249 0.686062 29
-0.523304 -2.24954 0.0397042 3
-0.124838 -2.29066 0.11841 90
-0.521927 -2.24187 -0.119198 11
-0.125514 -2.28837 -0.0393988 98
-0.524659 -2.25005 -0.278988 4
-0.125224 -2.28266 -0.196579 82
-0.524791 -2.24711 -0.44093 4
-0.123426 -2.27824 -0.356281 53
-0.120668 -2.27024 -0.516044 45
-0.304868 -5.55672 1.47981 15
-0.52813 -2.2194 0.196536 4
-0.332462 -5.73477 0.700057 36
-0.532753 -2.23705 0.0395297 8
-0.137374 -2.29244 0.118541 90
-0.533658 -2.2391 -0.119198 11
-0.137893 -2.28766 -0.0393988 99
-0.533935 -2.23512 -0.277467 8
-0.137607 -2.28943 -0.197231 86
-0.535796 -2.23946 -0.439977 8
-0.136034 -2.28247 -0.357064 53
-0.133499 -2.27928 -0.51829 47
-0.318463 -5.62611 1.49855 14
-0.333574 -5.71856 1.1057 24
-0.532585 -2.2209 0.196754 11
-0.342032 -5.72675 0.699144 29
-0.536656 -2.23611 0.0395297 9
-0.141227 -2.2897 0.11841 90
-0.535811 -2.23089 -0.118804 11
-0.142035 -2.28991 -0.0394424 98
-0.537836 -2.23418 -0.277467 9
-0.141157 -2.28173 -0.196579 82
-0.541434 -2.24568 -0.441406 11
-0.140018 -2.28223 -0.357064 53
-0.137194 -2.27418 -0.517167 45
-0.352916 -5.70633 1.52052 21
-0.363205 -5.71183 1.10475 20
-0.542422 -2.21082 0.1961 9
-0.368677 -5.67287 0.692755 26
-0.54776 -2.23084 0.0394861 11
-0.153375 -2.29142 0.118541 90
-0.549276 -2.23532 -0.119198 12
-0.154186 -2.29163 -0.0394861 98
-0.550716 -2.23615 -0.278076 9
-0.153425 -2.28593 -0.197014 82
-0.552007 -2.23805 -0.440453 9
-0.151884 -2.28642 -0.357847 53
-0.149562 -2.28072 -0.518851 47
-0.361362 -5.6816 1.51406 15
-0.370172 -5.66466 1.09569 15
-0.548077 -2.21712 0.196754 9
-0.374333 -5.62277 0.68667 21
-0.549245 -2.22018 0.0393115 11
-0.156974 -2.29118 0.118541 90
-0.55017 -2.22225 -0.118542 11
-0.157851 -2.28637 -0.0393988 97
-0.555425 -2.2401 -0.278684 9
-0.157249 -2.28317 -0.196796 82
-0.557099 -2.24184 -0.441406 9
-0.155224 -2.27629 -0.356281 53
-0.152354 -2.26833 -0.516044 45
-0.388154 -5.65078 1.5063 14
-0.395262 -5.6113 1.08568 14
-0.559903 -2.21674 0.196972 9
-0.401836 -5.5935 0.683324 30
-0.561704 -2.22222 0.0393988 11
-0.168612 -2.28535 0.118279 90
-0.56364 -2.2266 -0.118936 11
-0.169422 -2.28554 -0.0393988 97
-0.567758 -2.23957 -0.278988 8
-0.169201 -2.28232 -0.196796 82
-0.569044 -2.24137 -0.441882 8
-0.167491 -2.28038 -0.357064 52
-0.164229 -2.2675 -0.516044 47
-0.396172 -5.62359 1.49919 12
-0.406384 -5.61543 1.08663 18
-0.564387 -2.21817 0.19719 9
-0.413038 -5.61259 0.685758 29
-0.566588 -2.22356 0.0394424 11
-0.1726 -2.28505 0.118279 90
-0.568762 -2.23045 -0.119198 11
-0.173594 -2.28774 -0.0394424 97
-0.173368 -2.2845 -0.197014 80
-0.572955 -2.24038 -0.441882 8
-0.171471 -2.28008 -0.357064 53
-0.168361 -2.26964 -0.516605 45
-0.422799 -5.57079 1.48562 14
-0.436344 -5.62056 1.08806 18
-0.578894 -2.22472 0.198061 8
-0.4463 -5.64738 0.690321 26
-0.184961 -2.28408 0.118279 90
-0.579802 -2.22502 -0.119067 11
-0.18597 -2.28676 -0.0394424 94
-0.184934 -2.2786 -0.196579 77
-0.58569 -2.23962 -0.442358 4
-0.183805 -2.27912 -0.357064 53
-0.180638 -2.2687 -0.516605 45
-0.43363 -5.5845 1.4895 15
-0.446537 -5.62468 1.08902 15
-0.585307 -2.23334 0.198933 8
-0.459319 -5.68617 0.695189 26
-0.188746 -2.28127 0.118148 82
-0.58559 -2.23125 -0.119461 9
-0.190162 -2.28893 -0.0394861 92
-0.189112 -2.28075 -0.196796 77
-0.589598 -2.23859 -0.442358 3
-0.18798 -2.28126 -0.357455 52
-0.184405 -2.26595 -0.516044 45
-0.464839 -5.60622 1.49596 14
-0.479466 -5.66384 1.09712 15
-0.595057 -2.22303 0.198279 4
-0.491824 -5.71583 0.699144 33
-0.200688 -2.28025 0.118148 80
-0.597913 -2.23056 -0.119592 4
-0.201929 -2.28541 -0.0394424 91
-0.201051 -2.27973 -0.196796 76
-0.601312 -2.23548 -0.442358 3
-0.199712 -2.27778 -0.357064 52
-0.604039 -2.23944 -0.611708 3
-0.196678 -2.26981 -0.517167 45
-0.477446 -5.63909 1.50501 14
-0.493116 -5.70701 1.1057 24
-0.599585 -2.22439 0.198497 4
-0.502229 -5.71991 0.699753 39
-0.204886 -2.28238 0.118279 73
-0.599197 -2.21988 -0.119067 4
-0.205699 -2.28256 -0.0393988 90
-0.20503 -2.27938 -0.196796 71
-0.603283 -2.22732 -0.44093 3
-0.204116 -2.28235 -0.357847 52
-0.609849 -2.24537 -0.613648 3
-0.200639 -2.26946 -0.517167 45
-0.510045 -5.68231 1.51729 15
-0.522438 -5.70933 1.10665 26
-0.608851 -2.21413 0.197844 8
-0.529809 -5.70247 0.697927 27
-0.216205 -2.27883 0.118148 65
-0.612141 -2.22152 -0.11933 4
-0.217017 -2.279 -0.0393552 90
-0.217192 -2.28075 -0.197014 70
-0.611929 -2.21477 -0.439025 4
-0.215439 -2.27883 -0.357455 52
-0.617976 -2.23062 -0.610415 4
-0.211901 -2.26599 -0.516605 45
-0.521924 -5.70306 1.5231 20
-0.530457 -5.67655 1.10046 15
-0.612714 -2.21306 0.197844 14
-0.535125 -5.65212 0.691842 18
-0.220417 -2.28093 0.118279 59
-0.612673 -2.20842 -0.118673 12
-0.220759 -2.27613 -0.0393115 90
-0.221173 -2.28037 -0.197014 70
-0.615793 -2.2137 -0.439025 3
-0.219647 -2.28091 -0.357847 52
-0.622907 -2.23176 -0.611062 4
-0.215856 -2.26562 -0.516605 45
-0.550693 -5.67851 1.51729 15
-0.557064 -5.64194 1.09426 14
-0.622642 -2.20253 0.19719 9
-0.56104 -5.60223 0.686062 20
-0.232754 -2.27971 0.118279 56
-0.624909 -2.20759 -0.118804 11
-0.23307 -2.27491 -0.0393115 90
-0.23311 -2.27918 -0.197014 68
-0.626418 -2.20562 -0.438073 3
-0.231342 -2.27727 -0.357455 52
-0.634584 -2.22847 -0.611062 4
-0.228589 -2.26927 -0.517728 45
-0.555428 -5.62466 1.50307 12
-0.563261 -5.60433 1.08711 15
-0.629901 -2.21341 0.198279 8
-0.570337 -5.60628 0.68667 23
-0.236335 -2.27934 0.118279 52
-0.626019 -2.19689 -0.118279 9
-0.237041 -2.2745 -0.0393115 90
-0.237087 -2.27877 -0.197014 64
-0.633646 -2.21632 -0.440453 3
-0.235068 -2.2744 -0.357064 52
-0.641807 -2.23896 -0.614295 4
-0.232153 -2.2689 -0.517728 45
-0.581168 -5.59536 1.49596 14
-0.590597 -5.59164 1.0852 15
-0.63623 -2.19345 0.196754 9
-0.601255 -5.61802 0.688496 15
-0.247736 -2.27311 0.118018 45
-0.638909 -2.19838 -0.118542 9
-0.248816 -2.27575 -0.0393552 90
-0.249016 -2.2775 -0.197014 64
-0.645544 -2.21544 -0.44093 3
-0.246973 -2.27314 -0.357064 52
-0.65381 -2.238 -0.614941 4
-0.243774 -2.26523 -0.517167 45
-0.591185 -5.59673 1.49661 14
-0.603153 -5.60758 1.08854 14
-0.642155 -2.19951 0.197408 8
-0.606 -5.57009 0.682715 26
-0.251972 -2.27515 0.118148 45
-0.645555 -2.20684 -0.119067 8
-0.252788 -2.27531 -0.0393552 90
-0.648045 -2.2125 -0.27838 4
-0.25299 -2.27706 -0.197014 64
-0.655639 -2.2355 -0.445215 3
-0.251206 -2.27516 -0.357455 50
-0.664253 -2.25759 -0.620761 23
-0.248247 -2.26965 -0.51829 45
-0.629775 -5.57996 1.08378 17
-0.654759 -2.19839 0.197626 4
-0.644796 -5.64316 0.692147 26
-0.263712 -2.26879 0.117887 41
-0.66425 -2.22735 -0.12038 3
-0.265379 -2.2764 -0.0393988 90
-0.666412 -2.23035 -0.281118 11
-0.265192 -2.27818 -0.197231 64
-0.666315 -2.22722 -0.444263 50
-0.263115 -2.27382 -0.357455 50
-0.673979 -2.24714 -0.618821 61
-0.259978 -2.26343 -0.517167 45
-0.643951 -5.61787 1.0914 21
-0.660744 -2.2044 0.198279 3
-0.652242 -5.62981 0.690625 29
-0.669277 -2.23139 0.0400533 11
-0.268424 -2.2783 0.11841 41
-0.669575 -2.23097 -0.120642 30
-0.269352 -2.27593 -0.0393988 90
-0.674208 -2.24356 -0.282943 53
-0.269742 -2.28266 -0.197666 62
-0.678708 -2.25425 -0.449977 53
-0.267084 -2.27335 -0.357455 49
-0.682095 -2.25983 -0.622701 62
-0.263809 -2.26544 -0.517728 45
-0.670639 -5.59991 1.08854 23
-0.671164 -2.19865 0.198061 4
-0.679636 -5.60908 0.688496 29
-0.679099 -2.2232 0.039966 52
-0.279149 -2.26695 0.117887 38
-0.689632 -2.2562 -0.122218 53
-0.280868 -2.27454 -0.0393988 90
-0.687402 -2.24474 -0.283552 56
-0.280393 -2.27385 -0.197014 61
-0.689388 -2.24844 -0.449501 53
-0.279279 -2.27437 -0.357847 49
-0.692813 -2.25404 -0.622054 64
-0.276246 -2.26887 -0.518851 45
-0.678648 -5.58411 1.08568 23
-0.676466 -2.20223 0.198497 4
-0.68732 -5.59064 0.686366 29
-0.694752 -2.26023 0.0406641 55
-0.283714 -2.27141 0.118148 35
-0.693569 -2.25499 -0.122218 55
-0.284226 -2.26908 -0.0393115 88
-0.695712 -2.25776 -0.285377 56
-0.284969 -2.2783 -0.197449 59
-0.695486 -2.25426 -0.450929 53
-0.283548 -2.27633 -0.358238 49
-0.697461 -2.25514 -0.622701 65
-0.279619 -2.26354 -0.517728 45
-0.696733 -5.56997 1.49273 15
-0.70665 -5.57075 1.08378 20
-0.686497 -2.19391 0.198061 3
-0.722855 -5.6362 0.692451 20
-0.704332 -2.24941 0.0405332 55
-0.294969 -2.26494 0.117887 32
-0.705011 -2.24882 -0.122086 55
-0.29674 -2.27252 -0.0393988 85
-0.706779 -2.25172 -0.285073 56
-0.296975 -2.27425 -0.197231 59
-0.708754 -2.25527 -0.451881 55
-0.29515 -2.27237 -0.357847 49
-0.710713 -2.25606 -0.623994 62
-0.292079 -2.26688 -0.518851 45
-1.68439 -5.33713 1.28197 1
-0.705849 -5.56396 1.49144 15
-1.68847 -5.35326 0.881517 1
-0.722637 -5.61076 1.09188 14
-0.690325 -2.19271 0.198061 3
-0.732691 -5.63492 0.692451 23
-0.710155 -2.25282 0.0406205 53
-0.299564 -2.26938 0.118148 27
-0.711192 -2.25473 -0.12248 53
-0.300383 -2.26952 -0.0393552 80
-0.712205 -2.25522 -0.285682 55
-0.301587 -2.27867 -0.197666 58
-0.713431 -2.25637 -0.452358 65
-0.29975 -2.27675 -0.35863 49
-0.717238 -2.26159 -0.625934 59
-0.296345 -2.26879 -0.519413 45
-1.72369 -5.3604 1.28983 1
-0.740035 -5.59118 1.49984 14
-1.7295 -5.38166 0.88776 1
-0.753626 -5.61906 1.09426 15
-0.705227 -2.19842 0.198933 3
-0.767142 -5.66039 0.696102 29
-0.723472 -2.25383 0.0407077 55
-0.310834 -2.2603 0.117756 23
-0.725282 -2.25811 -0.122874 53
-0.313666 -2.27529 -0.0394861 76
-0.725158 -2.25369 -0.285986 56
-0.313514 -2.27706 -0.197666 58
-0.726382 -2.25482 -0.452834 55
-0.311337 -2.2727 -0.358238 49
-0.727583 -2.25321 -0.624641 61
-0.308293 -2.26473 -0.518851 45
-1.8266 -5.64973 1.36058 24
-0.753939 -5.62101 1.50824 14
-1.73719 -5.37659 0.88737 1
-0.769343 -5.66152 1.10284 21
-0.709063 -2.19719 0.198933 4
-0.778713 -5.67885 0.698536 35
-0.729713 -2.2597 0.0408386 90
-0.315061 -2.26476 0.118018 20
-0.728453 -2.25446 -0.122743 59
-0.317978 -2.27722 -0.0395297 74
-0.729463 -2.25491 -0.28629 55
-0.317487 -2.27651 -0.197666 56
-0.731075 -2.25588 -0.45331 53
-0.315303 -2.27215 -0.358238 49
