# .PCD v0.7 - Point Cloud Data file format
VERSION 0.7
FIELDS x y z intensity
SIZE 4 4 4 4
TYPE F F F F
COUNT 1 1 1 1
WIDTH 1621
HEIGHT 1
VIEWPOINT 0 0 0 1 0 0 0
POINTS 1621
DATA ascii
-0.617966 0.337307 -0.0351819 56
-1.36696 0.74866 -0.186804 4
-0.628429 0.216788 -0.055016 24
-1.20783 0.662141 -0.260463 3
-1.94112 0.65759 -0.319478 12
-0.94736 0.519845 -0.279989 4
-2.37218 1.31493 0.617118 36
-2.65995 0.904474 0.742489 47
-2.3698 1.31308 0.422613 35
-2.68932 0.919582 0.545224 45
-2.70583 0.929377 0.34653 53
-1.37769 0.762708 0.0268767 4
-0.616191 0.340538 -0.0351819 56
-1.37169 0.760629 -0.18802 4
-0.629641 0.220883 -0.0552335 29
-1.20446 0.668246 -0.260463 3
-1.93298 0.666146 -0.318695 12
-0.946826 0.525809 -0.280636 4
-2.35286 1.30958 0.612626 35
-2.66065 0.909892 0.743135 49
-2.35456 1.31001 0.420271 35
-2.68291 0.923155 0.544271 44
-2.7042 0.934098 0.34653 47
-1.38058 0.767785 0.026964 4
-0.617776 0.342829 -0.0353131 56
-1.42783 0.497251 -0.0257859 4
-1.37036 0.763021 -0.18802 4
-0.622191 0.219547 -0.0545811 38
-1.20115 0.66915 -0.259987 3
-1.92948 0.668716 -0.318303 12
-0.95003 0.529984 -0.281929 4
-2.32665 1.31152 0.607573 36
-2.65569 0.924274 0.743135 49
-2.33238 1.31423 0.41754 35
-2.6734 0.935576 0.543317 44
-2.68974 0.94544 0.345313 44
-1.37437 0.773775 0.0269203 8
-0.613799 0.344832 -0.0351819 53
-1.43455 0.508279 -0.0259605 4
-1.37054 0.772866 -0.188629 4
-0.623383 0.223625 -0.0547986 47
-1.19538 0.674431 -0.25951 3
-1.92828 0.679625 -0.318695 12
-0.94304 0.532571 -0.280636 4
-2.31186 1.30797 0.604203 38
-2.65408 0.928908 0.743135 49
-2.31527 1.30938 0.414808 35
-2.66713 0.938619 0.542364 44
-2.68591 0.948841 0.345008 44
-1.37954 0.779868 0.0270512 8
-0.61754 0.348364 -0.0354444 55
-1.43366 0.510782 -0.0259605 4
-1.36284 0.771346 -0.187716 4
-0.625341 0.225541 -0.055016 52
-1.19633 0.677728 -0.259987 3
-1.9201 0.680531 -0.31752 12
-0.942109 0.534216 -0.280636 4
-2.28808 1.31036 0.599711 36
-2.64706 0.941524 0.742489 47
-2.2891 1.31043 0.411296 35
-2.66235 0.952107 0.542364 45
-2.6739 0.960387 0.344096 42
-1.3669 0.781869 0.0268767 8
-0.611437 0.349002 -0.0351819 53
-1.4287 0.517188 -0.0259168 4
-1.36524 0.782177 -0.188629 4
-0.626536 0.229543 -0.0552335 50
-1.18863 0.681329 -0.259034 3
-1.91186 0.688912 -0.316737 12
-0.943579 0.541387 -0.281929 4
-1.07049 0.386766 -0.254372 3
-2.26912 1.30423 0.595219 36
-2.64769 0.946952 0.743135 49
-2.27183 1.3058 0.408565 36
-2.6653 0.958405 0.543317 49
-2.67222 0.965052 0.344096 42
-1.36987 0.786747 0.026964 8
-1.46621 0.532952 0.0799432 4
-0.612991 0.351314 -0.0353131 53
-1.4325 0.521376 -0.0260041 4
-1.35743 0.780841 -0.187716 4
-0.628477 0.231481 -0.0554509 50
-1.18957 0.684629 -0.25951 3
-1.90833 0.691413 -0.316346 12
-0.942633 0.543033 -0.281929 4
-1.06293 0.386168 -0.252687 3
-2.2473 1.3079 0.591288 36
-2.6427 0.960802 0.743135 47
-2.25216 1.31022 0.406223 36
-2.66255 0.973186 0.543794 50
-2.24556 1.30587 0.224208 36
-2.66246 0.977328 0.343487 41
-1.37005 0.796425 0.0270512 8
-1.47043 0.543195 0.0803357 4
-0.6133 0.355776 -0.0354444 53
-1.42741 0.528009 -0.0259605 4
-0.620241 0.232199 -0.0547986 49
-1.17537 0.684661 -0.25713 3
-1.90469 0.701395 -0.316346 12
-0.941861 0.54918 -0.282576 4
-1.07005 0.395064 -0.254933 3
-2.23473 1.30528 0.588481 36
-2.64329 0.966238 0.743782 49
-2.23708 1.30667 0.403882 36
-2.65855 0.976989 0.543317 50
-2.23038 1.30225 0.222901 35
-2.65144 0.978553 0.34227 38
-1.46714 0.544899 0.0802048 4
-0.614833 0.358106 -0.0355757 52
-1.43586 0.533956 -0.026135 4
-0.624509 0.235002 -0.0552335 47
-1.18052 0.690435 -0.258558 3
-1.89883 0.703015 -0.315563 12
-0.938819 0.5496 -0.281929 4
-1.06936 0.396931 -0.254933 3
-2.20877 1.30618 0.583427 36
-2.63592 0.979228 0.743135 49
-2.21108 1.30705 0.40037 36
-2.65109 0.990041 0.542841 50
-2.20853 1.30503 0.221376 35
-2.6393 0.98982 0.341358 36
-1.46426 0.552573 0.0802048 4
-0.617246 0.363864 -0.0358382 50
-1.42837 0.539714 -0.0260477 4
-0.620937 0.237396 -0.055016 47
-1.16845 0.691598 -0.256653 3
-1.89281 0.712083 -0.315171 12
-0.935928 0.554508 -0.281929 4
-1.06955 0.403375 -0.255495 3
-2.19415 1.30219 0.580058 35
-2.63195 0.982986 0.742489 49
-2.19818 1.3046 0.398419 35
-2.64936 0.994666 0.542841 50
-2.1934 1.30125 0.220068 36
-2.62131 0.988325 0.339228 33
-1.45862 0.553371 0.0799432 4
-0.623048 0.368768 -0.0362321 47
-1.4321 0.543967 -0.026135 4
-0.622853 0.239356 -0.0552335 45
-1.15881 0.688612 -0.254749 3
-1.89156 0.715386 -0.315171 12
-0.932885 0.554904 -0.281282 4
-1.06656 0.404387 -0.254933 4
-2.16828 1.30274 0.575004 36
-2.62676 0.996753 0.742489 47
-2.17228 1.30464 0.394907 36
-2.64641 1.0094 0.543317 50
-2.17161 1.30374 0.218543 38
-2.60682 0.998502 0.338011 32
-1.4627 0.563673 0.0803357 4
-0.618905 0.370847 -0.0361008 42
-1.42456 0.549673 -0.0260477 4
-0.616896 0.240944 -0.0547986 45
-1.15939 0.697204 -0.255701 3
-1.88317 0.72352 -0.314388 12
-0.940304 0.566021 -0.284516 4
-1.06443 0.409966 -0.254933 3
-2.15558 1.30022 0.572196 36
-2.62276 1.00048 0.741843 47
-2.1552 1.29949 0.392175 36
-2.64447 1.01447 0.543317 50
-2.15654 1.2998 0.217236 38
-2.58885 0.996837 0.335881 27
-1.45939 0.56533 0.0802048 4
-0.624667 0.375799 -0.0364946 38
-1.42127 0.551262 -0.0260041 4
-0.623449 0.2447 -0.0554509 45
-1.15817 0.699226 -0.255701 3
-1.8773 0.725038 -0.313605 12
-0.93715 0.566573 -0.283869 4
-1.05689 0.409214 -0.253249 4
-2.13604 1.30424 0.568827 36
-2.61957 1.01552 0.742489 47
-2.13339 1.30212 0.389444 36
-2.63455 1.02653 0.542364 50
-2.13673 1.30366 0.215928 38
-2.56955 1.00543 0.334056 27
-1.45398 0.57231 0.080074 4
-0.626951 0.381669 -0.0367572 36
-1.42758 0.56258 -0.0261786 4
-0.626799 0.249772 -0.0558859 44
-1.146 0.700355 -0.253796 3
-1.88268 0.738442 -0.315171 12
-0.934171 0.571472 -0.283869 4
-1.05693 0.415808 -0.25381 3
-2.1153 1.29613 0.563773 35
-2.61779 1.02009 0.742489 49
-2.1166 1.29643 0.386712 38
-2.63732 1.03291 0.543317 50
-2.11746 1.29697 0.214185 39
-2.56565 1.00856 0.333752 27
-1.4554 0.575505 0.0802048 4
-1.41729 0.561418 -0.0260041 4
-0.624044 0.249957 -0.0556684 41
-1.14477 0.702354 -0.253796 3
-1.87679 0.739926 -0.314388 12
-0.933172 0.573102 -0.283869 4
-1.05854 0.418353 -0.254372 3
-2.09607 1.29948 0.560404 38
-2.61259 1.03333 0.742489 49
-2.09929 1.30099 0.384761 36
-2.62521 1.04354 0.541888 50
-2.09606 1.29849 0.21266 39
-2.54881 1.0174 0.33223 27
-1.45469 0.58404 0.0803357 4
-1.41907 0.570434 -0.0260913 4
-0.618143 0.251269 -0.0552335 39
-1.13287 0.702954 -0.251892 3
-1.88207 0.753391 -0.315954 12
-0.934359 0.580371 -0.285162 4
-1.04954 0.421197 -0.252687 3
-2.08162 1.29504 0.557035 38
-2.61078 1.03789 0.742489 47
-2.08445 1.29682 0.38242 38
-2.63023 1.05084 0.543317 50
-2.08533 1.29688 0.211788 39
-2.53781 1.01817 0.331013 29
-1.45599 0.587505 0.0804665 4
-1.41343 0.571052 -0.0260041 4
-0.62464 0.255124 -0.0558859 36
-1.13372 0.70623 -0.252368 3
-0.931297 0.580721 -0.284516 3
-1.05786 0.426635 -0.254933 3
-2.06222 1.29849 0.553666 38
-2.60307 1.05065 0.741843 47
-2.06927 1.30245 0.380859 38
-2.61787 1.06184 0.541888 49
-2.06165 1.29716 0.210045 38
-2.52554 1.02865 0.330101 29
-1.44133 0.590425 0.0798123 4
-1.41506 0.580327 -0.0260913 4
-1.12378 0.708224 -0.250939 3
-0.930284 0.58688 -0.285162 3
-1.05787 0.433081 -0.255495 3
-2.04782 1.29391 0.550297 36
-2.60348 1.05609 0.742489 47
-2.0503 1.29549 0.377737 38
-2.62056 1.06825 0.542841 49
-2.05097 1.29543 0.209174 39
-2.53064 1.03586 0.331013 29
-1.44492 0.594826 0.080074 4
-1.42561 0.587522 -0.0263095 4
-1.1184 0.707556 -0.249987 3
-0.929259 0.588503 -0.285162 3
-1.05711 0.434927 -0.255495 4
-2.02848 1.29709 0.546928 36
-2.60014 1.07062 0.743135 47
-2.03101 1.29822 0.375396 38
-2.61266 1.08103 0.542364 50
-2.02947 1.29676 0.207649 39
-2.53665 1.05384 0.332535 27
-1.65551 1.05791 0.0336831 11
-1.44639 0.604294 0.0803357 4
-1.41559 0.592107 -0.0261786 4
-1.11675 0.714727 -0.250463 3
-0.928196 0.594666 -0.285809 3
-1.05707 0.441385 -0.256056 4
-2.01619 1.29369 0.54412 36
-2.60051 1.07608 0.743782 47
-2.01835 1.29509 0.373445 39
-2.01882 1.29491 0.206777 39
-2.5348 1.05826 0.332535 29
-1.64945 1.0581 0.0335959 12
-1.44764 0.607777 0.0804665 4
-1.41686 0.595538 -0.0262222 4
-1.11137 0.714018 -0.249511 3
-0.921069 0.592358 -0.283869 3
-1.04505 0.438564 -0.253249 3
-1.99487 1.29529 0.540189 38
-1.99705 1.29622 0.370713 39
-1.99531 1.29461 0.205034 41
-1.64808 1.06944 0.0336831 12
-1.44904 0.617291 0.0807282 4
-1.5934 1.0347 -0.0980629 14
-1.41372 0.602948 -0.0262222 4
-1.11173 0.722506 -0.250463 3
-1.48597 0.632319 -0.250571 9
-0.924022 0.601131 -0.285809 4
-1.05172 0.447809 -0.255495 3
-1.9824 1.29211 0.537382 38
-1.98651 1.29431 0.369152 39
-1.9847 1.29265 0.204162 41
-1.64184 1.06987 0.0335959 12
-1.44336 0.617869 0.0804665 4
-1.60832 1.0484 -0.0991131 14
-1.41497 0.606392 -0.0262659 4
-1.1002 0.71773 -0.248082 3
-1.47123 0.629128 -0.248222 8
-0.928926 0.606874 -0.287749 3
-1.04869 0.448695 -0.254933 3
-1.96319 1.29476 0.534012 39
-1.96505 1.29552 0.366421 38
-1.96313 1.29377 0.202637 41
-1.64247 1.08259 0.0337268 12
-1.44688 0.628632 0.0808591 4
-1.40478 0.611069 -0.026135 4
-1.0963 0.723672 -0.248082 3
-0.92171 0.609062 -0.286455 3
-1.04401 0.453402 -0.254372 3
-1.951 1.29111 0.531205 38
-1.95067 1.29042 0.364079 39
-1.95464 1.29307 0.201983 42
-2.79087 1.21063 0.368739 14
-1.64475 1.08821 0.033814 12
-1.44818 0.631896 0.0809899 4
-1.41059 0.616502 -0.0262659 4
-1.09503 0.725584 -0.248082 3
-0.930699 0.617357 -0.289688 3
-1.04553 0.456005 -0.254933 3
-1.93207 1.29317 0.527836 39
-1.93362 1.29374 0.362128 39
-2.8616 1.25429 0.600032 26
-1.93358 1.29324 0.200458 41
-2.76858 1.21826 0.36661 14
-1.43342 0.634452 0.0803357 4
-1.40059 0.620617 -0.026135 4
-1.08116 0.724277 -0.245702 3
-1.46343 0.647055 -0.248222 4
-0.923555 0.619365 -0.288395 3
-1.0476 0.463426 -0.256056 3
-1.9179 1.28805 0.524467 39
-2.85186 1.2501 0.823911 26
-1.92317 1.2916 0.360567 39
-2.83918 1.25041 0.595743 26
-1.92305 1.29106 0.199587 41
-2.76645 1.22309 0.36661 27
-1.44145 0.640983 0.0808591 4
-1.40408 0.62508 -0.0262222 4
-1.07989 0.726163 -0.245702 3
-1.46908 0.652595 -0.249396 4
-0.93248 0.627731 -0.291628 3
-1.04456 0.464273 -0.255495 3
-1.90084 1.29156 0.521659 39
-2.81878 1.25328 0.816157 26
-1.90617 1.29471 0.358616 41
-2.80345 1.2523 0.589547 24
-1.89773 1.28851 0.197626 41
-2.72602 1.22238 0.362046 27
-1.43579 0.647502 0.0807282 4
-1.3985 0.631401 -0.0261786 4
-1.06594 0.724895 -0.243321 3
-1.46113 0.658263 -0.248613 4
-0.923197 0.62852 -0.289688 3
-1.04211 0.469736 -0.255495 3
-1.8845 1.28526 0.517728 39
-2.77466 1.23955 0.803879 24
-1.88963 1.28829 0.355884 41
-2.74279 1.23163 0.577156 24
-1.89342 1.29041 0.197408 41
-2.72841 1.22917 0.362654 15
-1.87916 1.28164 0.0390934 35
-1.44149 0.653078 0.0811207 4
-1.4088 0.638968 -0.0263968 4
-1.06467 0.726755 -0.243321 4
-1.46223 0.661824 -0.249005 4
-0.927964 0.634388 -0.291628 3
-1.04351 0.47255 -0.256056 3
-1.8695 1.28989 0.515482 39
-2.7459 1.24461 0.797417 56
-1.8745 1.29288 0.354324 39
-2.74748 1.25104 0.579538 53
-1.87207 1.29073 0.195883 42
-2.67655 1.22336 0.35657 14
-1.87654 1.2943 0.0391806 41
-1.4334 0.658796 0.0808591 4
-1.39622 0.64243 -0.0262222 4
-1.0587 0.731108 -0.242845 4
-0.92463 0.639238 -0.291628 3
-1.02763 0.472144 -0.252687 3
-1.85546 1.2845 0.512113 39
-2.74152 1.2484 0.79677 42
-1.86232 1.28879 0.352372 39
-2.72519 1.24668 0.575249 32
-1.86572 1.29116 0.195447 42
-2.66108 1.22137 0.354744 14
-1.86401 1.29046 0.0389625 41
-1.44144 0.665204 0.0813824 4
-1.40419 0.649033 -0.0263968 4
-1.05339 0.730154 -0.241892 4
-0.925495 0.64223 -0.292275 3
-1.02246 0.471735 -0.251564 3
-1.84272 1.29 0.510428 39
-2.70225 1.24714 0.787077 26
-1.84948 1.29428 0.351202 39
-2.6921 1.24812 0.56953 26
-1.84488 1.29059 0.193922 42
-2.62538 1.22173 0.350789 14
-1.84722 1.2927 0.0387443 41
-1.42661 0.667486 0.0807282 4
-1.40089 0.656132 -0.0263968 4
-1.20139 0.841401 -0.175547 8
-1.0537 0.738297 -0.242845 4
-1.02661 0.48015 -0.253249 3
-1.83073 1.28589 0.507621 39
-2.67595 1.24072 0.779969 26
-1.83308 1.28756 0.34847 41
-2.66098 1.23939 0.563334 29
-1.82836 1.28378 0.192396 42
-2.594 1.21269 0.346834 14
-1.83473 1.28874 0.0385262 41
-1.42318 0.66892 0.0805974 4
-1.402 0.659633 -0.0264404 4
-1.19992 0.843496 -0.175547 9
-1.0484 0.737307 -0.241892 4
-1.01914 0.478862 -0.251564 3
-1.81581 1.29013 0.505375 39
-2.66067 1.25062 0.777384 49
-1.81827 1.29141 0.346909 41
-2.65667 1.25435 0.563811 58
-1.81553 1.289 0.191743 42
-2.58088 1.22308 0.345921 14
-1.81981 1.29253 0.0383517 42
-1.43095 0.681697 0.0812516 4
-1.39401 0.664827 -0.0263531 4
-1.04652 0.744211 -0.242368 4
-1.02323 0.487306 -0.253249 3
-1.80188 1.28449 0.502005 41
-2.66067 1.25629 0.77803 56
-1.80797 1.28885 0.345348 41
-2.65892 1.26108 0.564764 58
-1.80111 1.28349 0.190435 42
-2.5608 1.21908 0.343487 24
-1.80535 1.28699 0.0380899 41
-1.42074 0.67991 0.0807282 4
-1.40188 0.671551 -0.0265277 4
-1.04722 0.747464 -0.242845 4
-1.02238 0.489091 -0.253249 3
-1.7848 1.2874 0.499198 41
-2.65819 1.27274 0.779323 56
-1.78896 1.28994 0.343007 42
-2.65648 1.27757 0.565717 58
-1.78808 1.28884 0.189782 42
-2.5497 1.23077 0.342879 26
-1.7862 1.28796 0.0378281 41
-1.42378 0.690836 0.0811207 4
-1.39147 0.67587 -0.0263968 4
-1.01313 0.491454 -0.251564 4
-1.77489 1.28448 0.496952 41
-2.66032 1.27947 0.780615 56
-1.77693 1.2855 0.341056 42
-2.65646 1.28327 0.566194 59
-1.77776 1.28612 0.18891 44
-2.56341 1.24232 0.345008 26
-1.77788 1.28668 0.0376972 42
-1.41595 0.689812 0.0807282 4
-1.38804 0.677209 -0.0263531 4
-1.01674 0.495159 -0.252687 3
-1.75831 1.28656 0.494144 41
-2.65816 1.29502 0.781908 59
-1.76021 1.28749 0.339105 42
-2.65434 1.29885 0.567147 61
-1.75917 1.28627 0.187603 44
-2.55464 1.25464 0.344704 27
-1.76327 1.28975 0.0375227 44
-1.41456 0.698315 0.0808591 4
-1.39357 0.688627 -0.0265277 4
-1.75976 1.28906 -0.263168 42
-1.01632 0.501545 -0.253249 4
-1.74625 1.28241 0.491336 41
-2.66241 1.30284 0.783846 65
-1.74603 1.28179 0.336764 42
-2.65846 1.30718 0.568577 68
-1.7509 1.28492 0.186949 42
-2.56358 1.26456 0.346225 29
-1.75475 1.28869 0.0373918 44
-1.4111 0.69968 0.0807282 4
-1.39685 0.693267 -0.0266149 4
-1.74951 1.28624 -0.261951 45
-1.00889 0.5001 -0.251564 4
-1.72365 1.28021 0.486844 41
-2.66398 1.3215 0.786431 73
-1.72718 1.28238 0.334422 42
-2.65817 1.32435 0.570007 79
-1.72793 1.28249 0.185206 42
-2.55004 1.2751 0.345313 32
-1.73394 1.28742 0.0370864 42
-1.4207 0.713991 0.0815132 4
-1.38637 0.697465 -0.026484 4
-1.00617 0.505551 -0.251564 3
-1.71969 1.28146 0.486283 41
-2.65302 1.32185 0.783846 59
-1.72318 1.28361 0.334032 42
-2.65146 1.3268 0.569053 53
-1.71771 1.27954 0.184334 44
-2.56357 1.28687 0.347442 23
-1.72368 1.28447 0.0369118 41
-1.41288 0.712868 0.0811207 4
-1.38292 0.698764 -0.0264404 4
-0.99883 0.503868 -0.24988 4
-1.69545 1.27724 0.481229 42
-2.62903 1.32659 0.778677 33
-1.71052 1.28816 0.332861 41
-2.62061 1.32804 0.563811 32
-1.70325 1.28223 0.183463 44
-2.55901 1.3014 0.347747 15
-1.70119 1.28113 0.0365628 42
-1.42026 0.725904 0.0817749 4
-1.37936 0.705754 -0.0264404 4
-1.70199 1.28359 -0.257083 47
-1.96902 1.00348 -0.344927 12
-0.996179 0.509091 -0.24988 3
-1.69344 1.2799 0.481229 42
-2.59868 1.31703 0.770276 32
-1.69842 1.28369 0.33091 42
-2.58984 1.31819 0.557615 30
-1.69704 1.28219 0.183027 44
-2.52798 1.29123 0.343792 14
-1.69496 1.28108 0.0364755 44
-1.41454 0.726115 0.0815132 4
-1.6907 1.27832 -0.109615 23
-1.38036 0.709296 -0.026484 4
-1.69579 1.28356 -0.256475 47
-1.97606 1.01139 -0.346493 12
-0.995289 0.510829 -0.24988 3
-1.67682 1.28164 0.478421 42
-2.5767 1.32292 0.765752 30
-1.67991 1.28356 0.328569 42
-2.56543 1.32276 0.553802 29
-1.67646 1.28047 0.181502 45
-2.49692 1.29195 0.340445 15
-1.68426 1.2869 0.0363883 44
-1.4085 0.732366 0.0813824 4
-1.68376 1.28745 -0.109615 27
-1.36996 0.713072 -0.0263531 4
-1.97732 1.02512 -0.347667 14
-0.994767 0.517147 -0.250441 3
-1.66685 1.27863 0.476175 42
-2.5529 1.31639 0.75929 30
-1.67179 1.28198 0.327398 42
-2.54544 1.31868 0.54999 32
-1.67027 1.28036 0.181066 45
-2.49907 1.29859 0.341053 15
-1.66989 1.281 0.0361265 44
-1.41166 0.737121 0.0816441 4
-1.67359 1.2843 -0.10909 32
-1.37315 0.717764 -0.0264404 4
-1.96895 1.02516 -0.346493 14
-0.998191 0.521119 -0.251564 4
-1.65221 1.28165 0.473929 42
-2.52646 1.32015 0.753475 30
-1.65703 1.28495 0.325837 44
-2.51675 1.32062 0.545224 30
-1.65545 1.28327 0.180194 44
-2.47662 1.30402 0.338924 21
-1.65724 1.28512 0.0359956 44
-1.40102 0.741266 0.0812516 4
-1.65502 1.28386 -0.108302 35
-1.36925 0.725183 -0.0264404 4
-1.94151 1.02433 -0.342577 14
-0.999674 0.528772 -0.252687 4
-1.64251 1.27826 0.471683 42
-2.51131 1.31784 0.749597 30
-1.647 1.28177 0.324276 42
-2.49488 1.31475 0.540934 32
-1.64142 1.27697 0.178887 44
-2.46776 1.30488 0.338011 27
-1.64711 1.28187 0.0358211 45
-1.39751 0.742545 0.0811207 4
-1.64687 1.28214 -0.107909 38
-1.36798 0.727572 -0.0264404 4
-1.92443 1.01966 -0.339837 14
-0.996593 0.529382 -0.252126 4
-1.63175 1.28411 0.47056 44
-2.48303 1.31968 0.743135 32
-1.63056 1.28273 0.322325 44
-2.47063 1.31858 0.537122 32
-1.62493 1.27785 0.177798 45
-2.45213 1.31311 0.336794 32
-1.63448 1.28583 0.0356902 45
-1.39361 0.749852 0.0811207 4
-1.63229 1.28457 -0.107383 39
-1.36856 0.737082 -0.0265277 4
-1.90835 1.02357 -0.337879 14
-1.00026 0.538027 -0.25381 4
-1.61635 1.27609 0.466629 44
-2.46153 1.31381 0.737319 32
-1.61692 1.2761 0.319984 44
-2.45533 1.31596 0.534262 32
-1.61683 1.27605 0.177144 45
-2.43475 1.30876 0.334664 32
-1.62243 1.28093 0.035472 45
-1.40123 0.756759 0.0816441 4
-1.62417 1.28277 -0.10699 42
-1.36066 0.735922 -0.0263968 4
-1.61141 1.27495 -0.391884 47
-1.89351 1.01991 -0.33553 14
-0.997264 0.53845 -0.253249 4
-1.60394 1.27998 0.464945 44
-2.43571 1.31595 0.731504 32
-1.60443 1.27993 0.318813 42
-2.43353 1.3202 0.530926 32
-1.60062 1.27644 0.176055 47
-2.41041 1.31203 0.33223 32
-1.60812 1.28289 0.0352975 45
-1.60963 1.28502 -0.106465 44
-1.36351 0.74638 -0.0265277 4
-1.60877 1.28616 -0.392837 52
-1.87946 1.0251 -0.333964 14
-0.990146 0.541345 -0.252126 4
-1.5903 1.27363 0.461575 42
-2.42066 1.31331 0.727626 32
-1.59449 1.27655 0.317252 42
-2.40726 1.312 0.525683 32
-1.5945 1.27612 0.175619 45
-2.39286 1.30793 0.330101 33
-1.5959 1.27815 0.0350793 45
-1.60349 1.2847 -0.106202 45
-1.36221 0.748759 -0.0265277 4
-1.59313 1.2782 -0.389504 52
-1.86683 1.02247 -0.332007 14
-0.984918 0.540746 -0.251003 3
-1.5796 1.27915 0.460452 45
-2.39233 1.3148 0.721164 32
-1.57797 1.27738 0.315301 44
-2.3853 1.31631 0.522347 33
-1.5779 1.27689 0.174529 47
-2.36837 1.31128 0.327667 33
-1.58725 1.28492 0.0350357 45
-1.57929 1.27893 -0.105021 45
-1.35376 0.7537 -0.0264404 4
-1.57857 1.28061 -0.387599 53
-1.84631 1.02388 -0.329266 14
-1.57535 1.2798 -0.534113 59
-0.986247 0.548416 -0.252126 3
-1.57003 1.27548 0.458206 44
-2.37733 1.31199 0.717287 33
-1.5683 1.27363 0.31374 44
-2.36366 1.3098 0.518058 35
-1.57181 1.2765 0.174094 47
-2.35111 1.30658 0.325537 33
-1.57724 1.28138 0.0348612 45
-1.57512 1.28011 -0.104889 45
-1.35244 0.756061 -0.0264404 4
-1.56492 1.27406 -0.384742 52
-1.83588 1.02232 -0.3277 14
-1.56563 1.27644 -0.531527 59
-0.981119 0.547609 -0.251003 3
-1.55392 1.27594 0.455399 44
-2.35378 1.31462 0.712117 33
-1.56161 1.28182 0.31374 44
-2.34201 1.31337 0.514722 35
-1.5557 1.27653 0.173004 45
-2.32475 1.30796 0.322799 35
-1.56108 1.28141 0.034643 47
-1.56068 1.28199 -0.104364 47
-1.3486 0.762897 -0.0264404 4
-1.55467 1.27885 -0.38379 52
-1.81327 1.02226 -0.324568 14
-1.5517 1.2782 -0.52894 59
-0.978238 0.552738 -0.251003 4
-1.54793 1.27555 0.454276 45
-2.33672 1.31048 0.707594 33
-1.55175 1.27826 0.312179 44
-2.3245 1.30946 0.511386 36
-1.54579 1.27291 0.172133 47
-2.31381 1.30715 0.321582 35
-1.55284 1.27963 0.0345121 45
-1.55459 1.28153 -0.104102 47
-1.34291 0.762794 -0.0263531 4
-1.54676 1.27687 -0.382361 52
-1.78782 1.01209 -0.320261 14
-1.54552 1.27809 -0.527647 59
-0.9709 0.550866 -0.249318 3
-1.53166 1.2761 0.451468 45
-2.31278 1.3136 0.702424 35
-1.53722 1.28031 0.310618 44
-2.30907 1.31677 0.509479 36
-1.53314 1.27647 0.171479 47
-2.2873 1.30859 0.318844 35
-1.5346 1.27814 0.0342503 45
-1.53828 1.28166 -0.103445 45
-1.34962 0.776246 -0.0265713 4
-1.53229 1.27892 -0.380456 53
-1.7673 1.01319 -0.31752 14
-1.53325 1.28152 -0.525707 59
-0.967906 0.556111 -0.249318 3
-1.52218 1.27225 0.449222 45
-2.28948 1.3057 0.695962 35
-1.52741 1.27665 0.309058 45
-2.28545 1.30864 0.504713 35
-1.52136 1.27115 0.170389 45
-2.26994 1.30396 0.316714 33
-1.52853 1.2776 0.0341631 45
-1.53029 1.27953 -0.103051 47
-1.5263 1.27844 -0.379504 53
-1.74839 1.00646 -0.314388 14
-1.51992 1.27487 -0.521827 59
-0.977511 0.56384 -0.252126 3
-1.50969 1.27575 0.447537 45
-2.27424 1.31286 0.693378 35
-1.51316 1.27825 0.307497 45
-2.26369 1.312 0.501377 35
-1.50898 1.27427 0.169736 47
-2.24375 1.30464 0.313976 33
-1.51228 1.27752 0.0339449 45
-1.51214 1.27785 -0.102264 47
-1.50627 1.27423 -0.237612 47
-1.5121 1.28006 -0.377599 53
-1.72387 1.00446 -0.310865 14
-1.51138 1.28125 -0.521181 61
-0.968218 0.565293 -0.250441 3
-1.50026 1.27181 0.445291 45
-2.25521 1.30717 0.688208 35
-1.50528 1.2761 0.306326 44
-2.24653 1.30734 0.498041 35
-1.50295 1.27368 0.1693 47
-2.22645 1.29982 0.311846 35
-1.50243 1.27368 0.0337704 47
-1.5061 1.27726 -0.102001 47
-1.50404 1.27685 -0.237612 50
-1.50051 1.27475 -0.375219 53
-1.70077 0.99505 -0.306949 14
-1.49812 1.27449 -0.517301 59
-0.973551 0.570651 -0.252126 4
-1.48803 1.27489 0.443607 45
-2.23397 1.31004 0.683685 35
-1.49131 1.27727 0.304765 44
-2.22718 1.31124 0.495181 36
-1.49082 1.27641 0.168646 47
-2.20487 1.30227 0.309717 35
-1.49406 1.27965 0.0337268 47
-1.49182 1.27862 -0.101476 47
-1.48815 1.27637 -0.23609 50
-1.49032 1.27913 -0.374266 55
-1.67656 0.992374 -0.303426 14
-1.48249 1.27418 -0.514068 59
-0.976952 0.579271 -0.25381 4
-1.47842 1.27113 0.44136 45
-2.21709 1.30539 0.679161 35
-1.48346 1.27504 0.303594 45
-2.20774 1.30556 0.491369 35
-1.47726 1.26926 0.167339 49
-2.18978 1.29854 0.307891 35
-1.48213 1.27436 0.0335086 47
-1.48391 1.27634 -0.101082 47
-1.48028 1.2741 -0.235178 50
-1.48437 1.27852 -0.373314 55
-1.66207 0.987762 -0.301077 14
-1.47822 1.27544 -0.513421 61
-0.969644 0.577264 -0.252126 4
-1.46417 1.27271 0.439114 45
-2.19131 1.30627 0.673345 35
-1.46909 1.27656 0.302034 47
-2.18401 1.30705 0.487556 35
-1.46473 1.27233 0.166685 49
-2.16781 1.30146 0.305761 35
-1.47167 1.27882 0.0334214 45
-1.47155 1.27917 -0.100688 47
-1.46401 1.27394 -0.233657 52
-1.47003 1.28008 -0.371409 55
-1.6484 0.991382 -0.299511 14
-1.45879 1.27205 -0.508895 59
-0.972782 0.586247 -0.25381 3
-1.45667 1.2702 0.43743 45
-2.1745 1.30144 0.668822 38
-1.4615 1.27399 0.300863 45
-2.1733 1.30582 0.485649 36
-1.45501 1.26834 0.165814 49
-2.153 1.29721 0.303936 35
-1.45625 1.26988 0.0331159 44
-1.4618 1.27517 -0.100163 49
-1.45453 1.26971 -0.23244 52
-1.46225 1.2778 -0.369981 55
-1.63608 0.987902 -0.297553 15
-1.45838 1.27618 -0.509541 61
-0.97604 0.590278 -0.254933 3
-1.44634 1.27459 0.436307 47
-2.15341 1.30371 0.664298 36
-1.44741 1.27509 0.299302 45
-2.15197 1.30791 0.482313 36
-1.44296 1.27074 0.16516 49
-2.13557 1.30202 0.302415 35
-1.44793 1.27558 0.0330723 47
-1.44762 1.27619 -0.0996382 47
-1.44229 1.27238 -0.231527 52
-1.44473 1.27543 -0.367124 55
-1.62034 0.990045 -0.295595 15
-1.43744 1.27074 -0.504368 61
-0.970852 0.594118 -0.254372 4
-1.43682 1.27065 0.434061 47
-2.13667 1.29871 0.659775 38
-1.43963 1.27271 0.298131 45
-2.13687 1.30439 0.479454 36
-1.43515 1.26831 0.164506 49
-2.11846 1.29671 0.300285 35
-1.438 1.27172 0.0328978 47
-2.11329 1.29556 0.128092 35
-1.43978 1.27375 -0.0992444 49
-1.43449 1.26995 -0.230614 52
-1.437 1.27306 -0.365695 55
-1.61861 0.992872 -0.295595 15
-1.42958 1.26869 -0.502428 59
-0.976057 0.599611 -0.256056 4
-1.42448 1.27353 0.432376 49
-2.11519 1.30142 0.655252 39
-1.42536 1.27389 0.29657 45
-2.11538 1.30656 0.476118 36
-1.4227 1.27107 0.163853 49
-2.09663 1.29903 0.298155 35
-1.42387 1.27257 0.0327233 47
-2.0935 1.2991 0.127307 35
-1.43123 1.27961 -0.0991131 49
-1.42391 1.27438 -0.230006 52
-1.42826 1.27918 -0.365219 55
-1.61549 1.00263 -0.295987 15
-1.41753 1.27131 -0.500489 59
-0.970725 0.603605 -0.255495 4
-1.41342 1.26763 0.429568 47
-2.10675 1.30132 0.653313 39
-1.41417 1.26788 0.294619 45
-2.09848 1.30122 0.472781 36
-1.41121 1.26524 0.162763 49
-2.08404 1.29579 0.296634 36
-1.41421 1.26837 0.0325487 47
-2.08085 1.29581 0.126653 35
-1.41971 1.27376 -0.0984567 49
-1.41452 1.26998 -0.228789 53
-1.41691 1.27346 -0.362838 55
-1.61163 1.00415 -0.295595 15
-1.40813 1.26732 -0.497902 59
-0.97392 0.607691 -0.256618 4
-1.40315 1.27174 0.428445 47
-2.08168 1.30048 0.647497 38
-1.40386 1.27195 0.293839 47
-2.07937 1.30403 0.469922 38
-1.40295 1.27069 0.162545 49
-2.0625 1.29747 0.294505 38
-1.40777 1.27551 0.0325487 49
-2.05923 1.2974 0.125737 36
-1.40585 1.27422 -0.0979316 49
-1.40051 1.2707 -0.227572 53
-1.40136 1.27236 -0.360458 56
-1.61054 1.01519 -0.296378 15
-1.39634 1.26955 -0.495962 59
-0.966594 0.610199 -0.255495 4
-1.39034 1.2641 0.425076 49
-2.07326 1.30028 0.645558 38
-1.39616 1.26941 0.292668 47
-2.06254 1.29853 0.466586 38
-1.3952 1.26811 0.161892 50
-2.04553 1.29182 0.292375 38
-1.3963 1.26955 0.0323306 47
-2.04852 1.29567 0.125214 36
-1.39809 1.27163 -0.0975378 50
-1.39462 1.26979 -0.226963 53
-1.39552 1.2715 -0.359505 56
-1.38699 1.26547 -0.493376 61
-0.963464 0.610589 -0.254933 4
-1.3799 1.2683 0.423953 49
-2.05009 1.3008 0.640389 38
-1.38404 1.27168 0.291497 47
-2.04327 1.30143 0.463726 38
-1.38304 1.27034 0.161238 47
-2.03036 1.29718 0.291158 38
-1.38595 1.27346 0.0322433 47
-2.02486 1.29565 0.124167 39
-1.38568 1.2741 -0.097144 49
-1.62217 1.0399 -0.0330287 15
-1.38248 1.27203 -0.226051 53
-1.38343 1.27379 -0.358077 56
-1.37503 1.2678 -0.491436 59
-0.970536 0.622156 -0.257741 4
-1.37411 1.2674 0.42283 49
-2.03761 1.29791 0.637158 39
-1.37638 1.26907 0.290327 47
-2.02835 1.29744 0.460867 38
-1.3735 1.26599 0.160367 49
-2.01346 1.29138 0.289028 39
-1.37616 1.26933 0.0320688 49
-2.01418 1.2938 0.123644 39
-1.37612 1.26974 -0.0966189 49
-1.61825 1.04138 -0.032985 14
-1.37479 1.26939 -0.225138 53
-1.37219 1.26787 -0.355696 56
-1.37082 1.26879 -0.490789 59
-0.961232 0.61861 -0.255495 4
-1.36011 1.26817 0.420584 49
-2.0143 1.29848 0.631988 38
-1.36408 1.27145 0.289156 47
-2.00915 1.30007 0.458007 38
-1.36117 1.26831 0.159713 49
-2.00019 1.29821 0.288116 39
-1.36584 1.27311 0.0319815 49
-1.99667 1.2979 0.122989 36
-1.3658 1.27352 -0.0963563 49
-1.61679 1.05284 -0.0330723 14
-1.36065 1.27003 -0.223921 55
-1.35815 1.26857 -0.353791 58
-1.35711 1.26935 -0.488203 61
-0.959918 0.625123 -0.256056 4
-1.35633 1.26864 0.420022 49
-2.00188 1.29545 0.628757 39
-1.35667 1.26852 0.287985 47
-1.99658 1.29691 0.455624 38
-1.35532 1.26727 0.159277 49
-1.98357 1.2919 0.285986 38
-1.35085 1.26353 0.0316761 47
-1.98416 1.29423 0.122335 38
-1.35447 1.26736 -0.0956999 50
-1.35503 1.26877 -0.223312 55
-1.35056 1.2659 -0.352363 58
-1.35489 1.27172 -0.488203 59
-0.954845 0.623982 -0.254933 4
-1.3426 1.26902 0.417776 49
-1.98113 1.29634 0.624234 39
-1.34463 1.27052 0.286815 49
-1.98177 1.30163 0.453718 39
-1.33984 1.26556 0.158188 49
-1.96848 1.29683 0.284769 39
-1.34444 1.27035 0.0316761 49
-1.96692 1.29775 0.121681 38
-1.346 1.27272 -0.0955686 50
-1.34657 1.27414 -0.223008 55
-1.33879 1.26765 -0.350934 58
-1.96255 1.29394 -0.367243 38
-1.34493 1.27523 -0.486909 61
-0.953602 0.630308 -0.255495 4
-1.33685 1.26801 0.416653 50
-1.96674 1.29186 0.620356 39
-1.33883 1.26946 0.286034 47
-1.96491 1.296 0.450381 39
-1.33221 1.26275 0.157534 50
-1.95171 1.29071 0.282639 39
-1.33475 1.26604 0.0315016 49
-1.95007 1.29156 0.120765 38
-1.33835 1.26991 -0.0951748 50
-1.33535 1.26794 -0.221487 56
-1.32591 1.25984 -0.348077 58
-1.95616 1.29464 -0.36646 39
-1.33724 1.27281 -0.48497 61
-0.958608 0.635986 -0.257179 4
-1.32118 1.26679 0.413846 50
-1.94764 1.29449 0.616479 41
-1.32303 1.26814 0.284083 47
-1.94787 1.29948 0.447998 39
-1.32177 1.26649 0.157098 49
-1.93437 1.29437 0.281118 39
-1.3263 1.27128 0.031458 47
-1.93267 1.29517 0.120111 38
-1.32988 1.27517 -0.0950435 50
-1.32311 1.26999 -0.220574 55
-1.31731 1.26529 -0.347601 56
-1.93064 1.29288 -0.362936 36
-1.3236 1.2731 -0.482383 61
-0.945011 0.634417 -0.254372 4
-1.31217 1.2621 0.4116 50
-1.93733 1.29254 0.613894 41
-1.31548 1.2653 0.282913 47
-1.93743 1.29743 0.446092 41
-1.31776 1.26707 0.15688 47
-1.92179 1.29085 0.279597 41
-1.31867 1.2684 0.0313271 49
-1.92211 1.29298 0.119588 39
-1.31687 1.2671 -0.0942559 52
-1.31553 1.26713 -0.219661 55
-1.3098 1.26247 -0.346173 56
-1.91402 1.28664 -0.360196 36
-1.31269 1.26701 -0.47915 59
-0.947954 0.638771 -0.255495 4
-1.30358 1.26748 0.411038 50
-1.91851 1.29459 0.610017 41
-1.3053 1.26873 0.282132 47
-1.91434 1.29658 0.442279 39
-1.30397 1.26701 0.156009 49
-1.90473 1.29394 0.278076 41
-1.30664 1.27005 0.0311962 49
-1.90084 1.29323 0.118672 39
-1.30664 1.27049 -0.0939933 50
-1.3071 1.27227 -0.219357 56
-1.21567 0.829474 -0.125471 12
-1.29966 1.26589 -0.34522 58
-1.30431 1.27218 -0.478503 59
-0.952672 0.649179 -0.257741 4
-1.29462 1.26272 0.408792 52
-1.90823 1.29254 0.607432 41
-1.29801 1.2656 0.280961 45
-1.90191 1.29305 0.439896 42
-1.29285 1.26058 0.154919 50
-1.89038 1.28857 0.27625 41
-1.29548 1.2636 0.030978 50
-1.88642 1.28779 0.117887 39
-1.29906 1.26753 -0.0935995 52
-1.87975 1.28469 -0.039137 36
-1.29623 1.26564 -0.217836 56
-1.23275 0.844199 -0.127428 11
-1.29569 1.26644 -0.344744 59
-1.29174 1.26431 -0.474624 59
-0.949635 0.649308 -0.257179 4
-1.28799 1.26948 0.408792 50
-1.8877 1.29266 0.602909 42
-1.28433 1.26544 0.279401 47
-1.88724 1.29711 0.43799 41
-1.2829 1.26361 0.154484 49
-1.86928 1.28863 0.27412 41
-1.28373 1.26487 0.0308471 50
-1.87348 1.29341 0.117494 39
-1.28885 1.27081 -0.093337 52
-1.86292 1.28711 -0.0389189 36
-1.28429 1.26718 -0.216923 56
-1.28054 1.26435 -0.342363 58
-1.2819 1.26744 -0.47333 59
-0.948232 0.655648 -0.257741 4
-1.27712 1.26315 0.405984 50
-1.87348 1.28777 0.599032 42
-1.28212 1.26768 0.279401 49
-1.87058 1.29101 0.434654 42
-1.27539 1.26059 0.15383 50
-1.85886 1.28626 0.272904 41
-1.2813 1.26733 0.0308471 50
-1.85888 1.28817 0.116709 39
-1.28131 1.26779 -0.0929431 52
-1.85039 1.28326 -0.0387007 36
-1.27855 1.26593 -0.216315 56
-1.26962 1.25794 -0.339982 59
-1.2709 1.26138 -0.470097 59
-0.945079 0.655922 -0.257179 4
-1.26338 1.26315 0.403738 50
-1.85854 1.29239 0.596447 42
-1.26826 1.26761 0.27784 49
-1.85171 1.29238 0.431794 42
-1.26679 1.26571 0.153612 50
-1.84373 1.29062 0.271687 41
-1.26582 1.26518 0.030629 49
-1.8437 1.29249 0.116186 39
-1.2676 1.26741 -0.092418 52
-1.83932 1.29039 -0.0386134 36
-1.26643 1.26756 -0.215402 58
-1.2628 1.26479 -0.339982 59
-1.26087 1.2646 -0.468804 61
-0.951514 0.667982 -0.259987 4
-1.25967 1.2634 0.403177 50
-1.84835 1.29012 0.593862 42
-1.26082 1.26457 0.276669 49
-1.83737 1.28719 0.428935 41
-1.2593 1.26263 0.152958 50
-1.83334 1.28815 0.27047 41
-1.25655 1.2603 0.0304544 49
-1.83326 1.28998 0.115662 41
-1.26363 1.26785 -0.0922868 52
-1.82478 1.28499 -0.0383517 36
-1.26246 1.268 -0.215098 56
-1.25713 1.26351 -0.33903 59
-1.25356 1.26165 -0.466864 61
-0.942358 0.664062 -0.257741 4
-1.24791 1.26478 0.401492 52
-1.82796 1.28974 0.589339 44
-1.25094 1.26742 0.275889 49
-1.82481 1.29223 0.427505 42
-1.2459 1.26189 0.152087 50
-1.81666 1.29025 0.268948 42
-1.24665 1.26309 0.0303672 49
-1.82263 1.29636 0.115401 41
-1.24493 1.26178 -0.0913678 50
-1.8101 1.28843 -0.0381771 38
-1.24907 1.2673 -0.213881 58
-1.24556 1.26461 -0.337602 59
-1.24546 1.26626 -0.466217 59
-0.948936 0.675848 -0.260549 4
-1.24251 1.26326 0.400369 52
-1.81781 1.28736 0.586754 44
-1.2418 1.26256 0.274328 49
-1.81654 1.29116 0.426075 42
-1.23846 1.25873 0.151433 50
-1.80429 1.28624 0.267427 41
-1.24269 1.26348 0.0303236 49
-1.80409 1.28797 0.114354 39
-1.24098 1.26217 -0.0912366 52
-1.80174 1.28724 -0.0380462 38
-1.2399 1.26239 -0.212664 58
-1.23648 1.25977 -0.335697 59
-1.23649 1.26152 -0.463631 61
-0.947755 0.677504 -0.260549 4
-1.23226 1.26647 0.399246 52
-1.79925 1.28845 0.582877 45
-1.23345 1.26727 0.273937 49
-1.80377 1.29637 0.424645 42
-1.23012 1.26341 0.151215 50
-1.79148 1.29132 0.266514 42
-1.22909 1.2628 0.030149 47
-1.78313 1.2872 0.113438 38
-1.23413 1.26887 -0.0912366 52
-1.7828 1.2879 -0.0377845 38
-1.22982 1.26531 -0.212055 55
-1.22815 1.26446 -0.335221 59
-1.22987 1.26798 -0.463631 61
-0.950135 0.686713 -0.262233 4
-1.22158 1.25986 0.396438 52
-1.78521 1.28316 0.578999 45
-1.22093 1.25878 0.271596 50
-1.78733 1.28981 0.421309 42
-1.22445 1.26198 0.150779 50
-1.77714 1.28575 0.264689 42
-1.22319 1.26156 0.0300618 49
-1.77683 1.28739 0.113176 41
-1.2267 1.26564 -0.0908427 52
-1.77041 1.28369 -0.0375663 38
-1.22071 1.26032 -0.210838 56
-1.22083 1.26131 -0.333792 59
-1.21738 1.25991 -0.459751 59
-0.946957 0.686948 -0.261672 4
-1.20969 1.26118 0.394754 52
-1.77042 1.28714 0.576415 45
-1.2124 1.26358 0.271206 49
-1.77261 1.29338 0.419403 42
-1.21071 1.26139 0.149908 52
-1.75813 1.28658 0.262864 44
-1.20965 1.26073 0.0298872 50
-1.76177 1.2911 0.112653 41
-1.21488 1.26663 -0.0904489 52
-1.75536 1.28736 -0.0373918 38
-1.21216 1.26511 -0.210534 58
-1.75733 1.28834 -0.187228 38
-1.21059 1.26435 -0.33284 58
-1.2091 1.26452 -0.459105 59
-1.20602 1.26131 0.394192 52
-1.76035 1.28455 0.57383 45
-1.207 1.26191 0.270425 50
-1.75845 1.2878 0.416543 44
-1.1999 1.2545 0.148818 52
-1.75009 1.28495 0.261951 44
-1.20399 1.25922 0.0298 50
-1.75168 1.28796 0.11213 41
-1.2075 1.26333 -0.0900551 53
-1.74303 1.28303 -0.0371736 38
-1.20846 1.26522 -0.21023 59
-1.74704 1.28552 -0.186359 39
-1.205 1.26291 -0.331888 50
-1.19856 1.25788 -0.455871 56
-1.19438 1.2623 0.392508 53
-1.74409 1.2863 0.570599 45
-1.19529 1.26283 0.269255 50
-1.74795 1.29377 0.41559 42
-1.19525 1.26237 0.149036 52
-1.73336 1.28672 0.26043 44
-1.19245 1.25985 0.0296691 52
-1.73086 1.28672 0.111214 41
-1.19744 1.26601 -0.0897925 53
-1.73049 1.28738 -0.0370427 39
-1.195 1.26431 -0.209013 58
-1.73028 1.28724 -0.185271 39
-1.18849 1.25828 -0.329031 47
-1.18059 1.25163 -0.451345 56
-1.19051 1.26261 0.391946 52
-1.73601 1.28504 0.56866 45
-1.1897 1.26132 0.268474 49
-1.7356 1.28983 0.413207 42
-1.18621 1.2572 0.148165 52
-1.72115 1.28235 0.258908 45
-1.18832 1.26032 0.0296255 52
-1.7226 1.28528 0.110821 41
-1.18838 1.26082 -0.0892674 53
-1.72022 1.28443 -0.0368682 39
-1.1877 1.26097 -0.2081 58
-1.71804 1.28283 -0.184184 39
-1.18629 1.26035 -0.329031 45
-1.17488 1.25037 -0.450052 55
-1.17868 1.26368 0.390261 53
-1.71935 1.2872 0.565429 45
-1.17781 1.26232 0.267304 50
-1.71507 1.28861 0.409871 44
-1.176 1.25996 0.147729 52
-1.70624 1.28569 0.257692 44
-1.18 1.26469 0.0295818 52
-1.70165 1.28408 0.109906 41
-1.18176 1.26703 -0.0892674 55
-1.70325 1.28621 -0.0366501 41
-1.17917 1.26556 -0.207796 58
-1.16943 1.25596 -0.326174 47
-1.16339 1.25119 -0.448112 47
-1.17338 1.26196 0.389138 53
-1.70743 1.28297 0.562198 45
-1.17414 1.26236 0.266913 52
-1.71085 1.29013 0.409394 44
-1.1721 1.26018 0.147511 52
-1.69034 1.27793 0.255562 45
-1.17099 1.25942 0.0294073 52
-1.69365 1.28225 0.109513 42
-1.17446 1.2636 -0.0888736 55
-1.69302 1.28316 -0.0364755 41
-1.17212 1.26195 -0.206883 59
-1.16557 1.2562 -0.325697 47
-1.15957 1.25145 -0.447465 45
-1.16346 1.2645 0.388015 53
-1.68936 1.28286 0.558321 45
-1.15916 1.2594 0.264962 50
-1.68866 1.2869 0.405582 44
-1.15728 1.25693 0.146422 52
-1.67375 1.27925 0.254041 45
-1.16122 1.26165 0.02932 50
-1.68095 1.28656 0.10912 42
-1.16298 1.26401 -0.0884798 55
-1.67855 1.28565 -0.036301 41
-1.16214 1.26442 -0.206275 59
-1.15256 1.25485 -0.323793 47
-1.14832 1.25196 -0.445525 45
-1.15654 1.26093 0.386331 53
-1.67749 1.27851 0.55509 47
-1.15696 1.26142 0.264962 50
-1.67665 1.28242 0.403199 45
-1.15172 1.25527 0.145986 52
-1.66757 1.27915 0.253432 47
-1.15564 1.25999 0.0292328 50
-1.66879 1.28191 0.108466 42
-1.1574 1.26236 -0.0882172 55
-1.66638 1.28098 -0.0360828 41
-1.15825 1.26461 -0.205971 59
-1.14375 1.24961 -0.321888 53
-1.13963 1.24682 -0.442939 45
-1.14643 1.26356 0.385208 53
-1.66311 1.28139 0.552505 45
-1.14702 1.2638 0.264182 52
-1.66407 1.28669 0.401769 44
-1.14179 1.2576 0.14555 52
-1.653 1.2818 0.252215 47
-1.14399 1.26047 0.0291019 52
-1.65613 1.28605 0.108074 42
-1.1472 1.2649 -0.0879547 55
-1.65372 1.2851 -0.035952 41
-1.14496 1.2633 -0.204754 61
-1.13719 1.25558 -0.321888 53
-1.12823 1.2474 -0.440999 47
-1.13606 1.25652 0.3824 53
-1.65322 1.2784 0.54992 47
-1.13985 1.2603 0.263011 52
-1.65383 1.28388 0.399862 45
-1.13959 1.25959 0.14555 52
-1.64487 1.28013 0.251302 47
-1.13487 1.25524 0.0289274 55
-1.64599 1.28282 0.10755 42
-1.14165 1.26319 -0.0876921 55
-1.64358 1.28186 -0.0357774 41
-1.13943 1.26161 -0.204145 59
-1.12842 1.25027 -0.319983 59
-1.12906 1.25315 -0.442292 56
-1.12924 1.26265 0.3824 55
-1.63865 1.2814 0.547335 47
-1.12808 1.26092 0.26184 52
-1.63548 1.28346 0.397003 45
-1.12778 1.26016 0.144896 52
-1.63011 1.28289 0.250086 47
-1.12661 1.2593 0.0288837 53
-1.62724 1.28246 0.106765 41
-1.13169 1.26543 -0.0874296 58
-1.62875 1.28456 -0.0356029 42
-1.12928 1.26405 -0.203537 59
-0.945195 0.747749 -0.102204 9
-1.11838 1.2527 -0.319031 80
-1.12248 1.25905 -0.442292 89
-1.12402 1.26078 0.381277 55
-1.6288 1.27831 0.54475 47
-1.12282 1.25901 0.26106 52
-1.62551 1.28025 0.395097 45
-1.11896 1.25469 0.144025 53
-1.61833 1.27778 0.248564 45
-1.12109 1.25753 0.0287965 53
-1.6213 1.28192 0.106504 42
-1.1245 1.26181 -0.0870357 58
-1.62454 1.28585 -0.0355593 42
-1.12235 1.26026 -0.202624 61
-0.943889 0.749398 -0.102204 9
-1.11456 1.25281 -0.318555 97
-1.11387 1.25378 -0.439706 96
-1.10774 1.25568 0.377908 55
-1.61662 1.28205 0.542812 49
-1.10968 1.25746 0.259499 53
-1.61709 1.28694 0.39462 45
-1.10765 1.25473 0.143371 53
-1.61162 1.28624 0.248564 47
-1.1081 1.25568 0.0286219 53
-1.6087 1.28573 0.106111 42
-1.11128 1.26018 -0.0865106 56
-1.60824 1.28627 -0.0353411 42
-1.10918 1.25867 -0.201407 67
-0.939952 0.754329 -0.102204 8
-1.10334 1.25291 -0.317126 90
-1.11229 1.26484 -0.441646 79
-1.10233 1.25395 0.376785 55
-1.60302 1.27587 0.538935 49
-1.10748 1.25939 0.259499 53
-1.60693 1.28393 0.392714 45
-1.10711 1.25854 0.143589 53
-1.59773 1.27977 0.246739 47
-1.10734 1.25969 0.0286656 53
-1.59475 1.27919 0.105326 42
-1.10743 1.26024 -0.0863794 56
-1.59037 1.2766 -0.0349921 41
-1.10861 1.26247 -0.201711 65
-0.936688 0.754414 -0.101986 4
-1.0963 1.24929 -0.315698 70
-1.1035 1.2597 -0.439059 59
-1.09234 1.25622 0.375662 55
-1.59044 1.28 0.536996 49
-1.09741 1.26163 0.258719 52
-1.59254 1.28618 0.390807 44
-1.09701 1.26075 0.143153 53
-1.57919 1.27905 0.244913 47
-1.09745 1.26169 0.0285783 55
-1.58004 1.28153 0.104803 42
-1.09918 1.26414 -0.0862481 55
-1.57371 1.27733 -0.0347739 41
-1.09852 1.2647 -0.201103 64
-1.08953 1.25521 -0.315698 61
-1.09215 1.25999 -0.437119 59
-1.08718 1.25425 0.374539 55
-1.58067 1.27672 0.534411 50
-1.09058 1.25776 0.257548 52
-1.58074 1.28125 0.388424 45
-1.08992 1.25701 0.1425 53
-1.56753 1.27373 0.243392 47
-1.09034 1.25794 0.0284474 53
-1.56638 1.27458 0.104018 42
-1.09044 1.2585 -0.085723 56
-1.56954 1.2785 -0.0347303 41
-1.09328 1.26267 -0.200494 64
-1.08252 1.25153 -0.314269 62
-1.08364 1.25458 -0.434533 59
-1.56482 1.26981 -0.456522 47
-1.07584 1.25437 0.372854 55
-1.56482 1.27709 0.53118 50
-1.07756 1.25595 0.255987 53
-1.56662 1.28304 0.386518 45
-1.07868 1.25684 0.141846 53
-1.55508 1.27721 0.242479 47
-1.08071 1.25964 0.0283602 55
-1.55775 1.28119 0.103887 44
-1.08081 1.26021 -0.0854604 56
-1.55531 1.28009 -0.0345558 42
-1.08182 1.26272 -0.199582 65
-1.07139 1.2514 -0.312841 65
-1.07415 1.25637 -0.433239 59
-1.55061 1.27182 -0.454276 45
-1.07229 1.2542 0.372293 55
-1.5551 1.27372 0.528595 50
-1.07536 1.25783 0.255987 52
-1.55678 1.27955 0.384611 44
-1.07325 1.25493 0.14141 53
-1.54134 1.27048 0.240654 49
-1.07526 1.25772 0.0282729 53
-1.54394 1.2744 0.103102 44
-1.07699 1.2602 -0.0853292 56
-1.54728 1.27804 -0.0344249 42
-1.07478 1.25894 -0.198669 62
-1.0692 1.25327 -0.312841 67
-1.06569 1.25089 -0.430653 58
-1.54084 1.26835 -0.452029 44
-1.06392 1.25813 0.371731 55
-1.54282 1.27723 0.526657 50
-1.06558 1.25967 0.255207 53
-1.54249 1.28143 0.382705 45
-1.06345 1.25673 0.140974 53
-1.53275 1.27695 0.24035 49
-1.06705 1.26143 0.0282293 55
-1.53148 1.27768 0.102709 44
-1.06555 1.2601 -0.0849353 56
-1.53288 1.27974 -0.0342503 44
-1.06498 1.26075 -0.19806 64
-1.50269 1.25423 -0.167875 17
-1.05946 1.25509 -0.311889 71
-1.06068 1.2583 -0.4313 59
-1.53043 1.27329 -0.450906 45
-1.0588 1.25607 0.370608 56
-1.535 1.27531 0.524718 52
-1.05702 1.25397 0.253646 53
-1.5327 1.27786 0.380799 45
-1.05324 1.24905 0.139885 55
-1.52289 1.27327 0.239133 49
-1.05841 1.25564 0.0280547 55
-1.51774 1.27076 0.101924 44
-1.06174 1.26004 -0.0848041 56
-1.52296 1.27601 -0.0340758 44
-1.05958 1.25881 -0.197452 67
-1.5139 1.26801 -0.169397 35
-1.05412 1.25318 -0.310936 71
-1.05538 1.25644 -0.430006 59
-1.52258 1.27129 -0.449222 47
-1.0471 1.25634 0.368923 56
-1.51696 1.2743 0.520841 52
-1.05022 1.25967 0.253646 53
-1.51824 1.27982 0.378892 45
-1.04328 1.25091 0.139449 56
-1.50839 1.2751 0.237916 50
-1.05 1.25942 0.0280111 55
-1.50893 1.27735 0.101793 45
-1.05012 1.26001 -0.0844102 56
-1.50839 1.27778 -0.0339013 45
-1.05117 1.26262 -0.197148 65
-1.49939 1.26977 -0.168527 35
-1.04105 1.25132 -0.309032 67
-1.51215 1.27874 -0.308515 47
-1.04549 1.25842 -0.428713 59
-1.50636 1.27168 -0.446414 47
-1.04045 1.25236 0.367239 58
-1.51103 1.27384 0.519549 52
-1.04351 1.25561 0.252475 53
-1.51037 1.27773 0.377463 45
-1.04109 1.25273 0.139449 55
-1.49879 1.27107 0.236699 49
-1.04461 1.25741 0.0279238 55
-1.50121 1.27488 0.101401 44
-1.04313 1.25608 -0.0840164 58
-1.49662 1.27234 -0.0336831 45
-1.04285 1.25662 -0.195931 68
-1.49718 1.27238 -0.168527 44
-1.03886 1.25313 -0.309032 67
-1.49482 1.26863 -0.305383 45
-1.0356 1.25093 -0.42548 59
-1.4969 1.26776 -0.444168 47
-1.02616 1.24838 0.364431 56
-1.4972 1.27523 0.516964 53
-1.03222 1.25533 0.251304 53
-1.49641 1.279 0.375556 45
-1.03316 1.25605 0.139231 55
-1.48834 1.27568 0.23609 50
-1.03347 1.25688 0.027793 53
-1.48502 1.27462 0.100747 45
-1.0336 1.25748 -0.0837538 58
-1.48256 1.27341 -0.0335086 45
-1.03311 1.25823 -0.195322 68
-1.48504 1.27509 -0.167875 44
-1.0294 1.25458 -0.308079 64
-1.48816 1.27644 -0.305383 49
-1.02619 1.25242 -0.424187 59
-1.48097 1.26769 -0.44136 47
-1.02111 1.24621 0.363308 56
-1.48577 1.27002 0.513733 52
-1.02533 1.2514 0.250134 53
-1.48671 1.27523 0.37365 47
-1.02466 1.25015 0.13836 56
-1.47857 1.27182 0.234873 49
-1.02811 1.25481 0.0277057 55
-1.479 1.27396 0.100485 45
-1.02982 1.25735 -0.0836226 58
-1.48033 1.27599 -0.0335086 45
-1.02935 1.25811 -0.195018 71
-1.47525 1.27119 -0.167005 45
-1.02565 1.25447 -0.307603 67
-1.47655 1.27101 -0.303426 49
-1.02095 1.25047 -0.422893 59
-1.47505 1.2671 -0.440237 45
-1.01435 1.25172 0.363308 56
-1.47361 1.27306 0.511794 52
-1.02032 1.25867 0.250524 55
-1.47072 1.27498 0.371267 47
-1.0134 1.24969 0.137706 55
-1.45876 1.26818 0.232744 50
-1.01995 1.25824 0.0276621 56
-1.46853 1.27841 0.100223 45
-1.023 1.2629 -0.0836226 58
-1.46419 1.27554 -0.0332905 47
-1.01807 1.25769 -0.194105 70
-1.46082 1.27263 -0.166135 44
-1.01599 1.256 -0.306651 62
-1.46801 1.27711 -0.303034 49
-1.00833 1.24827 -0.420307 59
-1.46103 1.26844 -0.437991 45
-1.00758 1.2478 0.361624 58
-1.4659 1.2709 0.509855 52
-1.01502 1.2566 0.249743 53
-1.46456 1.27459 0.370314 47
-1.00652 1.24564 0.137052 55
-1.45279 1.26747 0.232135 50
-1.01126 1.25241 0.0274875 55
-1.46065 1.27606 0.0998308 45
-1.0114 1.25302 -0.0828349 58
-1.4563 1.27317 -0.0331596 47
-1.00965 1.25173 -0.192888 70
-1.45484 1.27191 -0.1657 44
-1.01072 1.25395 -0.305698 67
-1.45459 1.26995 -0.300685 49
-1.00593 1.25021 -0.420307 59
-1.44961 1.26301 -0.435184 45
-0.999295 1.25133 0.361062 58
-1.45354 1.27405 0.507917 52
-1.00205 1.25436 0.248183 55
-1.45232 1.2774 0.368884 47
-0.99977 1.25107 0.137052 55
-1.44218 1.27204 0.231527 50
-1.00469 1.25769 0.0274875 56
-1.44435 1.2757 0.0991766 47
-1.00327 1.25635 -0.0827036 58
-1.44564 1.27773 -0.0330723 47
-1.00286 1.25718 -0.192888 71
-1.44442 1.27622 -0.165266 44
-1.00392 1.2594 -0.305698 64
-1.43864 1.2694 -0.298728 49
-0.996367 1.25168 -0.419014 59
-1.43725 1.26602 -0.433499 47
-0.995813 1.25099 0.360501 58
-1.44586 1.27181 0.505978 52
-0.998543 1.25399 0.247792 55
-1.44087 1.27183 0.366501 47
-0.996035 1.25086 0.136835 56
-1.43646 1.27103 0.230918 50
-0.99783 1.25357 0.0273566 55
-1.44234 1.27797 0.0991766 47
-1.00107 1.2581 -0.0827036 59
-1.43778 1.27529 -0.0329414 45
-0.996254 1.25292 -0.191976 71
-1.43472 1.27215 -0.164396 44
-0.995619 1.25346 -0.303794 62
-1.43457 1.27028 -0.298336 50
-0.991183 1.24963 -0.41772 59
-1.42795 1.26184 -0.431253 49
-0.986238 1.25235 0.359377 58
-1.43217 1.27271 0.503393 52
-0.988911 1.25532 0.247012 55
-1.43075 1.27585 0.365548 49
-0.986612 1.25197 0.136399 56
-1.41866 1.26863 0.229093 50
-0.988382 1.25467 0.0272694 56
-1.42445 1.27554 0.0983916 47
-0.991386 1.2594 -0.0824411 59
-1.42012 1.27257 -0.0326796 45
-0.986615 1.25422 -0.191367 73
-1.41688 1.2697 -0.163091 45
-0.986232 1.25462 -0.302841 68
-1.41868 1.26957 -0.296378 50
-0.984845 1.25463 -0.41772 59
-1.41586 1.26444 -0.429568 49
-0.981046 1.25024 0.358254 58
-1.42633 1.272 0.502101 53
-0.983672 1.25316 0.246231 56
-1.42096 1.27207 0.363641 47
-0.982889 1.25173 0.136181 56
-1.41459 1.26945 0.228789 50
-0.98443 1.2546 0.0272258 56
-1.42036 1.27636 0.0982608 45
-0.987648 1.25916 -0.0823098 58
-1.41231 1.27005 -0.0325487 45
-0.982895 1.25398 -0.191063 71
-1.41466 1.27217 -0.163091 44
-0.98404 1.25634 -0.302841 62
-1.41278 1.26875 -0.295595 52
-0.975006 1.247 -0.414487 59
-1.41183 1.26529 -0.429007 49
-0.972776 1.2536 0.357693 58
-1.41403 1.27487 0.500162 53
-0.975365 1.25651 0.245841 56
-1.40699 1.27292 0.361735 49
-0.969999 1.24916 0.135309 58
-1.40218 1.2721 0.227876 50
-0.971723 1.25183 0.0270512 56
-1.40787 1.27901 0.0978682 47
-0.974926 1.25642 -0.0817847 59
-1.39985 1.27264 -0.0324178 45
-0.971541 1.25339 -0.19015 73
-1.40059 1.27288 -0.162221 45
-0.975727 1.2597 -0.302365 67
-1.39512 1.2662 -0.293246 50
-0.968463 1.25208 -0.414487 59
-1.39772 1.26639 -0.426761 47
-0.969317 1.2532 0.357131 58
-1.40283 1.26925 0.496931 53
-0.970372 1.25413 0.245061 56
-1.40294 1.27373 0.361258 49
-0.967817 1.25085 0.135309 56
-1.39098 1.26597 0.226355 52
-0.969537 1.25353 0.0270512 58
-1.39477 1.27115 0.0970832 45
-0.968156 1.25219 -0.0813909 58
-1.39023 1.26836 -0.0322433 45
-0.965025 1.24902 -0.189237 73
-1.39284 1.2703 -0.161569 45
-0.969034 1.25557 -0.300937 67
-1.39291 1.26863 -0.293246 50
-0.963332 1.24994 -0.413194 59
-1.39031 1.26368 -0.425076 49
-0.956827 1.25051 0.354885 59
-1.38924 1.26984 0.494347 53
-0.962293 1.25724 0.244671 56
-1.38741 1.27254 0.358875 47
-0.959961 1.25375 0.135091 56
-1.38067 1.26989 0.225746 52
-0.961663 1.25643 0.0270076 58
-1.37889 1.27001 0.096429 41
-0.96029 1.25509 -0.0812596 58
-1.38195 1.27369 -0.0321997 45
-0.956966 1.25209 -0.188933 71
-1.37537 1.26724 -0.160264 44
-0.961179 1.25851 -0.300461 65
-1.38079 1.27091 -0.292072 50
-0.952604 1.24904 -0.411254 59
-1.37648 1.26437 -0.42283 49
-0.954862 1.25202 0.354885 58
-1.38167 1.26738 0.492408 53
-0.952618 1.24909 0.242719 56
-1.37976 1.26999 0.357446 49
-0.953245 1.24948 0.134438 58
-1.37114 1.26558 0.224529 50
-0.951898 1.24816 0.0267894 58
-1.37483 1.27072 0.0962982 45
-0.956586 1.25478 -0.0811283 58
-1.37052 1.26764 -0.0319815 47
-0.951776 1.2498 -0.188325 71
-1.36583 1.26289 -0.159394 44
-0.957496 1.25823 -0.299984 67
-1.37129 1.26663 -0.290506 50
-0.948964 1.24878 -0.410608 59
-1.36709 1.26018 -0.420584 49
-0.943679 1.25132 0.353201 58
-1.37147 1.27132 0.491116 53
-0.94458 1.25209 0.242329 56
-1.37129 1.27553 0.356969 49
-0.943693 1.25047 0.134002 58
-1.35904 1.26768 0.223617 53
-0.943846 1.25113 0.0267458 56
-1.36084 1.2711 0.0957748 47
-0.946781 1.25594 -0.0808658 59
-1.35838 1.26969 -0.0318506 47
-0.94522 1.25477 -0.188325 77
-1.35898 1.27026 -0.159394 45
-0.947946 1.2593 -0.299032 70
-1.35922 1.26875 -0.289331 50
-0.935166 1.24407 -0.407374 58
-1.35333 1.2607 -0.418338 50
-0.93857 1.24907 0.352078 59
-1.36215 1.26715 0.488531 55
-0.940911 1.25176 0.241939 56
-1.35985 1.26981 0.354586 49
-0.935529 1.24415 0.13313 56
-1.35319 1.26667 0.223008 52
