# .PCD v0.7 - Point Cloud Data file format
VERSION 0.7
FIELDS x y z intensity
SIZE 4 4 4 4
TYPE F F F F
COUNT 1 1 1 1
WIDTH 1588
HEIGHT 1
VIEWPOINT 0 0 0 1 0 0 0
POINTS 1588
DATA ascii
-7.24055 0.570846 0.886252 35
-2.81069 0.73227 0.0500884 1
-3.0382 0.244444 0.157924 20
-0.625964 0.162086 -0.0321625 59
-0.619742 0.0538938 -0.0102533 4
-0.790331 0.205459 -0.0958357 55
-0.639963 0.0553956 -0.0530589 90
-0.784351 0.204179 -0.150468 52
-0.792339 0.0669149 -0.120587 58
-0.781542 0.204007 -0.20692 50
-0.774959 0.0649148 -0.171266 53
-2.7342 0.717377 0.64351 35
-6.90887 0.535303 1.84491 1
-2.74728 0.720316 0.443295 55
-7.14159 0.565654 1.38451 35
-2.76086 0.723895 0.246651 134
-7.24212 0.582416 0.886556 33
-2.80699 0.736539 0.0500448 1
-3.03781 0.249216 0.157924 18
-0.62568 0.163178 -0.0321625 59
-0.617156 0.0547736 -0.0102097 4
-0.790007 0.2067 -0.0958357 55
-0.642348 0.0567131 -0.0532764 90
-0.783994 0.205548 -0.150468 52
-0.78976 0.0681005 -0.120196 58
-0.781185 0.205371 -0.20692 49
-0.774856 0.066132 -0.171266 53
-2.7257 0.73042 0.642387 44
-6.90607 0.570265 1.84491 1
-2.74347 0.73469 0.443295 56
-7.14108 0.601998 1.38498 35
-2.75957 0.738505 0.246869 160
-7.2365 0.620117 0.886252 33
-2.78874 0.74685 0.049783 9
-3.03895 0.265332 0.158055 18
-0.62964 0.167748 -0.0324251 59
-0.61189 0.0574679 -0.0101224 3
-0.788914 0.210833 -0.0958357 55
-0.639561 0.059862 -0.0530589 90
-0.778204 0.208237 -0.149516 52
-0.794313 0.0726548 -0.120979 58
-0.784798 0.210582 -0.208214 50
-0.772071 0.0699835 -0.170704 52
-2.73148 0.737084 0.644072 50
-6.9171 0.583323 1.84815 1
-2.74457 0.740122 0.443685 53
-7.1448 0.616125 1.38594 32
-2.76308 0.744619 0.247304 98
-7.23046 0.632317 0.885643 32
-2.77765 0.749593 0.0496085 11
-3.03351 0.2702 0.157793 17
-0.624526 0.167543 -0.0321625 59
-0.621749 0.0594106 -0.0102969 3
-0.788545 0.21221 -0.0958357 53
-0.641937 0.0611961 -0.0532764 90
-0.784945 0.211522 -0.150945 52
-0.791725 0.0738267 -0.120587 58
-0.784392 0.212088 -0.208214 50
-0.776802 0.0717488 -0.171827 52
-2.72041 0.749906 0.642387 49
-2.73814 0.754303 0.443295 56
-2.75661 0.758895 0.247087 65
-2.76405 0.761467 0.0494339 12
-3.03698 0.287071 0.158055 18
-0.621234 0.170146 -0.0320313 59
-0.621418 0.0627737 -0.0102969 3
-0.787385 0.216473 -0.0958357 53
-0.646567 0.0650182 -0.0537113 90
-0.786154 0.216422 -0.151421 52
-0.791328 0.0779711 -0.120587 58
-0.783271 0.216192 -0.208214 50
-0.773977 0.0757286 -0.171266 52
-2.72157 0.754831 0.642949 50
-2.73458 0.757943 0.442904 55
-2.75528 0.763705 0.247087 58
-2.76994 0.768297 0.0495648 15
-0.630557 0.173905 -0.0325564 58
-0.626284 0.0643313 -0.0103842 3
-0.782263 0.216379 -0.0952272 50
-0.646452 0.0661466 -0.0537113 90
-0.785775 0.217793 -0.151421 50
-0.791191 0.0793521 -0.120587 58
-0.785218 0.21821 -0.20886 47
-0.773857 0.0769442 -0.171266 53
-2.71524 0.768406 0.642387 50
-2.73295 0.772924 0.443295 55
-2.86733 0.284995 0.552849 47
-2.74659 0.776284 0.246651 61
-2.87866 0.290125 0.350485 49
-2.76842 0.782989 0.0496085 15
-0.627236 0.176523 -0.0324251 58
-0.783506 0.22115 -0.0955314 50
-0.641141 0.0690341 -0.0532764 90
-0.787023 0.222439 -0.151897 50
-0.793221 0.0837381 -0.120979 58
-0.779459 0.220856 -0.207567 47
-0.773443 0.0809951 -0.171266 53
-2.70921 0.771806 0.641264 50
-2.73159 0.777692 0.443295 53
-2.86922 0.290743 0.553326 49
-2.75481 0.783807 0.247522 101
-2.87075 0.294401 0.349572 49
-2.7573 0.785558 0.0494339 23
-2.8829 0.297643 0.150073 56
-0.622126 0.176246 -0.0321625 59
-0.780734 0.221835 -0.0952272 50
-0.643497 0.0704055 -0.0534938 90
-0.790617 0.0848737 -0.120587 58
-0.776712 0.221686 -0.20692 47
-0.768453 0.0818593 -0.170143 53
-2.70499 0.786453 0.641264 50
-2.72497 0.79177 0.442904 50
-2.86522 0.305506 0.552849 49
-2.74096 0.795918 0.246651 175
-2.86664 0.309667 0.349268 49
-2.75315 0.799985 0.0494339 30
-2.88125 0.313236 0.150073 59
-0.628385 0.181596 -0.0325564 58
-0.779522 0.226055 -0.0952272 49
-0.645596 0.0740394 -0.0537113 90
-0.790147 0.0891501 -0.120587 58
-0.770421 0.0862717 -0.170704 53
-2.70376 0.790701 0.641264 50
-2.72122 0.795831 0.442514 50
-2.86224 0.310246 0.552373 49
-2.74196 0.801401 0.246869 90
-2.86363 0.314403 0.348964 49
-2.75655 0.806194 0.0495212 39
-2.8807 0.318264 0.150073 70
-0.623276 0.181287 -0.0322938 59
-0.781507 0.228115 -0.0955314 47
-0.645466 0.075166 -0.0537113 90
-0.78999 0.090529 -0.120587 58
-0.77027 0.0876162 -0.170704 52
-2.69958 0.804847 0.641264 50
-2.84734 0.318265 0.757352 49
-2.71006 0.807475 0.441344 52
-2.86064 0.324729 0.552373 50
-2.72832 0.812421 0.245997 56
-2.85707 0.328334 0.348355 49
-2.75243 0.820136 0.0495212 49
-2.88153 0.333123 0.150204 83
-0.629494 0.186693 -0.0326876 58
-0.645064 0.0785446 -0.0537113 90
-0.791975 0.094805 -0.120979 58
-0.772237 0.0917861 -0.171266 53
-2.7005 0.810259 0.641826 49
-2.84198 0.322697 0.756059 47
-2.71101 0.812914 0.441734 55
-2.86489 0.330775 0.553326 50
-2.72929 0.817898 0.246215 55
-2.8565 0.33332 0.348355 50
-2.87598 0.337578 0.149943 90
-0.626777 0.187072 -0.0325564 58
-0.644925 0.0796704 -0.0537113 90
-0.784449 0.0953383 -0.119804 58
-0.769655 0.0928572 -0.170704 53
-2.69841 0.825572 0.642387 49
-2.84019 0.338069 0.756059 49
-2.71129 0.829016 0.442514 56
-2.85824 0.345191 0.552373 50
-2.72482 0.832653 0.246215 55
-2.85465 0.348771 0.348355 53
-2.87412 0.353134 0.149943 90
-0.628176 0.191083 -0.0326876 58
-0.644499 0.0830461 -0.0537113 90
-0.786391 0.0997401 -0.120196 58
-0.77156 0.0973097 -0.171266 52
-2.69944 0.830527 0.642949 49
-2.8372 0.34274 0.755413 49
-2.70999 0.833274 0.442514 50
-2.85763 0.350179 0.552373 50
-2.72098 0.836674 0.245997 56
-2.85656 0.353555 0.348659 53
-2.87356 0.357648 0.149943 77
-0.627841 0.192179 -0.0326876 58
-0.644354 0.0841708 -0.0537113 90
-0.791117 0.101713 -0.120979 58
-0.773825 0.0988151 -0.171827 52
-2.6997 0.846109 0.644072 50
-2.83542 0.357096 0.755413 49
-2.70323 0.846713 0.442124 47
-2.85339 0.364331 0.551896 50
-2.72384 0.852671 0.246651 90
-2.85713 0.368821 0.348964 52
-2.87165 0.372689 0.149943 58
-0.629208 0.196212 -0.0328189 58
-0.638964 0.0869089 -0.0532764 90
-0.788125 0.105541 -0.120587 58
-0.77088 0.102559 -0.171266 52
-2.69822 0.85082 0.644072 50
-2.8348 0.362044 0.755413 49
-2.7041 0.852173 0.442514 47
-2.85025 0.369497 0.551419 50
-2.72235 0.857423 0.246651 113
-2.8491 0.372853 0.348051 49
-2.86109 0.376414 0.149419 52
-0.624104 0.195805 -0.0325564 56
-0.64375 0.0886672 -0.0537113 90
-0.790388 0.107233 -0.120979 58
-0.773116 0.104215 -0.171827 52
-2.69821 0.866899 0.645195 53
-2.83519 0.377691 0.756059 50
-2.7018 0.867547 0.442904 47
-2.84828 0.384416 0.551419 50
-2.70819 0.869091 0.245779 55
-2.84704 0.388263 0.348051 49
-2.85654 0.391554 0.149288 49
-0.625446 0.199835 -0.0326876 56
-0.643277 0.0920366 -0.0537113 90
-0.787369 0.11104 -0.120587 56
-0.772541 0.108396 -0.171827 50
-2.68989 0.868886 0.64351 52
-2.82974 0.382001 0.754767 49
-2.70984 0.874829 0.444465 49
-2.84517 0.389058 0.550943 49
-2.84643 0.392734 0.348051 49
-2.85592 0.39604 0.149288 49
-0.622721 0.200157 -0.0325564 58
-0.643116 0.0931592 -0.0537113 90
-0.782281 0.111746 -0.119804 56
-0.77237 0.10961 -0.171827 50
-2.68762 0.88372 0.644072 49
-2.82538 0.395987 0.754121 49
-2.70053 0.887462 0.443685 49
-2.84073 0.403113 0.550466 49
-2.84188 0.407285 0.347747 47
-2.8538 0.410988 0.149288 45
-0.624036 0.204197 -0.0326876 58
-0.640153 0.0961735 -0.0534938 90
-0.789019 0.116881 -0.120979 58
-0.771785 0.113652 -0.171827 52
-2.68608 0.88841 0.644072 49
-2.82947 0.401589 0.755413 49
-2.70366 0.893726 0.444465 55
-2.83752 0.408221 0.54999 49
-2.83379 0.411188 0.346834 45
-0.628418 0.206857 -0.0329502 58
-0.639985 0.0972906 -0.0534938 90
-0.78637 0.117907 -0.120587 56
-0.766762 0.114311 -0.170704 52
-2.672 0.899815 0.641826 47
-2.82008 0.415847 0.753475 47
-2.69645 0.907552 0.444075 55
-2.83292 0.422714 0.549513 49
-2.82662 0.425783 0.346225 44
-0.627326 0.210144 -0.0329502 58
-0.641929 0.101009 -0.0537113 90
-0.785742 0.122023 -0.120587 56
-0.766133 0.118458 -0.170704 52
-2.66597 0.902447 0.640703 47
-2.81935 0.420768 0.753475 47
-2.69268 0.910994 0.443685 50
-2.8346 0.42802 0.54999 49
-2.83085 0.430961 0.346834 47
-0.624595 0.210437 -0.0328189 56
-0.644215 0.102503 -0.0539288 90
-0.785527 0.123394 -0.120587 55
-0.765946 0.119661 -0.170704 52
-2.6566 0.914805 0.63958 49
-2.8148 0.434668 0.752828 47
-2.68787 0.92508 0.443685 47
-2.82755 0.441613 0.549036 49
-2.82856 0.445777 0.346834 49
-2.81079 0.445 0.147326 41
-0.625882 0.214409 -0.0329502 56
-0.638766 0.104991 -0.0534938 90
-0.779991 0.126743 -0.119804 55
-0.770123 0.124417 -0.171827 52
-2.65516 0.918977 0.63958 49
-2.81165 0.439212 0.752182 47
-2.67926 0.927344 0.442514 45
-2.82193 0.44579 0.548083 49
-2.82778 0.450713 0.346834 49
-2.81494 0.450686 0.147587 41
-0.625506 0.215501 -0.0329502 58
-0.687682 0.114002 -0.0115622 4
-0.643502 0.106885 -0.0539288 90
-0.779769 0.128104 -0.119804 55
-0.769905 0.125761 -0.171827 50
-2.64555 0.931708 0.638457 50
-2.80693 0.453546 0.751536 49
-2.67203 0.940538 0.442124 44
-2.82198 0.46095 0.54856 50
-2.81558 0.463916 0.345617 49
-2.83964 0.469857 0.149027 67
-0.626686 0.219713 -0.0330815 58
-0.684609 0.117196 -0.0115186 4
-0.637999 0.109559 -0.0534938 90
-0.779088 0.132185 -0.119804 53
-0.769236 0.12979 -0.171827 50
-2.64851 0.937953 0.63958 50
-2.80613 0.458445 0.751536 49
-2.66341 0.942725 0.440953 45
-2.82109 0.466367 0.54856 50
-2.81966 0.469637 0.346225 53
-2.84621 0.476035 0.149419 90
-0.626301 0.220807 -0.0330815 58
-0.642721 0.111487 -0.0539288 90
-0.781292 0.133947 -0.120196 53
-0.771412 0.131527 -0.172389 52
-2.63882 0.950615 0.638457 50
-2.80123 0.473222 0.75089 49
-2.65594 0.956284 0.440563 45
-2.81861 0.481132 0.54856 50
-2.81708 0.484886 0.346225 55
-1.44654 0.52017 0.0262222 4
-2.83867 0.490586 0.149157 90
-0.625136 0.224083 -0.0330815 56
-0.639673 0.114431 -0.0537113 89
-0.78058 0.138036 -0.120196 55
-0.763484 0.134477 -0.170704 52
-2.63961 0.95559 0.639018 50
-2.79802 0.477708 0.750244 49
-2.65444 0.960455 0.440563 47
-2.81292 0.485225 0.547607 52
-2.82365 0.490572 0.347138 59
-1.44093 0.52099 0.026135 4
-2.84036 0.495469 0.149288 90
-0.624744 0.225174 -0.0330815 58
-0.693391 0.124992 -0.0116931 8
-1.43974 0.521405 -0.183457 4
-0.639473 0.115547 -0.0537113 88
-0.780338 0.139398 -0.120196 55
-0.765673 0.136087 -0.171266 52
-2.63686 0.97024 0.63958 50
-2.79318 0.49145 0.749597 49
-2.64474 0.972633 0.439783 49
-2.81285 0.499881 0.548083 52
-2.82105 0.50535 0.347138 59
-1.43593 0.527412 0.0260913 4
-2.83281 0.509459 0.149027 90
-0.623557 0.228442 -0.0330815 56
-0.690288 0.128061 -0.0116495 8
-1.42768 0.525499 -0.18224 4
-0.638859 0.118894 -0.0537113 86
-0.774735 0.142618 -0.119413 55
-0.772147 0.141366 -0.17295 50
-2.63059 0.973148 0.638457 50
-2.78994 0.495906 0.748951 49
-2.64072 0.97639 0.439392 49
-2.80464 0.503991 0.546653 50
-2.81283 0.50896 0.346225 56
-1.43726 0.531036 0.026135 4
-2.827 0.513518 0.148765 58
-0.625498 0.230398 -0.0332127 58
-0.699904 0.131039 -0.011824 8
-1.43607 0.531443 -0.183457 4
-0.641101 0.12045 -0.0539288 85
-1.30779 0.484351 -0.263796 4
-0.776915 0.144406 -0.119804 55
-1.00409 0.372504 -0.277403 4
-0.771899 0.142713 -0.17295 52
-2.62985 0.989084 0.63958 50
-2.78959 0.511425 0.749597 50
-2.63078 0.988924 0.438612 52
-2.80437 0.519111 0.54713 52
-2.81004 0.524171 0.346225 53
-1.43212 0.537674 0.0260913 4
-2.81681 0.52744 0.148372 55
-0.621947 0.23279 -0.0330815 56
-0.696727 0.134367 -0.0117804 9
-1.42388 0.535702 -0.18224 4
-0.638013 0.123351 -0.0537113 79
-1.31663 0.495756 -0.266177 4
-0.778576 0.148921 -0.120196 55
-1.0089 0.38032 -0.279342 4
-0.768719 0.146446 -0.172389 52
-2.62145 0.990627 0.637895 50
-2.7887 0.516293 0.749597 50
-2.62922 0.993055 0.438612 50
-2.80346 0.524005 0.54713 52
-2.80433 0.527675 0.345617 50
-1.43819 0.542827 0.0262222 4
-2.82089 0.532782 0.148634 53
-0.626209 0.235643 -0.033344 56
-0.691578 0.134661 -0.0116931 8
-1.42768 0.539697 -0.182848 4
-0.640245 0.124923 -0.0539288 79
-1.31117 0.496311 -0.265224 4
-0.773461 0.149373 -0.119413 53
-1.00597 0.381222 -0.278696 4
-0.768489 0.147654 -0.172389 50
-2.61851 1.00521 0.638457 50
-2.78605 0.530401 0.749597 50
-2.62629 1.00769 0.439002 52
-2.79595 0.53727 0.546177 50
-1.48155 0.567525 0.135745 8
-2.79666 0.541416 0.345008 49
-1.43776 0.550996 0.0262659 4
-2.81561 0.547073 0.148503 53
-0.622678 0.237913 -0.0332127 56
-0.693342 0.138633 -0.0117367 8
-1.4202 0.545381 -0.18224 4
-0.64205 0.128633 -0.0541462 79
-1.30406 0.501175 -0.264272 3
-0.775093 0.153887 -0.119804 52
-1.00629 0.387179 -0.279342 4
-0.770098 0.152133 -0.17295 50
-2.61692 1.00932 0.638457 50
-2.78037 0.534359 0.748305 50
-2.62223 1.01139 0.438612 53
-2.80224 0.543539 0.547607 50
-1.4852 0.571904 0.136181 8
-2.79814 0.546768 0.345313 49
-1.44845 0.558008 0.026484 8
-2.80975 0.551033 0.148242 55
-0.622262 0.239 -0.0332127 58
-0.678378 0.136976 -0.011475 4
-1.41694 0.546964 -0.181936 4
-0.641824 0.129754 -0.0541462 77
-1.29632 0.50079 -0.262844 4
-0.772399 0.154769 -0.119413 52
-1.00111 0.387186 -0.278049 4
-0.767439 0.153015 -0.172389 50
-2.60916 1.02258 0.637895 50
-2.77754 0.54891 0.748305 49
-2.6123 1.0233 0.437832 52
-2.79695 0.557728 0.54713 50
-1.47523 0.576945 0.135527 8
-2.79768 0.561896 0.345617 49
-1.44551 0.565584 0.026484 4
-2.81172 0.566716 0.148503 59
-0.625607 0.244188 -0.0334753 58
-0.6752 0.140036 -0.0114313 4
-1.41867 0.556191 -0.182544 4
-0.638671 0.132736 -0.0539288 76
-1.29596 0.50847 -0.26332 4
-0.771578 0.158811 -0.119413 53
-1.00356 0.394194 -0.279342 4
-0.769017 0.157505 -0.17295 50
-2.60963 1.02803 0.638457 50
-2.77658 0.553757 0.748305 49
-2.6151 1.02967 0.438612 53
-2.78865 0.561655 0.5457 50
-1.47422 0.579519 0.135527 8
-2.79669 0.566778 0.345617 53
-1.44442 0.568358 0.026484 4
-2.81562 0.572609 0.148765 73
-0.627502 0.246196 -0.0336066 58
-0.679855 0.142204 -0.0115186 4
-1.42231 0.56049 -0.183153 4
-0.635997 0.133357 -0.0537113 73
-1.29279 0.509828 -0.262844 4
-0.7713 0.160158 -0.119413 52
-0.996064 0.39345 -0.277403 3
-0.763963 0.157891 -0.171827 52
-2.6063 1.04304 0.639018 50
-2.77354 0.568771 0.748305 49
-2.60949 1.0438 0.438612 53
-2.78808 0.576742 0.546177 50
-1.478 0.590264 0.136181 8
-2.79601 0.582403 0.345921 56
-1.44375 0.576843 0.0265277 4
-2.81493 0.588342 0.148896 90
-0.626205 0.249479 -0.0336066 58
-1.41466 0.566328 -0.182544 4
-0.640167 0.137697 -0.0541462 73
-1.29685 0.51956 -0.264272 4
-0.772869 0.164694 -0.119804 53
-0.996231 0.399562 -0.278049 4
-0.763098 0.162022 -0.171827 50
-2.60917 1.04895 0.640141 50
-2.77018 0.573126 0.747659 50
-2.60785 1.0479 0.438612 53
-2.78707 0.581607 0.546177 52
-1.47697 0.592843 0.136181 4
-2.79995 0.587806 0.34653 58
-1.43578 0.576561 0.0263968 4
-2.814 0.592763 0.148896 90
-0.628084 0.251504 -0.0337378 58
-1.41837 0.570406 -0.183153 4
-0.639926 0.138814 -0.0541462 70
-1.30049 0.523661 -0.265224 3
-0.774997 0.166547 -0.120196 52
-0.986577 0.397677 -0.275463 4
-0.767613 0.16421 -0.17295 50
-2.59913 1.06075 0.639018 49
-2.76488 0.586642 0.747013 50
-2.60918 1.06434 0.439783 53
-2.78409 0.595706 0.546177 52
-1.46934 0.598428 0.135745 8
-2.79684 0.602458 0.34653 59
-1.43516 0.584766 0.0264404 4
-2.80842 0.606965 0.148765 97
-0.626758 0.254789 -0.0337378 58
-1.41995 0.579704 -0.183761 4
-0.636755 0.14164 -0.0539288 68
-1.30237 0.532097 -0.266177 4
-0.7717 0.170086 -0.119804 52
-0.98902 0.404499 -0.276756 3
-0.766743 0.168227 -0.17295 50
-2.59728 1.06529 0.639018 49
-2.76857 0.59247 0.748305 50
-2.60047 1.06608 0.438612 52
-2.77574 0.599508 0.544747 50
-1.4752 0.603828 0.136399 4
-2.79336 0.606816 0.346225 58
-1.43404 0.587521 0.0264404 4
-2.80736 0.611866 0.148765 83
-0.624004 0.254934 -0.0336066 58
-1.42123 0.583126 -0.184065 4
-0.641375 0.143805 -0.0543637 67
-1.29917 0.533435 -0.265701 4
-0.766575 0.17039 -0.119021 52
-0.983777 0.404554 -0.275463 3
-0.766448 0.169565 -0.17295 50
-2.59148 1.07932 0.639018 50
-2.76533 0.60744 0.748305 50
-2.59238 1.07918 0.438222 52
-2.77736 0.615087 0.5457 49
-1.46732 0.609885 0.135963 4
-2.78276 0.620313 0.345313 52
-1.44248 0.59983 0.0266585 4
-2.79425 0.624883 0.148242 58
-0.620356 0.257236 -0.0334753 58
-1.41806 0.590807 -0.184065 4
-0.638182 0.146622 -0.0541462 65
-1.29626 0.540456 -0.265701 3
-0.770494 0.175469 -0.119804 53
-0.988328 0.412499 -0.277403 4
-0.767898 0.174234 -0.173512 50
-2.75719 0.610711 0.746366 49
-2.59296 1.08421 0.438612 52
-2.77388 0.619402 0.545224 50
-1.47544 0.616292 0.136835 4
-2.77694 0.623604 0.344704 49
-1.4322 0.598483 0.026484 4
-2.79083 0.628727 0.148111 55
-0.622209 0.259284 -0.0336066 58
-1.41713 0.593033 -0.184065 4
-0.640356 0.148279 -0.0543637 65
-1.29531 0.542718 -0.265701 3
-0.770187 0.176813 -0.119804 50
-0.994283 0.417035 -0.279342 4
-0.765245 0.174912 -0.17295 52
-2.75642 0.625189 0.747013 49
-2.58952 1.09874 0.439002 52
-2.77071 0.633434 0.545224 50
-1.47001 0.622779 0.136617 4
-2.77364 0.638136 0.344704 50
-1.43836 0.609635 0.0266585 4
-2.7948 0.645003 0.148503 59
-0.625437 0.264492 -0.0338691 58
-1.41629 0.601417 -0.18437 4
-0.637143 0.151073 -0.0541462 65
-1.30158 0.553116 -0.267605 3
-0.764436 0.179743 -0.119021 52
-0.983276 0.418269 -0.276756 3
-0.766695 0.179457 -0.173512 50
-2.75061 0.62893 0.74572 49
-2.58306 1.10131 0.438222 52
-2.76949 0.638752 0.545224 50
-1.47121 0.626321 0.136835 4
-2.77977 0.644645 0.345617 55
-1.43489 0.611413 0.0266149 8
-2.79367 0.64988 0.148503 62
-0.622679 0.264602 -0.0337378 58
-1.41067 0.601936 -0.183761 4
-0.641731 0.153307 -0.0545811 64
-1.28933 0.550556 -0.265224 3
-0.768933 0.182186 -0.119804 52
-0.98469 0.421108 -0.277403 4
-0.76638 0.180795 -0.173512 50
-2.75187 0.644897 0.747013 50
-2.7685 0.653805 0.5457 52
-1.46551 0.633282 0.136617 4
-2.77383 0.659106 0.345313 68
-1.43396 0.619912 0.0266585 4
-2.78769 0.664411 0.148372 97
-0.623576 0.268852 -0.0338691 58
-1.42333 0.616478 -0.185891 3
-0.636073 0.155518 -0.0541462 64
-1.29984 0.563394 -0.268081 3
-0.763163 0.185075 -0.119021 50
-0.971401 0.421438 -0.274169 4
-0.765391 0.184938 -0.173512 50
-2.74604 0.648597 0.74572 49
-2.76019 0.656943 0.544271 50
-1.46897 0.637826 0.137052 4
-2.78004 0.665183 0.346225 70
-1.43288 0.622413 0.0266585 4
-2.78421 0.66821 0.148242 120
-0.627683 0.271934 -0.0341317 58
-1.42236 0.618713 -0.185891 4
-0.6358 0.156628 -0.0541462 64
-1.29211 0.562715 -0.266653 3
-0.767643 0.18755 -0.119804 52
-0.972877 0.4241 -0.274816 4
-0.769841 0.187263 -0.174635 50
-2.84706 1.25594 0.709209 27
-2.74507 0.663051 0.746366 45
-2.72077 1.19961 0.464367 15
-2.75921 0.671481 0.544747 50
-1.46345 0.644248 0.136835 4
-2.7741 0.679143 0.345921 70
-1.43199 0.630667 0.0267022 8
-2.77825 0.682188 0.148111 116
-0.623967 0.274208 -0.0340004 58
-1.42364 0.628159 -0.186499 4
-0.637391 0.160545 -0.0543637 64
-1.28924 0.569248 -0.266653 4
-0.76665 0.191566 -0.119804 50
-0.96851 0.42804 -0.274169 4
-0.764114 0.190144 -0.173512 50
-2.81369 1.24708 0.701348 27
-2.74156 0.667274 0.74572 33
-2.72318 1.20636 0.465147 11
-2.76269 0.677939 0.5457 52
-1.4646 0.647811 0.137052 4
-2.77532 0.684574 0.346225 65
-1.42164 0.62936 0.0265277 8
-2.77705 0.687036 0.148111 110
-0.625769 0.27631 -0.0341317 56
-1.42027 0.629635 -0.186195 3
-0.634692 0.161063 -0.0541462 59
-1.27479 0.565512 -0.263796 4
-0.763917 0.192316 -0.119413 50
-0.969892 0.430882 -0.274816 3
-0.763781 0.191477 -0.173512 50
-2.76914 1.24528 0.691802 24
-2.73791 0.682097 0.74572 47
-2.71887 1.22209 0.465537 12
-2.75672 0.691802 0.545224 49
-1.44971 0.650617 0.135963 4
-2.76917 0.698977 0.345921 71
-1.41605 0.635769 0.026484 8
-2.7733 0.702051 0.148111 106
-0.622038 0.278557 -0.0340004 58
-1.41911 0.63833 -0.186499 4
-0.63867 0.165599 -0.0545811 62
-1.27172 0.572401 -0.263796 3
-0.762899 0.196313 -0.119413 50
-0.965422 0.43496 -0.274169 4
-0.769824 0.197379 -0.175197 50
-2.7472 1.24059 0.686748 55
-2.73672 0.686875 0.74572 45
-2.72595 1.23042 0.467098 15
-2.75789 0.69721 0.5457 52
-1.45085 0.654172 0.136181 4
-2.76326 0.702112 0.345313 61
-1.42405 0.642359 0.0266585 8
-2.77219 0.706406 0.148111 102
-0.628374 0.28273 -0.0343942 56
-1.41132 0.637488 -0.185587 4
-0.63838 0.166713 -0.0545811 59
-1.26848 0.573606 -0.26332 3
-0.767343 0.198854 -0.120196 52
-0.971258 0.43964 -0.276109 3
-0.769513 0.198588 -0.175197 50
-2.73181 1.2509 0.684502 47
-2.73086 0.700122 0.745074 44
-2.71049 1.24056 0.465537 50
-2.74957 0.709941 0.544747 50
-1.44072 0.658395 0.135527 4
-2.75954 0.716571 0.345313 71
-1.4185 0.648517 0.0266149 4
-2.7757 0.722787 0.148503 90
-0.622347 0.283934 -0.0341317 58
-1.41247 0.64694 -0.186195 4
-0.637498 0.170053 -0.0545811 58
-1.27448 0.584118 -0.265224 4
-0.763901 0.202252 -0.119804 50
-0.96902 0.444551 -0.276109 3
-0.763744 0.201401 -0.174073 50
-2.70749 1.24547 0.678887 29
-2.73198 0.705487 0.74572 42
-2.68813 1.236 0.462025 30
-2.75058 0.715832 0.545224 52
-1.45088 0.666114 0.136617 4
-2.76069 0.72201 0.345617 73
-1.41953 0.652285 0.0266585 4
-2.76961 0.726372 0.148242 103
-0.617316 0.28293 -0.0338691 58
-1.40458 0.646286 -0.185282 4
-0.639611 0.171794 -0.0547986 58
-1.269 0.584285 -0.264272 4
-0.763547 0.203585 -0.119804 49
-2.67423 1.24773 0.672148 27
-2.72578 0.719645 0.745074 45
-2.67245 1.24635 0.460465 30
-2.74679 0.730224 0.545224 52
-1.44726 0.673954 0.136617 4
-2.75674 0.736936 0.345617 67
-1.41156 0.657593 0.0265713 4
-2.76322 0.740704 0.148111 120
-0.622611 0.289329 -0.0342629 58
-1.4123 0.659134 -0.186804 4
-0.638702 0.175141 -0.0547986 56
-1.27471 0.595305 -0.266177 4
-0.767243 0.208848 -0.120587 50
-2.65021 1.24158 0.666533 53
-2.72919 0.725635 0.746366 49
-2.65037 1.24111 0.456953 32
-2.74551 0.735017 0.545224 52
-1.44834 0.677537 0.136835 4
-2.75558 0.741265 0.345617 55
-1.4172 0.663241 0.0267022 4
-2.75723 0.743751 0.147849 109
-0.619845 0.289354 -0.0341317 58
-1.40453 0.658186 -0.185891 4
-0.633585 0.174965 -0.0543637 56
-1.27367 0.597529 -0.266177 4
-0.764492 0.209549 -0.120196 49
-0.764312 0.208685 -0.174635 49
-2.65907 1.26277 0.670464 59
-2.72315 0.738811 0.74572 44
-2.6483 1.25709 0.457733 58
-2.73939 0.748261 0.544747 49
-1.45389 0.689133 0.137706 4
-2.74927 0.75503 0.345313 52
-1.41383 0.670405 0.0267022 4
-2.77016 0.762789 0.148765 80
-0.620576 0.293668 -0.0342629 56
-1.39882 0.664465 -0.185587 4
-0.635062 0.178938 -0.0545811 56
-1.27063 0.603968 -0.266177 4
-0.763209 0.212684 -0.174635 49
-2.65906 1.26846 0.671025 59
-2.71953 0.74293 0.745074 45
-2.65055 1.26384 0.458513 58
-2.73084 0.751578 0.543317 47
-1.45268 0.69167 0.137706 4
-2.74795 0.759827 0.345313 58
-1.41705 0.675273 0.0267894 4
-2.76401 0.766297 0.148503 62
-0.622315 0.295827 -0.0343942 56
-1.39318 0.664764 -0.184978 4
-0.63715 0.180708 -0.0547986 56
-1.27179 0.607244 -0.266653 3
-0.765186 0.21466 -0.175197 49
-2.65655 1.28495 0.672148 61
-2.71314 0.756988 0.744428 49
-2.6459 1.27923 0.458904 59
-2.72687 0.765866 0.543317 45
-1.44892 0.699519 0.137706 4
-2.74619 0.775354 0.345617 80
-1.41124 0.681594 0.0267458 4
-2.75742 0.780564 0.148372 58
-0.618511 0.297993 -0.0342629 56
-1.3985 0.676623 -0.186195 4
-0.6314 0.182692 -0.0543637 55
-1.26849 0.614116 -0.266653 3
-0.766359 0.219453 -0.175758 45
-2.65672 1.29018 0.67271 62
-2.70949 0.761073 0.743782 49
-2.65033 1.28709 0.460074 59
-2.73262 0.772615 0.544747 50
-1.43874 0.697692 0.136835 4
-2.74722 0.78082 0.345921 68
-1.41455 0.686242 0.0268331 4
-2.75845 0.786056 0.148503 62
-0.620235 0.300165 -0.0343942 58
-1.39955 0.680149 -0.186499 4
-0.63108 0.183794 -0.0543637 55
-1.26521 0.615254 -0.266177 3
-2.65648 1.30731 0.674394 71
-2.70328 0.774117 0.743135 49
-2.64821 1.30267 0.460855 68
-2.7216 0.784409 0.543317 45
-1.43519 0.704966 0.136835 4
-2.74085 0.794029 0.345617 53
-1.40433 0.69008 0.0267022 4
-2.75924 0.801392 0.148765 90
-0.620894 0.304512 -0.0345255 58
-1.39386 0.686126 -0.186195 4
-0.637287 0.18917 -0.055016 55
-1.26428 0.622736 -0.266653 3
-2.65638 1.31302 0.674956 82
-2.70889 0.780828 0.745074 49
-2.65478 1.31167 0.462416 77
-2.72244 0.790313 0.543794 49
-1.42726 0.704158 0.136181 4
-2.73231 0.796739 0.344704 49
-1.41196 0.69721 0.0268767 4
-2.75304 0.804813 0.148503 97
-0.622599 0.306703 -0.0346568 58
-1.39488 0.68966 -0.186499 4
-0.632173 0.188891 -0.0545811 55
-1.25219 0.619489 -0.264272 4
-2.65141 1.32847 0.675517 86
-2.70231 0.794796 0.744428 47
-2.64765 1.32601 0.462416 88
-2.71591 0.803864 0.543317 49
-1.4301 0.715217 0.136835 4
-2.73271 0.812918 0.345313 47
-1.40606 0.703472 0.0268331 4
-2.75104 0.820406 0.148634 70
-0.618753 0.308839 -0.0345255 56
-1.39557 0.699424 -0.187108 4
-0.633563 0.192906 -0.0547986 55
-1.25102 0.627358 -0.264748 3
-2.62757 1.32167 0.669902 36
-2.70555 0.800874 0.74572 45
-2.62792 1.32129 0.459294 45
-2.71921 0.809997 0.544271 52
-1.43553 0.721072 0.137488 4
-2.7243 0.815087 0.3444 49
-1.40036 0.703677 0.0267458 4
-2.73778 0.821161 0.14798 50
-0.622672 0.312165 -0.034788 58
-1.39668 0.702733 -0.187412 4
-0.635612 0.194724 -0.055016 55
-1.24554 0.627328 -0.263796 3
-2.59891 1.32434 0.664287 33
-2.70146 0.814558 0.74572 45
-2.60336 1.32606 0.456172 35
-2.71743 0.824458 0.544747 49
-1.43186 0.728328 0.137488 4
-2.72474 0.83078 0.345008 55
-1.40346 0.714163 0.0268767 4
-0.618806 0.314286 -0.0346568 56
-1.37972 0.703263 -0.185587 4
-0.629818 0.1966 -0.0545811 53
-1.25327 0.63921 -0.266177 3
-2.57491 1.31777 0.658671 32
-2.70466 0.820666 0.747013 47
-2.57687 1.31822 0.45188 33
-2.71349 0.82896 0.544271 47
-1.43724 0.734231 0.138142 4
-2.71854 0.834087 0.3444 90
-1.40431 0.717995 0.0269203 4
-0.620478 0.316504 -0.034788 58
-1.38291 0.707935 -0.186195 4
-0.634237 0.199157 -0.055016 53
-1.24124 0.635791 -0.263796 3
-2.54829 1.32158 0.653618 33
-2.70249 0.835997 0.747659 49
-2.55436 1.32418 0.449148 33
-2.70442 0.841706 0.543317 45
-1.42219 0.736262 0.137052 4
-2.71636 0.84952 0.344704 50
-1.39832 0.724187 0.0268767 4
-0.616597 0.318598 -0.0346568 58
-1.37906 0.715407 -0.186195 4
-0.630808 0.201733 -0.0547986 53
-1.24431 0.645896 -0.265224 3
-2.52677 1.31544 0.648564 33
-2.69641 0.839285 0.746366 49
-2.52818 1.31564 0.444856 32
-2.71701 0.850801 0.546177 47
-1.42311 0.739894 0.13727 4
-2.71739 0.854526 0.345008 49
-1.39927 0.727782 0.0269203 4
-0.618253 0.320828 -0.034788 56
-1.37353 0.715276 -0.185587 4
-0.628078 0.202089 -0.0545811 53
-1.23666 0.644657 -0.263796 4
-1.9851 0.626382 -0.324568 14
-0.949481 0.495412 -0.277403 4
-2.50045 1.31842 0.64351 33
-2.69443 0.853647 0.747013 50
-2.50597 1.32079 0.442124 33
-2.71033 0.863801 0.5457 49
-1.41714 0.745925 0.137052 4
-2.70815 0.867237 0.3444 47
-1.39115 0.732522 0.0268331 4
-0.616565 0.324061 -0.034788 56
-1.37635 0.725937 -0.186499 4
-0.631756 0.20689 -0.055016 50
-1.23338 0.650908 -0.263796 3
-1.97473 0.634518 -0.323393 12
-0.951229 0.502473 -0.278696 4
-2.48308 1.31479 0.63958 35
-2.69064 0.857619 0.746366 47
-2.48185 1.3136 0.438222 33
-2.71334 0.870494 0.546653 50
-1.41364 0.747232 0.136835 4
-2.71136 0.873476 0.345008 45
-1.39415 0.737533 0.0269203 4
-0.618204 0.326307 -0.0349193 56
-1.36851 0.724848 -0.185587 4
-0.629023 0.207231 -0.0547986 45
-1.22574 0.649606 -0.262367 3
-1.96892 0.636455 -0.32261 14
-0.952394 0.505433 -0.279342 4
-2.45447 1.31668 0.633964 35
-2.68596 0.872164 0.746366 45
-2.45512 1.31649 0.43471 33
-2.70408 0.883174 0.5457 52
-1.41835 0.75958 0.137706 4
-2.70423 0.887363 0.344704 45
-1.38367 0.741275 0.0267894 4
-0.616487 0.329539 -0.0349193 56
-1.36238 0.731066 -0.185282 4
-0.62793 0.210521 -0.0547986 39
-1.21788 0.653902 -0.261415 3
-1.95852 0.644457 -0.321436 14
-0.953986 0.512704 -0.280636 4
-2.43953 1.3136 0.630595 35
-2.67984 0.875359 0.745074 45
-2.43566 1.31098 0.431588 35
-2.70253 0.887892 0.5457 50
-1.41922 0.763236 0.137924 4
-2.70755 0.893157 0.345313 47
-1.38457 0.744875 0.0268331 8
-0.620305 0.332985 -0.0351819 56
-1.36996 0.73792 -0.186499 4
-0.62283 0.21006 -0.0543637 35
-1.21458 0.654859 -0.260939 3
-1.96208 0.649415 -0.322219 14
-0.95309 0.514369 -0.280636 4
-2.41124 1.31468 0.62498 36
-2.6662 0.885882 0.742489 45
-2.41359 1.31543 0.428856 35
-2.698 0.901559 0.5457 49
-1.42627 0.776372 0.139013 4
-2.70754 0.908893 0.345921 49
-1.37639 0.749479 0.0267458 4
-0.614171 0.333835 -0.0349193 56
-1.36391 0.743893 -0.186195 4
-0.631168 0.216482 -0.0552335 29
-1.21125 0.660998 -0.260939 3
-1.95163 0.657331 -0.321044 14
-0.952592 0.520347 -0.281282 4
-2.39826 1.31303 0.622172 35
-2.66465 0.890534 0.742489 45
-2.39613 1.31134 0.426125 33
-2.69161 0.905181 0.544747 45
-2.70831 0.914407 0.346225 90
-1.37495 0.75212 0.0267458 4
-0.620155 0.338508 -0.0353131 55
-1.36696 0.74866 -0.186804 4
-0.626069 0.215993 -0.0547986 24
-1.2101 0.663111 -0.260939 3
-1.93878 0.656803 -0.319086 12
-0.94736 0.519845 -0.279989 4
-2.37195 1.31535 0.617118 36
-2.66437 0.906485 0.743782 49
-2.36741 1.3123 0.422223 33
-2.68451 0.918471 0.544271 45
-2.69862 0.927441 0.345617 50
-1.37755 0.762948 0.0268767 4
-0.620556 0.342962 -0.0354444 55
-1.36722 0.758457 -0.187412 4
-0.627285 0.220076 -0.055016 29
-1.2022 0.667263 -0.259987 3
-1.93298 0.666146 -0.318695 12
-0.944625 0.524799 -0.279989 4
-2.35499 1.31077 0.613188 35
-2.65592 0.908801 0.741843 49
-2.3524 1.30881 0.419881 35
-2.67594 0.920771 0.542841 44
-2.69716 0.931679 0.345617 47
-1.36748 0.760484 0.0267022 4
-0.619957 0.344044 -0.0354444 55
-1.4301 0.498315 -0.0258296 3
-1.35953 0.756976 -0.186499 4
-0.624546 0.220358 -0.0547986 38
-1.19461 0.665769 -0.258558 3
-1.92714 0.667913 -0.317912 12
-0.947923 0.528805 -0.281282 4
-2.33324 1.3147 0.609257 36
-2.65129 0.922232 0.741843 49
-2.33046 1.31261 0.41715 35
-2.67125 0.934304 0.542841 44
-2.68288 0.942515 0.3444 44
-1.3745 0.773535 0.0269203 4
-0.620321 0.348513 -0.0355757 55
-1.4252 0.50472 -0.0257859 4
-1.35987 0.766525 -0.187108 4
-0.625733 0.224449 -0.055016 47
-1.19122 0.671807 -0.258558 3
-1.92595 0.678809 -0.318303 12
-0.945234 0.533596 -0.281282 4
-2.31398 1.30917 0.604765 36
-2.64968 0.926858 0.741843 49
-2.31097 1.30695 0.414028 35
-2.66713 0.938619 0.542364 45
-2.68357 0.948018 0.344704 44
-1.36649 0.772476 0.0267894 4
-0.615368 0.347133 -0.0353131 55
-1.43375 0.510531 -0.0259605 4
-1.35853 0.768897 -0.187108 4
-0.630038 0.227197 -0.0554509 50
-1.19005 0.673885 -0.258558 3
-1.91544 0.678892 -0.316737 12
-0.944208 0.53541 -0.281282 4
-2.28996 1.31197 0.600273 36
-2.6469 0.941986 0.742489 49
-2.28673 1.3096 0.410906 35
-2.65987 0.951749 0.541888 45
-2.66905 0.959183 0.343487 42
-1.36026 0.778377 0.0267458 8
-0.611376 0.349108 -0.0351819 55
-1.42626 0.516594 -0.0258732 4
-1.34789 0.772529 -0.186195 4
-0.626496 0.229653 -0.0552335 50
-1.17575 0.674199 -0.256177 3
-1.90954 0.688081 -0.316346 12
-0.939299 0.539141 -0.280636 4
-1.06354 0.384498 -0.252687 4
-2.27101 1.30584 0.59578 36
-2.6407 0.944985 0.741197 47
-2.27183 1.3058 0.408565 36
-2.66282 0.958043 0.542841 47
-2.66287 0.961696 0.342879 42
-1.35673 0.779503 0.0267022 8
-0.610766 0.350175 -0.0351819 53
-1.42771 0.51993 -0.0259168 4
-0.626094 0.230746 -0.0552335 50
-1.17244 0.675023 -0.255701 3
-1.90601 0.690577 -0.315954 12
-0.940447 0.541989 -0.281282 4
-1.06522 0.38699 -0.253249 4
-2.2473 1.3079 0.591288 36
-2.63588 0.958338 0.741197 47
-2.25216 1.31022 0.406223 36
-2.65794 0.971509 0.542841 49
-2.23911 1.30211 0.223554 35
-2.65547 0.974775 0.342575 39
-1.35925 0.790134 0.0268331 8
-1.46574 0.541479 0.080074 4
-0.615395 0.35714 -0.0355757 53
-1.42741 0.528009 -0.0259605 4
-0.622539 0.233164 -0.055016 49
-1.16689 0.679711 -0.255225 3
-1.90005 0.699699 -0.315563 12
-0.931438 0.543084 -0.279342 4
-1.06089 0.391728 -0.252687 3
-2.2345 1.30567 0.588481 36
-2.63648 0.963763 0.741843 49
-2.23068 1.30293 0.402711 36
-2.65146 0.974924 0.541888 49
-2.23038 1.30225 0.222901 35
-2.63979 0.974277 0.340749 38
-1.46948 0.545761 0.0803357 4
-0.614771 0.358213 -0.0355757 53
-1.42414 0.529636 -0.0259168 4
-0.624468 0.235111 -0.0552335 47
-1.16147 0.679264 -0.254273 3
-1.90114 0.703866 -0.315954 12
-0.93664 0.548541 -0.281282 4
-1.05792 0.392741 -0.252126 3
-2.20854 1.30657 0.583427 35
-2.62669 0.976338 0.740551 47
-2.21298 1.30869 0.40076 35
-2.64862 0.989649 0.542364 49
-2.2083 1.30542 0.221376 35
-2.62518 0.985074 0.339532 36
-1.46417 0.552829 0.0802048 4
-0.61933 0.365245 -0.0359695 50
-1.43061 0.54084 -0.0260913 4
-0.618563 0.236632 -0.0547986 47
-1.16833 0.691801 -0.256653 3
-1.89268 0.712414 -0.315171 12
-0.931679 0.552203 -0.280636 4
-1.05578 0.398459 -0.252126 4
-2.19392 1.30257 0.580058 35
-2.62499 0.980921 0.740551 47
-2.19371 1.30246 0.397638 35
-2.64229 0.992552 0.541411 50
-2.19531 1.30291 0.220286 36
-2.61416 0.986167 0.338315 33
-1.4632 0.555383 0.0802048 4
-0.618692 0.366325 -0.0359695 47
-1.42967 0.543336 -0.0260913 4
-0.613487 0.235957 -0.0543637 45
-1.16501 0.692583 -0.256177 3
-1.89144 0.715716 -0.315171 12
-0.936935 0.557542 -0.282576 4
-1.05508 0.400301 -0.252126 3
-2.17037 1.30399 0.575566 35
-2.62451 0.995901 0.741843 49
-2.17228 1.30464 0.394907 36
-2.63723 1.00591 0.541411 49
-2.17161 1.30374 0.218543 38
-2.59523 0.994084 0.33649 32
-1.45804 0.561891 0.080074 4
-0.621044 0.372134 -0.0362321 42
-1.41756 0.546995 -0.0259168 4
-0.621549 0.242723 -0.0552335 45
-1.16149 0.698471 -0.256177 3
-1.88317 0.72352 -0.314388 12
-0.934101 0.562277 -0.282576 4
-1.0576 0.407368 -0.253249 3
-2.15558 1.30022 0.572196 36
-2.61825 0.998766 0.740551 47
-2.1552 1.29949 0.392175 36
-2.62842 1.00835 0.539981 45
-2.15867 1.30109 0.217454 38
-2.58885 0.996837 0.335881 29
-1.45939 0.56533 0.0802048 4
-0.62894 0.378381 -0.0367572 38
-1.42127 0.551262 -0.0260041 4
-0.623449 0.2447 -0.0554509 45
-1.15187 0.695415 -0.254273 3
-1.8796 0.725922 -0.313997 12
-0.935085 0.565321 -0.283222 4
-1.05689 0.409214 -0.253249 3
-2.13604 1.30424 0.568827 36
-2.61506 1.01379 0.741197 49
-2.13549 1.30341 0.389834 35
-2.63226 1.02565 0.541888 50
-2.13673 1.30366 0.215928 38
-2.56261 1.00273 0.333143 27
-1.46096 0.575032 0.0804665 4
-1.42292 0.560762 -0.0260913 4
-0.622159 0.247962 -0.0554509 42
-1.146 0.700355 -0.253796 3
-1.87578 0.735753 -0.313997 12
-0.930054 0.568947 -0.282576 4
-1.0592 0.41669 -0.254372 3
-2.11738 1.2974 0.564335 35
-2.61329 1.01835 0.741197 47
-2.11871 1.29772 0.387102 36
-2.63275 1.03113 0.542364 50
-2.12171 1.29958 0.214621 38
-2.5541 1.00404 0.33223 27
-1.46935 0.58097 0.0809899 4
-1.41961 0.562331 -0.0260477 4
-0.621725 0.249047 -0.0554509 42
-1.13641 0.697211 -0.251892 3
-1.87909 0.740826 -0.31478 12
-0.935228 0.574368 -0.284516 4
-1.05627 0.417468 -0.25381 3
-2.10021 1.30205 0.561527 36
-2.6081 1.03156 0.741197 47
-2.0972 1.29969 0.384371 36
-2.62521 1.04354 0.541888 50
-2.10241 1.30242 0.213314 39
-2.54881 1.0174 0.33223 27
-1.71684 1.06369 0.034643 12
-1.45701 0.584963 0.0804665 4
-1.41907 0.570434 -0.0260913 4
-0.615829 0.250348 -0.055016 38
-1.1287 0.700362 -0.250939 3
-1.87289 0.749743 -0.314388 12
-0.936409 0.581648 -0.285809 4
-1.04501 0.419402 -0.251564 3
-2.08162 1.29504 0.557035 38
-2.60405 1.03523 0.740551 47
-2.08235 1.29551 0.38203 38
-2.62567 1.04903 0.542364 50
-2.08533 1.29688 0.211788 39
-2.54472 1.02093 0.331926 29
-1.7065 1.0614 0.0344685 12
-1.46062 0.58936 0.0807282 4
-1.42504 0.575697 -0.0262222 4
-0.620016 0.253273 -0.0554509 36
-1.12956 0.703631 -0.251416 3
-0.929249 0.57944 -0.283869 4
-1.05333 0.424832 -0.25381 3
-2.06634 1.30109 0.554789 38
-2.60083 1.04975 0.741197 47
-2.06509 1.29981 0.380078 38
-2.61787 1.06184 0.541888 50
-2.06165 1.29716 0.210045 38
-2.52784 1.02958 0.330405 29
-1.4552 0.59606 0.0805974 4
-1.41506 0.580327 -0.0260913 4
-0.625558 0.259437 -0.0561033 35
-1.11963 0.705603 -0.249987 3
-0.934366 0.589463 -0.286455 3
-1.04658 0.428514 -0.252687 4
-2.0476 1.29427 0.550297 36
-2.60124 1.05519 0.741843 49
-2.05239 1.29681 0.378127 38
-2.61582 1.06686 0.541888 50
-2.05097 1.29543 0.209174 38
-2.52604 1.03399 0.330405 29
-1.44954 0.596712 0.0803357 4
-1.42792 0.588468 -0.0263531 4
-0.62741 0.261471 -0.0563208 33
-1.12047 0.70887 -0.250463 4
-0.929156 0.588665 -0.285162 3
-1.04583 0.43034 -0.252687 3
-2.03236 1.30007 0.548051 36
-2.59549 1.06925 0.741843 47
-2.03078 1.29858 0.375396 38
-2.6102 1.08055 0.541888 49
-2.02715 1.29577 0.207431 39
-2.52271 1.04859 0.330709 29
-1.66374 1.06359 0.0338577 11
-1.4486 0.605502 0.0804665 4
-1.41779 0.593311 -0.0262222 4
-1.11869 0.716248 -0.250939 4
-0.932155 0.597439 -0.287102 3
-1.04574 0.436922 -0.253249 3
-2.01187 1.29141 0.542997 36
-2.59362 1.07377 0.741843 47
-2.02043 1.29643 0.373835 38
-2.01441 1.29257 0.206341 39
-2.52564 1.05445 0.331318 30
-1.65558 1.06244 0.0337268 12
-1.44764 0.607777 0.0804665 4
-1.42368 0.59867 -0.0263531 4
-1.10712 0.711554 -0.248559 3
-0.925024 0.595138 -0.285162 3
-1.04055 0.436698 -0.252126 4
-1.99487 1.29529 0.540189 38
-2.00119 1.29892 0.371493 39
-1.9974 1.29597 0.205252 41
-2.52466 1.06959 0.331926 30
-1.64599 1.06808 0.0336395 12
-1.44214 0.614377 0.0803357 4
-1.42063 0.605869 -0.0263531 4
-1.10145 0.715809 -0.248082 4
-1.48597 0.632319 -0.250571 9
-0.922 0.599812 -0.285162 3
-1.04498 0.444975 -0.25381 3
-1.98444 1.29344 0.537943 38
-1.98444 1.29296 0.368762 39
-1.9847 1.29265 0.204162 41
-2.52735 1.07593 0.332535 30
-1.64812 1.07397 0.0337268 12
-1.43647 0.614942 0.080074 4
-1.41267 0.605415 -0.0262222 4
-1.09609 0.715044 -0.24713 4
-1.47123 0.629128 -0.248222 8
-0.920846 0.601581 -0.285162 3
-1.0442 0.446798 -0.25381 3
-1.96725 1.29745 0.535136 39
-1.96505 1.29552 0.366421 38
-1.9652 1.29514 0.202855 41
-1.64247 1.08259 0.0337268 12
-1.44229 0.626657 0.0805974 4
-1.41167 0.614039 -0.0262659 4
-1.08811 0.718255 -0.246178 4
-1.47018 0.637798 -0.248613 8
-0.923723 0.610396 -0.287102 3
-1.04625 0.454363 -0.254933 3
-1.95303 1.29246 0.531766 38
-1.95272 1.29178 0.364469 39
-1.95256 1.29169 0.201766 42
-2.7977 1.21359 0.369652 14
-1.43443 0.625947 0.0802048 4
-1.41289 0.617496 -0.0263095 4
-1.08685 0.720153 -0.246178 3
-1.4668 0.639383 -0.248222 4
-0.920645 0.61067 -0.286455 3
-1.0433 0.455041 -0.254372 3
-1.93409 1.29453 0.528397 38
-1.93362 1.29374 0.362128 39
-2.8661 1.25626 0.600985 26
-1.93979 1.2974 0.201112 41
-2.76176 1.21527 0.365697 21
-1.43342 0.634452 0.0803357 4
-1.40745 0.623634 -0.0262659 4
-1.08116 0.724277 -0.245702 3
-1.46117 0.646063 -0.24783 4
-0.923555 0.619365 -0.288395 3
-1.0476 0.463426 -0.256056 3
-1.92374 1.29247 0.526151 39
-2.85186 1.2501 0.823911 26
-1.92112 1.29023 0.360177 39
-2.84121 1.2519 0.596219 26
-1.92305 1.29106 0.199587 41
-2.76418 1.22209 0.366305 27
-1.44602 0.642998 0.0811207 4
-1.41551 0.630127 -0.0264404 4
-1.07175 0.720676 -0.243797 4
-1.46682 0.651599 -0.249005 4
-0.922364 0.621137 -0.288395 3
-1.04009 0.462314 -0.254372 3
-1.90263 1.29326 0.52222 39
-2.81856 1.25377 0.816157 26
-1.90798 1.29643 0.359006 39
-2.80323 1.25279 0.589547 24
-1.90574 1.29444 0.198497 41
-2.75526 1.23602 0.366001 24
-1.44252 0.650812 0.0811207 4
-1.40524 0.634711 -0.0263095 4
-1.06784 0.726464 -0.243797 4
-1.46339 0.659271 -0.249005 4
-0.917105 0.624596 -0.287749 3
-1.04425 0.47091 -0.256056 3
-1.88651 1.28663 0.51829 39
-2.77665 1.24102 0.804525 24
-1.89167 1.28968 0.356275 41
-2.74279 1.23163 0.577156 23
-1.8932 1.29074 0.197408 41
-2.73067 1.23019 0.362959 15
-1.43694 0.651031 0.0808591 4
-1.40641 0.638188 -0.0263531 4
-1.06049 0.724168 -0.242368 4
-1.46223 0.661824 -0.249005 4
-0.919997 0.628926 -0.289042 3
-1.04574 0.473546 -0.256618 3
-1.87173 1.29095 0.516044 39
-2.74612 1.24413 0.797417 56
-1.8727 1.29115 0.353933 39
-2.74546 1.24955 0.579062 53
-1.87639 1.29324 0.196318 42
-2.6858 1.227 0.357787 14
-1.87882 1.2954 0.0392243 41
-1.43578 0.659581 0.0809899 4
-1.40543 0.646336 -0.0263968 4
-1.05883 0.730923 -0.242845 4
-0.914817 0.632199 -0.288395 3
-1.04324 0.479014 -0.256618 4
-1.85946 1.28728 0.513236 39
-2.74174 1.24793 0.79677 42
-1.86435 1.2902 0.352763 39
-2.72519 1.24668 0.575249 32
-1.8598 1.28658 0.194793 41
-2.66108 1.22137 0.354744 14
-1.86195 1.28903 0.0389189 41
-1.43917 0.664164 0.0812516 4
-1.39976 0.646705 -0.0263095 4
-1.05151 0.72857 -0.241416 4
-0.923513 0.640851 -0.291628 3
-1.03354 0.47679 -0.254372 4
-1.84649 1.29312 0.511551 39
-2.69984 1.2466 0.786431 24
-1.84521 1.29176 0.350421 41
-2.68966 1.24756 0.569053 26
-1.84057 1.28805 0.193486 42
-2.62742 1.22323 0.351093 14
-1.84699 1.29303 0.0387443 41
-1.43329 0.67089 0.0811207 4
-1.3985 0.655323 -0.0263531 4
-1.19718 0.838759 -0.174938 8
-1.04755 0.734248 -0.241416 4
-0.92607 0.649846 -0.293568 3
-1.02873 0.481352 -0.25381 4
-1.8325 1.28761 0.508182 39
-2.67793 1.2422 0.780615 26
-1.8351 1.28898 0.34886 41
-2.66299 1.24089 0.563811 29
-1.83017 1.28553 0.192614 42
-2.5985 1.21479 0.347442 14
-1.8386 1.29193 0.0386134 41
-1.43224 0.67314 0.0811207 4
-1.39736 0.657763 -0.0263531 4
-1.20195 0.844925 -0.175851 9
-1.04627 0.736076 -0.241416 4
-0.930852 0.655641 -0.295508 3
-1.02135 0.479888 -0.252126 4
-1.81581 1.29013 0.505375 39
-2.66067 1.25062 0.777384 49
-1.81625 1.28998 0.346519 41
-2.65667 1.25435 0.563811 58
-1.81553 1.289 0.191743 42
-2.55844 1.21249 0.342879 24
-1.81574 1.28963 0.0382644 42
-1.43095 0.681697 0.0812516 4
-1.39627 0.665896 -0.0263968 4
-1.04253 0.741362 -0.241416 4
-0.927522 0.660344 -0.295508 3
-1.02323 0.487306 -0.253249 4
-1.80386 1.2859 0.502567 41
-2.66285 1.25732 0.778677 56
-1.80395 1.28598 0.344568 41
-2.66114 1.26213 0.565241 58
-1.80516 1.28638 0.190871 42
-2.55856 1.21802 0.343183 24
-1.80738 1.28844 0.0381335 39
-1.41848 0.678839 0.0805974 4
-1.39511 0.668332 -0.0263968 4
-1.04722 0.747464 -0.242845 4
-1.01797 0.487007 -0.252126 4
-1.78678 1.28882 0.499759 41
-2.66037 1.27378 0.779969 56
-1.78896 1.28994 0.343007 42
-2.65648 1.27757 0.565717 58
-1.78808 1.28884 0.189782 42
-2.55417 1.23292 0.343487 26
-1.7862 1.28796 0.0378281 41
-1.41704 0.687587 0.0807282 4
-1.39597 0.678041 -0.026484 4
-1.01752 0.493561 -0.252687 4
-1.77686 1.28591 0.497513 41
-2.66032 1.27947 0.780615 58
-1.77493 1.28405 0.340666 42
-2.65867 1.28433 0.56667 59
-1.77776 1.28612 0.18891 44
-2.56117 1.24124 0.344704 26
-1.7799 1.28814 0.0377408 41
-1.42494 0.694158 0.0812516 4
-1.39254 0.679387 -0.0264404 4
-1.01894 0.496216 -0.253249 3
-1.76028 1.288 0.494706 41
-2.65599 1.29397 0.781261 59
-1.76021 1.28749 0.339105 42
-2.65655 1.29992 0.567624 61
-1.76118 1.28774 0.187821 44
-2.55464 1.25464 0.344704 27
-1.76731 1.2927 0.0376099 44
-1.41456 0.698315 0.0808591 4
-1.38684 0.685326 -0.0263968 4
-1.75976 1.28906 -0.263168 42
-1.01414 0.500476 -0.252687 3
-1.74625 1.28241 0.491336 41
-2.66024 1.30178 0.7832 65
-1.75001 1.28471 0.337544 42
-2.65625 1.3061 0.5681 68
-1.75291 1.28639 0.187167 44
-2.54353 1.25472 0.343487 29
-1.74871 1.28425 0.0372609 41
-1.42454 0.706294 0.0815132 4
-1.39685 0.693267 -0.0266149 4
-1.74752 1.28477 -0.261647 44
-1.0067 0.499028 -0.251003 4
-1.72561 1.28166 0.487406 41
-2.66182 1.32043 0.785785 74
-1.72916 1.28385 0.334812 42
-2.66037 1.32544 0.570483 79
-1.72793 1.28249 0.185206 42
-2.54781 1.27399 0.345008 32
-1.73193 1.28593 0.0370427 42
-1.41623 0.711762 0.0812516 4
-1.39308 0.700815 -0.0266149 4
-1.73258 1.28828 -0.26043 44
-1.01053 0.50772 -0.252687 4
-1.72164 1.28291 0.486844 42
-2.65302 1.32185 0.783846 59
-1.72318 1.28361 0.334032 42
-2.64707 1.32461 0.5681 53
-1.71771 1.27954 0.184334 42
-2.54581 1.27799 0.345008 32
-1.72167 1.28297 0.0368682 41
-1.41511 0.713986 0.0812516 4
-1.38068 0.697643 -0.0263968 4
-1.7226 1.28506 -0.259213 45
-0.996651 0.50278 -0.249318 4
-1.70128 1.28164 0.482913 42
-2.62903 1.32659 0.778677 33
-1.70461 1.2837 0.331691 42
-2.62281 1.32914 0.564287 33
-1.70127 1.28073 0.183245 42
-2.5258 1.28458 0.343183 32
-1.70318 1.28264 0.0366064 42
-1.41581 0.723645 0.0815132 4
-1.38605 0.709149 -0.0265713 4
-1.70595 1.28658 -0.257692 47
-1.97122 1.00459 -0.345318 12
-0.994005 0.507992 -0.249318 3
-1.69538 1.28137 0.48179 42
-2.60084 1.31812 0.770922 30
-1.69646 1.2822 0.33052 41
-2.59421 1.32041 0.558568 30
-1.69704 1.28219 0.183027 44
-2.52134 1.28786 0.342879 14
-1.69895 1.2841 0.0365628 42
-1.41009 0.723848 0.0812516 4
-1.6907 1.27832 -0.109615 21
-1.38481 0.711567 -0.0265713 4
-1.69777 1.28506 -0.256779 47
-1.97826 1.01251 -0.346884 12
-0.990944 0.508623 -0.248757 3
-1.68262 1.28608 0.480106 42
-2.5767 1.32292 0.765752 30
-1.68384 1.28656 0.329349 41
-2.56543 1.32276 0.553802 29
-1.67646 1.28047 0.181502 44
-2.49471 1.29081 0.340141 15
-1.68228 1.28538 0.0363446 45
-1.40185 0.728931 0.0809899 4
-1.68399 1.28716 -0.109615 26
-1.38328 0.719956 -0.0266149 4
-1.97732 1.02512 -0.347667 14
-0.990434 0.514919 -0.249318 3
-1.66514 1.27686 0.475614 42
-2.55505 1.31749 0.759937 30
-1.66984 1.28047 0.327008 42
-2.54567 1.31824 0.54999 32
-1.66434 1.27581 0.180412 45
-2.48805 1.29289 0.339532 15
-1.6721 1.28223 0.0361701 44
-1.40279 0.732526 0.0811207 4
-1.67184 1.28249 -0.108959 30
-1.37759 0.720067 -0.0265277 4
-1.96895 1.02516 -0.346493 14
-0.993863 0.518883 -0.250441 3
-1.65436 1.28286 0.474491 42
-2.52669 1.31971 0.753475 30
-1.65921 1.28617 0.326227 44
-2.51698 1.32019 0.545224 30
-1.6537 1.28145 0.179977 45
-2.47685 1.30359 0.338924 21
-1.65549 1.2833 0.035952 44
-1.40778 0.744503 0.0816441 4
-1.65524 1.28357 -0.108302 35
-1.38044 0.730758 -0.0266585 4
-1.94607 1.02628 -0.343361 14
-0.988973 0.52295 -0.24988 3
-1.64274 1.27797 0.471683 42
-2.50726 1.31517 0.748305 30
-1.64527 1.27996 0.323886 42
-2.49511 1.31432 0.540934 32
-1.63771 1.27363 0.178451 44
-2.46798 1.30445 0.338011 26
-1.64536 1.28004 0.0357774 45
-1.40206 0.74463 0.0813824 4
-1.64512 1.28032 -0.107777 38
-1.37253 0.729666 -0.0265277 4
-1.9268 1.02047 -0.340228 14
-0.998842 0.530341 -0.252687 4
-1.63006 1.28232 0.469998 44
-2.48113 1.31811 0.742489 32
-1.62885 1.28092 0.321935 44
-2.46869 1.317 0.536645 32
-1.62515 1.27756 0.177798 45
-2.4436 1.30801 0.335577 32
-1.63274 1.284 0.0356465 45
-1.40255 0.754312 0.0816441 4
-1.63447 1.28583 -0.107515 39
-1.36869 0.736843 -0.0265277 4
-1.91271 1.0259 -0.338662 14
-0.998202 0.536708 -0.253249 4
-1.62039 1.27883 0.467752 44
-2.46176 1.31338 0.737319 32
-1.62273 1.2807 0.321155 44
-2.4534 1.31438 0.533785 32
-1.61705 1.27577 0.177144 45
-2.43475 1.30876 0.334664 32
-1.62266 1.28065 0.035472 45
-1.39903 0.75558 0.0815132 4
-1.62439 1.28248 -0.10699 42
-1.3674 0.739231 -0.0265277 4
-1.61741 1.27924 -0.393313 47
-1.89786 1.02224 -0.336313 14
-0.990818 0.535005 -0.251564 4
-1.60203 1.27846 0.464383 44
-2.43358 1.31481 0.730857 32
-1.60636 1.28147 0.319203 42
-2.43137 1.31904 0.530449 32
-1.60257 1.278 0.176272 47
-2.41041 1.31203 0.33223 33
-1.60616 1.28133 0.0352539 45
-1.39286 0.761703 0.0813824 4
-1.6118 1.2863 -0.106596 44
-1.36571 0.747574 -0.0265713 4
-1.61069 1.28769 -0.393313 52
-1.88163 1.02627 -0.334356 14
-0.994431 0.543664 -0.253249 3
-1.59812 1.27945 0.463822 44
-2.41853 1.31217 0.72698 32
-1.59641 1.27809 0.317643 42
-2.40749 1.31158 0.525683 32
-1.59256 1.27456 0.175401 45
-2.39286 1.30793 0.330101 33
-1.59807 1.27944 0.035123 47
-1.39591 0.766523 0.0816441 4
-1.59787 1.27973 -0.105808 45
-1.36221 0.748759 -0.0265277 4
-1.59505 1.27974 -0.38998 52
-1.86899 1.02365 -0.332398 14
-1.59542 1.28185 -0.53864 59
-0.987059 0.541909 -0.251564 3
-1.58171 1.2804 0.461014 45
-2.39468 1.31554 0.721811 32
-1.58395 1.28177 0.316472 42
-2.38768 1.31708 0.522824 33
-1.58393 1.28132 0.175183 47
-2.36642 1.30966 0.327363 33
-1.58164 1.27992 0.0349048 45
-1.38751 0.771408 0.0813824 4
-1.58727 1.28494 -0.105546 44
-1.36702 0.760716 -0.0267022 4
-1.5788 1.28034 -0.387599 53
-1.84847 1.02508 -0.329657 14
-1.57745 1.28105 -0.53476 58
-0.982073 0.545896 -0.251003 3
-1.57025 1.2752 0.458206 44
-2.37545 1.31042 0.716641 33
-1.57404 1.2783 0.314911 44
-2.36819 1.31176 0.519011 33
-1.56816 1.27308 0.173658 45
-2.34894 1.30538 0.325233 33
-1.57747 1.2811 0.0348612 45
-1.38834 0.775039 0.0815132 4
-1.57728 1.28141 -0.105021 45
-1.35476 0.757038 -0.026484 4
-1.56895 1.27689 -0.385694 52
-1.83156 1.01993 -0.326917 14
-1.56585 1.27616 -0.531527 59
-0.981119 0.547609 -0.251003 3
-1.5558 1.27749 0.45596 44
-2.35378 1.31462 0.712117 33
-1.5597 1.28025 0.31335 44
-2.34415 1.31457 0.515198 35
-1.5557 1.27653 0.173004 45
-2.32475 1.30796 0.322799 35
-1.56108 1.28141 0.034643 45
-1.56454 1.28516 -0.104627 47
-1.35078 0.764121 -0.026484 4
-1.55277 1.27729 -0.383314 52
-1.81327 1.02226 -0.324568 14
-1.55356 1.27973 -0.529587 59
-0.978238 0.552738 -0.251003 3
-1.54793 1.27555 0.454276 44
-2.33461 1.3093 0.706948 33
-1.54984 1.27669 0.311789 44
-2.32664 1.31066 0.511862 36
-1.54963 1.27608 0.172568 47
-2.30949 1.30472 0.320973 35
