# .PCD v0.7 - Point Cloud Data file format
VERSION 0.7
FIELDS x y z intensity
SIZE 4 4 4 4
TYPE F F F F
COUNT 1 1 1 1
WIDTH 1540
HEIGHT 1
VIEWPOINT 0 0 0 1 0 0 0
POINTS 1540
DATA ascii
-6.94483 -0.812188 1.35114 1
-7.27118 0.44461 0.634276 30
-7.26908 -0.841371 0.892945 33
-3.05317 -0.348448 0.159232 11
-0.652935 0.0390046 -0.0325564 90
-0.78539 0.0474678 -0.0921848 85
-0.668346 -0.0722724 -0.0556684 50
-0.801647 0.048754 -0.14904 58
-0.80021 -0.0880183 -0.122153 50
-0.803787 0.0495737 -0.206274 52
-0.801979 -0.0890316 -0.178004 52
-7.14219 0.477979 1.64191 33
-7.19018 -0.815565 1.92698 32
-7.25402 0.484226 1.14336 38
-6.94655 -0.77554 1.35067 1
-7.27364 0.484276 0.634712 32
-7.27106 -0.801755 0.892641 33
-3.05004 -0.331377 0.15897 11
-0.652721 0.0424228 -0.0325564 90
-0.790073 0.0520514 -0.0927933 88
-0.666239 -0.0684995 -0.0554509 52
-0.803821 0.0532571 -0.149516 58
-0.798206 -0.0835554 -0.121762 52
-0.79388 0.0531196 -0.203687 53
-0.802449 -0.0846912 -0.178004 50
-7.14387 0.489365 1.64247 33
-7.18919 -0.802745 1.92634 32
-7.25326 0.49562 1.14336 38
-6.95277 -0.763954 1.35162 1
-7.25539 0.495778 0.633186 35
-7.27231 -0.790333 0.892641 33
-3.04808 -0.326315 0.15884 11
-0.652646 0.043562 -0.0325564 95
-0.789991 0.0532924 -0.0927933 88
-0.663882 -0.0670685 -0.0552335 50
-0.79883 0.0543184 -0.148564 58
-0.790987 -0.0813596 -0.120587 52
-0.798604 0.0548445 -0.20498 53
-0.800159 -0.0831641 -0.177443 50
-7.13878 0.526583 1.64191 33
-7.18596 -0.765574 1.9244 32
-7.2481 0.533409 1.14297 38
-6.94679 -0.727724 1.34971 1
-7.25279 0.532495 0.633186 35
-7.27635 -0.752245 0.892641 33
-3.04975 -0.310351 0.15884 11
-0.657389 0.0473478 -0.0328189 98
-0.787226 0.0572437 -0.092489 88
-0.664224 -0.0635915 -0.0552335 50
-0.803439 0.0587273 -0.149516 58
-0.793858 -0.0774716 -0.120979 50
-0.798316 0.0588859 -0.20498 53
-0.800584 -0.0789734 -0.177443 50
-7.13785 0.539042 1.64191 33
-7.18248 -0.752525 1.92311 32
-7.24469 0.545873 1.14258 38
-6.94329 -0.71388 1.34876 1
-7.24936 0.544965 0.632969 33
-7.27025 -0.738786 0.891728 33
-3.04283 -0.304271 0.158447 11
-0.652326 0.0481172 -0.0325564 100
-0.787125 0.0586176 -0.092489 88
-0.664334 -0.0624321 -0.0552335 50
-0.803336 0.0601294 -0.149516 58
-0.793992 -0.0760859 -0.120979 52
-0.798201 0.0604184 -0.20498 53
-0.795874 -0.0770768 -0.17632 49
-7.12997 0.577259 1.64078 33
-7.18405 -0.713413 1.92246 30
-7.24656 0.585461 1.14336 38
-6.94938 -0.677756 1.34924 1
-7.24382 0.583979 0.632751 33
-7.27661 -0.699679 0.892032 33
-3.05686 -0.288998 0.159101 11
-0.657042 0.051936 -0.0328189 104
-0.786796 0.0628755 -0.092489 88
-0.662172 -0.058715 -0.055016 50
-0.798106 0.0640737 -0.148564 59
-0.794379 -0.0719275 -0.120979 52
-0.795467 0.0643978 -0.204334 52
-0.796279 -0.0727696 -0.17632 52
-6.8717 0.567165 1.58126 1
-7.18047 -0.700401 1.92117 30
-7.24809 0.597046 1.14375 38
-6.94566 -0.665154 1.34828 1
-7.24528 0.596826 0.632969 33
-7.27523 -0.688013 0.891728 33
-3.05234 -0.283726 0.15884 11
-0.656951 0.0530827 -0.0328189 108
-0.791642 0.0645231 -0.0930975 89
-0.657315 -0.0570922 -0.0545811 50
-0.800439 0.0656715 -0.14904 58
-0.79942 -0.0710074 -0.121762 50
-0.79776 0.0659894 -0.20498 53
-0.798817 -0.0717514 -0.176881 50
-7.14286 0.627273 1.64471 36
-7.18152 -0.663825 1.92052 30
-7.24732 0.635205 1.14414 38
-6.9465 -0.629767 1.34781 1
-7.24713 0.633925 0.633404 35
-7.27132 -0.649244 0.890815 33
-3.05875 -0.268184 0.159101 12
-0.6517 0.0559693 -0.0325564 111
-0.796237 0.069105 -0.093706 90
-0.662557 -0.0542064 -0.055016 52
-0.802541 0.0699393 -0.149516 58
-0.792403 -0.0661597 -0.120587 52
-0.802226 0.0704574 -0.206274 52
-0.79433 -0.0671279 -0.175758 50
-7.12973 0.637405 1.64191 27
-7.17786 -0.65085 1.91923 30
-7.24374 0.647632 1.14375 38
-6.94758 -0.617643 1.34781 1
-7.25345 0.647238 0.634058 33
-7.27491 -0.63677 0.89112 33
-3.05424 -0.26241 0.15884 12
-0.659061 0.0577764 -0.0329502 115
-0.793644 0.0702714 -0.0934018 90
-0.66265 -0.05305 -0.055016 52
-0.804862 0.0715615 -0.149992 58
-0.797436 -0.0652087 -0.12137 50
-0.802102 0.0718574 -0.206274 53
-0.796872 -0.0659572 -0.17632 52
-7.17155 -0.612429 1.91664 30
-6.94339 -0.580638 1.34638 1
-7.27567 -0.598465 0.890815 33
-3.04811 -0.245801 0.158447 12
-0.653768 0.060868 -0.0326876 120
-0.793265 0.0744259 -0.0934018 90
-0.66541 -0.0496671 -0.0552335 53
-0.79959 0.075306 -0.14904 58
-0.800228 -0.0612356 -0.121762 50
-0.794504 0.0753593 -0.204334 53
-0.802062 -0.0621899 -0.177443 50
-7.17742 -0.600318 1.91794 30
-6.93715 -0.566702 1.34495 1
-7.2767 -0.585766 0.890815 33
-3.05102 -0.24068 0.158578 12
-0.65863 0.062491 -0.0329502 126
-0.790664 0.0755699 -0.0930975 90
-0.663013 -0.0483068 -0.055016 53
-0.8019 0.07694 -0.149516 58
-0.795411 -0.0594411 -0.120979 52
-0.791954 0.0766476 -0.203687 53
-0.797313 -0.0603924 -0.17632 50
-2.86311 0.291427 0.655302 58
-7.17334 -0.560906 1.916 30
-6.93513 -0.529994 1.344 1
-7.27235 -0.545824 0.889903 33
-3.05228 -0.224169 0.158578 12
-0.658294 0.0659387 -0.0329502 130
-0.792712 0.0801004 -0.0934018 90
-0.660773 -0.0446488 -0.0547986 55
-0.79659 0.0807739 -0.148564 59
-0.793249 -0.0550895 -0.120587 52
-0.80115 0.0817912 -0.206274 52
-0.79277 -0.0557064 -0.175197 50
-2.86265 0.295924 0.655302 49
-7.16467 -0.547642 1.91341 27
-6.9336 -0.517705 1.34352 1
-7.27567 -0.534584 0.890207 33
-3.04267 -0.218643 0.158055 12
-0.655695 0.0668292 -0.0328189 134
-0.790118 0.0810879 -0.0930975 90
-0.66085 -0.0434954 -0.0547986 55
-0.798888 0.0824202 -0.14904 58
-0.785957 -0.0531599 -0.119413 52
-0.796203 0.0826819 -0.20498 52
-0.795286 -0.0546429 -0.175758 50
-2.85864 0.310644 0.654741 49
-7.16254 -0.511025 1.91212 29
-6.93858 -0.482777 1.344 1
-7.26599 -0.495629 0.888686 33
-3.05374 -0.203388 0.158578 12
-0.657818 0.0705328 -0.0329502 135
-0.794615 0.0857649 -0.093706 90
-0.661069 -0.0400347 -0.0547986 55
-0.80334 0.0869996 -0.149992 58
-0.791151 -0.0493815 -0.120196 52
-0.793374 0.086445 -0.204334 53
-0.793131 -0.0503089 -0.175197 50
-2.85567 0.315364 0.654179 47
-7.16101 -0.498354 1.91147 29
-6.93949 -0.469454 1.344 1
-7.26932 -0.483113 0.88899 33
-3.05409 -0.198058 0.158578 12
-0.655212 0.0714051 -0.0328189 140
-0.789532 0.0866019 -0.0930975 90
-0.661138 -0.0388808 -0.0547986 55
-0.793431 0.0873107 -0.148088 58
-0.796163 -0.0483296 -0.120979 52
-0.795606 0.0882384 -0.20498 53
-0.793218 -0.0489246 -0.175197 52
-2.8515 0.330528 0.653618 49
-7.15637 -0.459133 1.90953 27
-2.86546 0.331659 0.450319 49
-6.9394 -0.432959 1.34352 1
-2.88232 0.33312 0.250791 52
-7.26687 -0.443469 0.888382 33
-3.05511 -0.181531 0.158578 14
-0.659789 0.0754122 -0.0330815 146
-0.740973 -0.0401441 -0.0123476 8
-0.793981 0.0914488 -0.093706 90
-0.661332 -0.0354186 -0.0547986 55
-0.797822 0.0921741 -0.14904 58
-0.793949 -0.0438701 -0.120587 52
-0.787939 0.091554 -0.203041 53
-0.795902 -0.0447839 -0.175758 50
-2.85098 0.335007 0.653618 50
-7.15475 -0.44649 1.90889 24
-2.86488 0.336659 0.450319 52
-6.93035 -0.420245 1.34161 1
-2.87926 0.337859 0.250573 52
-7.27507 -0.431231 0.889294 32
-3.05293 -0.176051 0.158447 14
-0.659657 0.0765636 -0.0330815 148
-0.741042 -0.0388508 -0.0123476 8
-0.788892 0.0922494 -0.0930975 90
-0.658907 -0.0341175 -0.0545811 55
-0.791559 -0.0423375 -0.120196 52
-0.787778 0.092929 -0.203041 52
-0.793548 -0.0432472 -0.175197 50
-2.84435 0.349334 0.652495 49
-7.15451 -0.410131 1.90824 26
-2.86069 0.350854 0.449929 52
-6.93239 -0.385163 1.34161 1
-2.87504 0.352124 0.250355 53
-7.26972 -0.393995 0.888382 33
-3.05628 -0.160732 0.158578 14
-0.661738 0.080207 -0.0332127 147
-0.738733 -0.0349653 -0.0123039 8
-0.793341 0.0968511 -0.093706 90
-0.654097 -0.0305135 -0.0541462 55
-0.791764 -0.0383305 -0.120196 50
-0.787297 0.0969151 -0.203041 53
-0.796189 -0.0393653 -0.175758 50
-2.84622 0.354103 0.653056 50
-6.9816 -0.387877 1.86172 1
-2.86252 0.356152 0.450319 52
-6.9306 -0.372929 1.34114 1
-2.87442 0.357141 0.250355 52
-7.26544 -0.381044 0.887773 33
-3.05655 -0.155397 0.158578 14
-0.651688 0.0801223 -0.0326876 141
-0.733801 -0.033416 -0.0122167 9
-0.788246 0.0976171 -0.0930975 90
-0.659124 -0.0296317 -0.0545811 55
-0.801874 0.0996072 -0.149992 58
-0.789363 -0.0368185 -0.119804 52
-0.79671 0.0995031 -0.205627 53
-0.796256 -0.0379757 -0.175758 50
-2.84185 0.369183 0.652495 50
-6.97389 -0.350824 1.85913 1
-2.85817 0.370816 0.449929 53
-6.93491 -0.336756 1.34161 1
-2.87251 0.372187 0.250355 52
-7.26982 -0.343115 0.888077 33
-3.05733 -0.139391 0.158578 14
-0.653721 0.0839704 -0.0328189 134
-0.738959 -0.0298071 -0.0123039 11
-0.785264 0.101421 -0.0927933 88
-0.659275 -0.026065 -0.0545811 55
-0.798908 0.103485 -0.149516 56
-0.796945 -0.0330364 -0.120979 50
-0.793784 0.103357 -0.20498 53
-0.789144 -0.0334515 -0.174073 49
-2.83637 0.373503 0.651372 50
-6.97932 -0.338889 1.86042 1
-2.85752 0.375804 0.449929 52
-6.92329 -0.322861 1.33923 1
-2.86445 0.376223 0.249701 50
-7.27041 -0.330427 0.888077 33
-3.05507 -0.133941 0.158447 14
-0.651098 0.0847836 -0.0326876 124
-0.731519 -0.0281798 -0.0121731 11
-0.787545 0.103118 -0.0930975 89
-0.661807 -0.0250265 -0.0547986 56
-0.793861 0.104232 -0.148564 58
-0.792068 -0.0314197 -0.120196 50
-0.795977 0.105202 -0.205627 52
-0.791635 -0.0321881 -0.174635 49
-2.83913 0.389509 0.652495 50
-6.98346 -0.301228 1.86107 1
-2.8481 0.39025 0.448758 49
-6.92733 -0.28671 1.33971 1
-2.86484 0.392054 0.249919 49
-7.27209 -0.291085 0.888077 32
-3.05326 -0.11731 0.158316 15
-0.653119 0.0885321 -0.0328189 115
-0.729163 -0.0241225 -0.0121294 11
-0.78206 0.106698 -0.092489 88
-0.661929 -0.0215609 -0.0547986 56
-0.790854 0.108188 -0.148088 55
-0.792222 -0.027272 -0.120196 50
-0.78824 0.108368 -0.203687 53
-0.786929 -0.027703 -0.173512 49
-2.84093 0.394304 0.653056 49
-6.97674 -0.288735 1.85913 1
-2.85482 0.395744 0.449929 49
-7.17549 -0.28461 1.38784 36
-2.85922 0.396368 0.249483 49
-7.26758 -0.279468 0.887469 33
-3.04845 -0.112322 0.158055 15
-0.652963 0.0896719 -0.0328189 111
-0.784349 0.10827 -0.0927933 86
-0.656988 -0.0202161 -0.0543637 56
-0.800386 0.110933 -0.149992 58
-0.789801 -0.0257937 -0.119804 50
-0.790441 0.110081 -0.204334 52
-0.79184 -0.0266607 -0.174635 49
-2.83159 0.408127 0.651372 47
-6.9757 -0.25333 1.85848 1
-2.84538 0.409627 0.448758 47
-7.17439 -0.248201 1.38737 35
-2.84978 0.409767 0.24883 49
-7.2739 -0.241579 0.888077 35
-3.05398 -0.0965248 0.158316 15
-0.65003 0.0926183 -0.0326876 107
-0.786227 0.112731 -0.0930975 82
-0.654593 -0.0168084 -0.0541462 56
-0.794957 0.114276 -0.14904 55
-0.789925 -0.0216579 -0.119804 50
-0.792263 0.11443 -0.20498 52
-0.789534 -0.0224301 -0.174073 49
-2.82613 0.41187 0.650249 47
-6.97854 -0.241239 1.85913 1
-2.84222 0.414235 0.448368 47
-6.92953 -0.227457 1.33971 1
-2.84906 0.414741 0.24883 47
-7.26687 -0.228645 0.887165 33
-3.04916 -0.0910376 0.158055 15
-0.647397 0.093391 -0.0325564 103
-0.781119 0.113382 -0.092489 82
-0.654621 -0.0156659 -0.0541462 58
-0.794756 0.115663 -0.14904 55
-0.785026 -0.0201224 -0.119021 50
-0.789674 0.115459 -0.204334 52
-0.787138 -0.0209721 -0.173512 49
-2.82386 0.427155 0.650249 47
-6.97488 -0.204552 1.85784 1
-2.83513 0.428371 0.447587 49
-7.17349 -0.19804 1.38689 35
-2.84192 0.428907 0.248394 49
-7.27045 -0.190659 0.887469 33
-3.05209 -0.0751365 0.158185 17
-0.654287 0.0980175 -0.0329502 101
-0.782968 0.117844 -0.0927933 79
-0.659676 -0.0122525 -0.0545811 56
-0.798992 0.120564 -0.149992 58
-0.78512 -0.0160117 -0.119021 50
-0.789058 0.119592 -0.204334 53
-0.792107 -0.0169848 -0.174635 50
-2.81829 0.431343 0.649126 49
-6.97764 -0.192446 1.85848 1
-2.83193 0.432944 0.447197 47
-7.17386 -0.184267 1.38689 35
-2.84363 0.434243 0.248612 49
-7.27077 -0.17797 0.887469 32
-0.6796 0.102956 0.0113877 4
-3.04473 -0.0696265 0.157793 15
-0.64918 0.0984006 -0.0326876 98
-0.780308 0.118832 -0.092489 77
-0.659696 -0.0111012 -0.0545811 58
-0.796355 0.121583 -0.149516 56
-0.787615 -0.0147026 -0.119413 50
-0.791213 0.121478 -0.20498 52
-0.7897 -0.0155393 -0.174073 50
-2.81832 0.446968 0.649687 49
-6.96651 -0.154415 1.85525 1
-2.82467 0.447485 0.446416 49
-7.16982 -0.146599 1.38594 33
-2.83386 0.448451 0.247958 49
-7.27163 -0.138629 0.887469 32
-0.676583 0.106121 0.0113441 8
-3.05255 -0.0532945 0.158185 17
-0.648656 0.101798 -0.0326876 97
-0.779654 0.123052 -0.092489 76
-0.654765 -0.00755298 -0.0541462 58
-0.793262 0.125503 -0.14904 56
-0.787682 -0.0105785 -0.119413 52
-0.79772 0.126768 -0.20692 52
-0.782466 -0.0111172 -0.172389 50
-2.81281 0.450621 0.648564 49
-6.96918 -0.142307 1.8559 1
-2.8264 0.452313 0.446807 49
-7.17252 -0.134133 1.38641 33
-2.82816 0.452607 0.247522 50
-7.25447 -0.126891 0.885339 29
-0.681333 0.108094 0.0114313 8
-3.05013 -0.0484559 0.158055 20
-0.643547 0.102137 -0.0324251 95
-0.77946 0.124277 -0.092489 76
-0.659758 -0.00649538 -0.0545811 56
-0.790619 0.126495 -0.148564 58
-0.790168 -0.00924766 -0.119804 52
-0.795113 0.127773 -0.206274 52
-0.784918 -0.00993401 -0.17295 50
-2.808 0.464943 0.648003 49
-7.00603 -0.107613 1.86559 1
-2.81912 0.466297 0.446026 50
-2.82829 0.467323 0.24774 52
-0.678311 0.111132 0.0113877 4
-3.04535 -0.0324239 0.157793 21
-0.650392 0.106734 -0.0328189 91
-0.783694 0.129172 -0.0930975 76
-0.657292 -0.00301126 -0.0543637 58
-0.79481 0.131303 -0.149516 55
-0.790205 -0.00511025 -0.119804 52
-0.794457 0.131796 -0.206274 50
-0.782523 -0.00579091 -0.172389 52
-2.80479 0.46944 0.647441 49
-2.81831 0.471217 0.446026 50
-2.8201 0.471024 0.247087 53
-0.685492 0.113676 0.0115186 4
-3.0504 -0.027161 0.158055 23
-0.647743 0.107455 -0.0326876 90
-0.783467 0.13054 -0.0930975 73
-0.657297 -0.00186407 -0.0543637 58
-0.79216 0.132282 -0.14904 55
-0.790213 -0.00373107 -0.119804 52
-0.78944 0.132513 -0.20498 52
-0.787404 -0.00448297 -0.173512 50
-2.7998 0.484192 0.646879 49
-2.81572 0.486458 0.446026 50
-3.10965 -0.0174144 0.597172 9
-2.82242 0.487125 0.247522 55
-3.08429 -0.0129626 0.373911 8
-0.682424 0.116837 0.011475 4
-3.048 -0.0106438 0.157924 23
-0.647171 0.110845 -0.0326876 90
-0.77786 0.133926 -0.092489 73
-0.657297 0.00157754 -0.0543637 58
-0.79385 0.136987 -0.149516 55
-0.790222 0.000406503 -0.119804 53
-0.791114 0.137061 -0.205627 52
-0.784981 -0.000206925 -0.17295 52
-2.80144 0.48901 0.647441 50
-2.81252 0.490455 0.445636 50
-3.09495 -0.0119073 0.594313 2
-2.81911 0.491621 0.247304 56
-3.05205 -0.00798265 0.369956 3
-0.687144 0.11889 0.0115622 4
-3.04552 -0.00584726 0.157793 17
-0.644518 0.111543 -0.0325564 90
-0.78498 0.136435 -0.0934018 70
-0.652313 0.00274038 -0.0539288 58
-0.79361 0.138373 -0.149516 55
-0.787751 0.00179518 -0.119413 53
-0.788496 0.138021 -0.20498 52
-0.787416 0.00101422 -0.173512 50
-2.79884 0.503671 0.647441 50
-2.80748 0.504737 0.445246 53
-3.06061 0.00376969 0.587641 8
-2.81659 0.505883 0.247304 56
-3.04708 0.00799267 0.369348 11
-0.688993 0.12281 0.0116058 4
-3.0505 0.0101078 0.158055 18
-0.641468 0.114473 -0.0324251 90
-0.779372 0.13966 -0.0927933 70
-0.65478 0.00616105 -0.0541462 56
-0.790485 0.14195 -0.14904 55
-0.7902 0.00592324 -0.119804 53
-0.790163 0.142443 -0.205627 52
-0.782528 0.00513538 -0.172389 52
-2.79556 0.508119 0.646879 50
-2.80173 0.508751 0.444465 53
-3.05815 0.00964178 0.587164 4
-2.81325 0.510353 0.247087 56
-3.04458 0.0133039 0.369043 11
-0.693674 0.125029 0.0116931 8
-3.04798 0.0154232 0.157924 24
-0.643723 0.11604 -0.0325564 90
-0.784009 0.141912 -0.0934018 68
-0.657259 0.00731341 -0.0543637 58
-0.79265 0.143771 -0.149516 55
-0.787719 0.00729463 -0.119413 52
-0.785138 0.143085 -0.204334 52
-0.782518 0.00650114 -0.172389 52
-2.79038 0.522787 0.646318 52
-2.80137 0.524358 0.444856 47
-3.05805 0.025654 0.587164 4
-2.80555 0.524648 0.246651 56
-3.03951 0.0297357 0.368435 11
-0.695467 0.12912 0.0117367 9
-3.05035 0.0319362 0.158055 26
-0.645561 0.11987 -0.0326876 90
-0.644488 0.0107396 -0.010646 4
-0.78323 0.146152 -0.0934018 61
-0.65223 0.0107095 -0.0539288 58
-0.79186 0.148058 -0.149516 55
-0.790139 0.0114397 -0.119804 53
-0.784378 0.147194 -0.204334 52
-0.782471 0.0107349 -0.172389 52
-2.78716 0.526716 0.645756 50
-2.80054 0.528758 0.444856 42
-3.04819 0.0309073 0.585258 3
-2.80708 0.530007 0.246869 56
-3.05186 0.0346314 0.369956 11
-0.69524 0.130334 0.0117367 12
-3.05029 0.0367277 0.158055 23
-0.640445 0.120066 -0.0324251 90
-0.646967 0.0118919 -0.0106896 3
-0.780561 0.146919 -0.0930975 61
-0.657191 0.0119017 -0.0543637 58
-0.78919 0.14898 -0.14904 55
-0.790118 0.0128187 -0.119804 53
-0.791236 0.149924 -0.206274 52
-0.777581 0.0119197 -0.171266 52
-2.78675 0.541768 0.646318 50
-2.79046 0.541998 0.443685 38
-3.07989 0.0467694 0.591453 2
-2.79947 0.543257 0.246433 55
-3.07645 0.0509828 0.372999 2
-0.689665 0.132896 0.0116495 12
-3.04257 0.0525808 0.157662 21
-0.644708 0.124374 -0.0326876 90
-0.646899 0.0151664 -0.0106896 4
-0.779781 0.151004 -0.0930975 61
-0.65214 0.0152626 -0.0539288 58
-0.786017 0.152501 -0.148564 55
-0.785102 0.0168797 -0.119021 55
-0.785728 0.152995 -0.20498 52
-0.78238 0.0160607 -0.172389 52
-2.78102 0.54569 0.645195 50
-2.79678 0.548296 0.444856 49
-2.80585 0.549582 0.247087 58
-0.696766 0.135667 0.0117804 12
-3.04747 0.0579781 0.157924 23
-0.64449 0.125499 -0.0326876 90
-0.641873 0.0162064 -0.0106023 4
-0.781951 0.152845 -0.0934018 61
-0.652112 0.0164008 -0.0539288 58
-0.788157 0.154349 -0.14904 53
-0.790009 0.0183344 -0.119804 55
-0.787801 0.154974 -0.205627 52
-0.779915 0.017387 -0.171827 52
-2.77564 0.560246 0.644633 49
-2.78893 0.562441 0.444075 52
-2.80527 0.565248 0.247304 61
-0.698496 0.139809 0.011824 12
-3.04461 0.0744085 0.157793 23
-0.641377 0.128377 -0.0325564 85
-0.641776 0.019679 -0.0106023 4
-0.781113 0.157073 -0.0934018 61
-0.654507 0.0198724 -0.0541462 58
-0.789716 0.1591 -0.149516 53
-0.792367 0.0226641 -0.120196 55
-0.789345 0.159579 -0.206274 52
-0.777374 0.0215542 -0.171266 52
-2.77953 0.565579 0.645756 52
-2.79037 0.567802 0.444465 50
-7.16203 0.166118 1.38451 33
-2.80916 0.571138 0.24774 90
-7.25339 0.178272 0.885339 29
-0.695802 0.140528 0.0117804 9
-3.04198 0.0796608 0.157662 23
-0.646044 0.130495 -0.0328189 83
-0.634244 0.0206119 -0.0104714 8
-0.780837 0.158436 -0.0934018 61
-0.651982 0.0209529 -0.0539288 59
-0.789437 0.160478 -0.149516 53
-0.789858 0.0239871 -0.119804 55
-0.789065 0.160957 -0.206274 52
-0.779771 0.0229675 -0.171827 52
-2.77415 0.579625 0.645195 50
-6.89334 0.182995 1.83587 1
-2.78504 0.581412 0.444075 53
-7.15374 0.202163 1.38308 30
-2.80624 0.585349 0.24774 105
-7.25239 0.214982 0.885339 30
-0.692635 0.143536 0.0117367 8
-3.04653 0.0952047 0.157924 23
-0.645375 0.133763 -0.0328189 82
-0.63663 0.0238969 -0.0105151 4
-0.780025 0.162386 -0.0934018 59
-0.654357 0.024327 -0.0541462 61
-0.788615 0.164471 -0.149516 53
-0.79713 0.0282018 -0.120979 56
-0.785878 0.16445 -0.205627 52
-0.779644 0.026914 -0.171827 53
-2.77324 0.583982 0.645195 52
-6.92681 0.195958 1.84491 1
-2.7816 0.585762 0.443685 55
-7.16073 0.214864 1.38451 30
-2.80034 0.589218 0.247304 151
-7.26193 0.227945 0.886556 30
-0.692384 0.144745 0.0117367 4
-3.04636 0.100522 0.157924 23
-0.640256 0.133857 -0.0325564 74
-0.634089 0.0249286 -0.0104714 4
-0.779741 0.163748 -0.0934018 61
-0.651824 0.0253903 -0.0539288 64
-0.790727 0.166357 -0.149992 55
-0.79708 0.029593 -0.120979 56
-0.790313 0.166827 -0.20692 52
-0.779596 0.0282747 -0.171827 52
-2.77003 0.598978 0.645195 52
-6.92327 0.232144 1.84427 1
-2.78091 0.600841 0.444075 55
-7.16441 0.252524 1.38546 33
-2.79965 0.604399 0.247522 158
-7.26559 0.266143 0.887165 33
-0.689173 0.147839 0.0116931 4
-3.04829 0.116563 0.158055 24
-0.632203 0.135731 -0.0321625 65
-0.631452 0.0281558 -0.0104278 8
-0.783722 0.168882 -0.0940102 61
-0.651677 0.0289166 -0.0539288 64
-0.789845 0.170495 -0.149992 56
-0.799381 0.0338557 -0.12137 56
-0.791789 0.171478 -0.207567 52
-0.774568 0.0321845 -0.170704 52
-2.76661 0.603292 0.644633 52
-6.92044 0.244144 1.84362 1
-2.77986 0.605693 0.444075 41
-7.15656 0.26601 1.38403 32
-2.79616 0.608754 0.247304 152
-7.25768 0.278543 0.886252 33
-0.684004 0.148094 0.0116058 4
-3.04309 0.121691 0.157793 23
-0.631965 0.136835 -0.0321625 64
-0.633899 0.0293547 -0.0104714 8
-0.781003 0.169718 -0.093706 59
-0.651626 0.030054 -0.0539288 67
-0.784752 0.170821 -0.14904 55
-0.794386 0.0350629 -0.120587 58
-0.789099 0.172478 -0.20692 52
-0.774511 0.0335363 -0.170704 52
-2.7633 0.618252 0.644633 50
-6.92867 0.281969 1.84621 1
-2.77413 0.620185 0.443685 55
-7.15507 0.303477 1.38403 32
-2.80011 0.625506 0.247958 95
-7.25855 0.317913 0.886556 33
-0.675902 0.150034 0.011475 3
-3.04239 0.138154 0.157793 23
-0.628804 0.139595 -0.0320313 61
-0.631234 0.0326737 -0.0104278 8
-0.784915 0.17503 -0.0943145 59
-0.646483 0.0332465 -0.0534938 67
-0.786211 0.175603 -0.149516 53
-0.794192 0.0392218 -0.120587 58
-0.788186 0.176607 -0.20692 52
-0.78162 0.0380362 -0.172389 53
-2.75995 0.622055 0.644072 50
-6.92576 0.293961 1.84556 1
-2.77075 0.623998 0.443295 52
-7.16188 0.316285 1.38546 30
-2.7893 0.628199 0.247087 62
-7.25308 0.329093 0.885948 33
-0.675639 0.151213 0.011475 3
-3.04217 0.142933 0.157793 24
-0.630994 0.141243 -0.0321625 61
-0.628679 0.0336606 -0.0103842 8
-0.784639 0.176263 -0.0943145 59
-0.648912 0.0344886 -0.0537113 71
-0.788296 0.177519 -0.149992 53
-0.794122 0.0406079 -0.120587 58
-0.787876 0.177983 -0.20692 50
-0.776692 0.0390497 -0.171266 52
-2.75903 0.637047 0.644633 50
-6.91936 0.328786 1.84427 1
-2.76985 0.639053 0.443685 53
-7.15284 0.352173 1.38403 33
-2.78851 0.642869 0.247304 65
-7.24878 0.366942 0.885643 33
-0.677301 0.155194 0.0115186 3
-0.630246 0.144545 -0.0321625 61
-0.628501 0.0368422 -0.0103842 8
-0.786122 0.180929 -0.0946187 58
-0.65121 0.0380127 -0.0539288 73
-0.784997 0.180951 -0.149516 53
-0.793899 0.0447653 -0.120587 58
-0.782261 0.180872 -0.205627 52
-0.774043 0.042996 -0.170704 53
-2.75317 0.640754 0.64351 52
-6.92118 0.340979 1.84491 1
-2.76632 0.643326 0.443295 55
-7.1546 0.366029 1.38451 33
-2.78981 0.6483 0.247522 90
-7.25308 0.379849 0.886252 33
-0.629993 0.145645 -0.0321625 59
-0.633428 0.0382025 -0.0104714 8
-0.783389 0.181736 -0.0943145 58
-0.651142 0.0391492 -0.0539288 77
-0.789459 0.18344 -0.150468 53
-0.798751 0.0464076 -0.12137 58
-0.791316 0.184584 -0.208214 52
-0.7764 0.044471 -0.171266 53
-2.74966 0.655641 0.64351 52
-6.92165 0.378551 1.84556 1
-2.7628 0.658284 0.443295 47
-7.15013 0.403348 1.38403 35
-2.78626 0.663384 0.247522 106
-7.24844 0.418944 0.885948 33
-0.626793 0.148361 -0.0320313 59
-0.62323 0.0410483 -0.0102969 8
-0.787221 0.187128 -0.094923 58
-0.645956 0.0422695 -0.0534938 79
-0.783682 0.186563 -0.149516 53
-0.793567 0.0503067 -0.120587 58
-0.790339 0.188725 -0.208214 52
-0.776148 0.048671 -0.171266 52
-2.751 0.660529 0.644072 52
-6.92098 0.390631 1.84556 1
-2.75936 0.662046 0.442904 44
-7.15187 0.415968 1.38451 35
-2.77541 0.665918 0.246651 177
-7.24778 0.43033 0.885948 33
-0.626533 0.149455 -0.0320313 61
-0.623158 0.042136 -0.0102969 8
-0.786926 0.188364 -0.094923 56
-0.650853 0.043694 -0.0539288 85
-0.788126 0.189084 -0.150468 53
-0.793478 0.0516916 -0.120587 58
-0.787661 0.189535 -0.207567 52
-0.776071 0.0498902 -0.171266 52
-2.7475 0.674924 0.644072 44
-6.9165 0.42551 1.84491 1
-2.75826 0.677074 0.443295 56
-7.15457 0.452468 1.38546 35
-2.77684 0.681146 0.247087 181
-7.24542 0.468273 0.885948 33
-0.633041 0.154415 -0.0324251 61
-0.630419 0.045776 -0.0104278 8
-0.788338 0.193077 -0.0952272 56
-0.648139 0.0468266 -0.0537113 86
-0.784777 0.192482 -0.149992 55
-0.793196 0.0558455 -0.120587 58
-0.786692 0.193519 -0.207567 50
-0.770936 0.0536453 -0.170143 52
-2.74171 0.678067 0.642949 44
-6.91575 0.43758 1.84491 1
-2.75947 0.682481 0.443685 56
-7.14887 0.464639 1.38451 35
-2.77323 0.685392 0.246869 189
-7.24955 0.481243 0.886556 33
-3.03851 0.206612 0.157793 18
-0.627925 0.154317 -0.0321625 59
-0.627845 0.0467097 -0.0103842 8
-0.780775 0.192656 -0.0943145 58
-0.640601 0.0474612 -0.0530589 89
-0.782058 0.193259 -0.149516 53
-0.795562 0.0573926 -0.120979 58
-0.781667 0.193722 -0.206274 50
-0.773272 0.0551488 -0.170704 53
-2.74036 0.69349 0.64351 38
-6.91336 0.473785 1.84491 1
-2.75586 0.696921 0.443685 56
-7.15368 0.502575 1.38594 35
-2.76961 0.699903 0.246869 161
-7.24198 0.518844 0.885948 33
-3.03489 0.22234 0.157662 20
-0.624688 0.156989 -0.0320313 59
-0.622605 0.0496373 -0.0102969 8
-0.782161 0.197353 -0.0946187 56
-0.645312 0.0511717 -0.0534938 90
-0.785792 0.198562 -0.150468 52
-0.792787 0.0613817 -0.120587 58
-0.782982 0.198409 -0.20692 50
-0.777833 0.0595385 -0.171827 52
-2.73927 0.697794 0.64351 52
-6.91252 0.48585 1.84491 1
-2.75464 0.701729 0.443685 56
-7.15035 0.514885 1.38546 35
-2.77803 0.707199 0.24774 104
-7.24354 0.531663 0.886252 33
-3.0345 0.227636 0.157662 18
-0.629251 0.159315 -0.0322938 59
-0.620025 0.0505399 -0.0102533 4
-0.786623 0.199949 -0.0952272 55
-0.647705 0.0524808 -0.0537113 90
-0.783067 0.199323 -0.149992 53
-0.792679 0.0627653 -0.120587 58
-0.787312 0.200978 -0.208214 50
-0.772869 0.0605459 -0.170704 53
-2.73781 0.713219 0.644072 52
-6.91229 0.522218 1.84556 1
-2.74614 0.714896 0.442904 52
-7.15 0.552504 1.38594 35
-2.76706 0.71985 0.247087 95
-7.24313 0.569775 0.886556 33
-2.81324 0.732411 0.050132 1
-3.03576 0.243718 0.157793 20
-0.628408 0.162608 -0.0322938 59
-0.624735 0.0541796 -0.0103405 4
-0.787966 0.204693 -0.0955314 55
-0.639973 0.0552839 -0.0530589 90
-0.782013 0.203421 -0.149992 52
-0.794801 0.0671077 -0.120979 58
-0.786249 0.205098 -0.208214 50
-0.77497 0.0647795 -0.171266 53
-2.73433 0.7169 0.64351 35
-6.90896 0.534097 1.84491 1
-2.74967 0.720943 0.443685 55
-7.14413 0.564599 1.38498 35
-2.77303 0.726575 0.24774 103
-7.23965 0.582219 0.886252 33
-2.79987 0.734144 0.0499139 1
-3.03781 0.249216 0.157924 20
-0.625709 0.163069 -0.0321625 59
-0.622148 0.0550686 -0.0102969 4
-0.64484 0.0568011 -0.0534938 90
-0.78403 0.205411 -0.150468 52
-0.794683 0.0684948 -0.120979 58
-0.78589 0.20647 -0.208214 50
-0.772427 0.06594 -0.170704 53
-2.73041 0.731684 0.64351 44
-6.90607 0.570265 1.84491 1
-2.74824 0.73597 0.444075 55
-7.14108 0.601998 1.38498 35
-2.76197 0.73915 0.247087 133
-7.23897 0.620327 0.886556 33
-2.78633 0.746203 0.0497394 9
-3.03895 0.265332 0.158055 18
-0.622406 0.165804 -0.0320313 59
-0.616871 0.0578966 -0.0102097 3
-0.63708 0.0596484 -0.0528415 90
-0.785313 0.210152 -0.150945 52
-0.796773 0.0728648 -0.12137 58
-0.782467 0.209952 -0.207567 47
-0.769644 0.0697788 -0.170143 52
-2.73148 0.737084 0.644072 50
-6.91469 0.583122 1.8475 1
-2.74219 0.739478 0.443295 53
-7.14725 0.616334 1.38641 33
-2.76068 0.743969 0.247087 110
-7.24035 0.633175 0.88686 33
-2.77765 0.749593 0.0496085 11
-3.036 0.270418 0.157924 17
-0.622116 0.166891 -0.0320313 59
-0.626729 0.0598481 -0.0103842 3
-0.79094 0.212859 -0.0961399 55
-0.641937 0.0611961 -0.0532764 90
-0.784945 0.211522 -0.150945 52
-0.794185 0.074041 -0.120979 59
-0.782062 0.211454 -0.207567 49
-0.769521 0.071122 -0.170143 52
-2.72745 0.751852 0.644072 50
-2.74291 0.755617 0.444075 55
-2.75661 0.758895 0.247087 82
-2.76646 0.762132 0.0494776 12
-3.03449 0.28684 0.157924 17
-0.618827 0.169481 -0.0319 59
-0.623907 0.0630059 -0.0103405 3
-0.784994 0.215812 -0.0955314 53
-0.641607 0.0645564 -0.0532764 90
-0.786154 0.216422 -0.151421 52
-0.796245 0.0784256 -0.12137 58
-0.785598 0.216839 -0.20886 49
-0.766699 0.0750624 -0.169581 53
-2.72627 0.756135 0.644072 50
-2.73696 0.758603 0.443295 55
-2.75048 0.762372 0.246651 61
-2.76753 0.767628 0.0495212 14
-3.03652 0.291841 0.158055 17
-0.628152 0.173236 -0.0324251 59
-0.618819 0.0636217 -0.0102533 3
-0.784654 0.217044 -0.0955314 50
-0.643973 0.0659114 -0.0534938 90
-0.785775 0.217793 -0.151421 50
-0.796107 0.0798151 -0.12137 58
-0.782892 0.217559 -0.208214 47
-0.76658 0.0762666 -0.169581 52
-2.71758 0.76907 0.642949 50
-2.73295 0.772924 0.443295 55
-2.74899 0.776963 0.246869 64
-2.76602 0.782307 0.0495648 15
-2.92316 0.296578 0.152167 27
-0.627236 0.176523 -0.0324251 58
-0.630925 0.0679986 -0.0104714 3
-0.641141 0.0690341 -0.0532764 90
-0.782302 0.221096 -0.150945 50
-0.795678 0.0839824 -0.12137 58
-0.781781 0.221519 -0.208214 47
-0.771019 0.0807565 -0.170704 52
-2.71624 0.773812 0.642949 49
-2.73159 0.777692 0.443295 53
-2.7596 0.785173 0.247958 101
-2.7573 0.785558 0.0494339 23
-2.94003 0.303445 0.153083 27
-0.626927 0.177617 -0.0324251 59
-0.625832 0.0685927 -0.0103842 3
-0.645975 0.0706581 -0.0537113 90
-0.790617 0.0848737 -0.120587 58
-0.783676 0.223686 -0.20886 47
-0.773301 0.0823449 -0.171266 53
-2.70733 0.787134 0.641826 50
-2.72735 0.79246 0.443295 50
-2.74814 0.798005 0.247304 180
-2.75555 0.800683 0.0494776 30
-2.89863 0.315096 0.150989 47
-0.630782 0.182294 -0.0326876 58
-0.625452 0.0719778 -0.0103842 3
-0.650549 0.0745704 -0.0541462 90
-0.795057 0.089674 -0.12137 58
-2.71077 0.792756 0.642949 52
-2.72833 0.797913 0.443685 50
-2.74674 0.8028 0.247304 97
-2.87843 0.316003 0.350789 49
-2.75175 0.804789 0.0494339 41
-2.89559 0.319885 0.150858 49
-0.625672 0.18199 -0.0324251 59
-0.625325 0.0730693 -0.0103842 3
-0.645466 0.075166 -0.0537113 90
-0.78999 0.090529 -0.120587 58
-2.70425 0.806242 0.642387 50
-2.85454 0.319057 0.75929 49
-2.72189 0.811006 0.443295 53
-2.87283 0.326093 0.554756 49
-2.73071 0.813133 0.246215 58
-2.87187 0.33001 0.350181 45
-2.75004 0.819421 0.0494776 49
-2.89393 0.334537 0.150858 49
-0.629527 0.186583 -0.0326876 58
-0.642603 0.0781497 -0.0534938 90
-0.787068 0.0942477 -0.120196 58
-2.70764 0.81189 0.64351 49
-2.85158 0.323771 0.758644 49
-2.7181 0.815045 0.442904 56
-2.86982 0.330829 0.554279 50
-2.7269 0.817182 0.245997 55
-2.87129 0.335021 0.350181 49
-2.89334 0.339587 0.150858 49
-0.626809 0.186963 -0.0325564 58
-0.644939 0.0795578 -0.0537113 90
-0.789355 0.0959042 -0.120587 58
-0.772076 0.0931338 -0.171266 52
-2.70088 0.825814 0.642949 49
-2.84504 0.338135 0.757352 49
-2.71144 0.828543 0.442514 55
-2.86805 0.345851 0.554279 50
-2.72735 0.832905 0.246433 55
-2.86703 0.349754 0.349876 49
-2.88657 0.354132 0.150597 49
-0.630562 0.191815 -0.0328189 58
-0.642027 0.082746 -0.0534938 90
-0.793745 0.100627 -0.12137 58
-0.769159 0.0968858 -0.170704 53
-2.70409 0.831962 0.644072 49
-2.84445 0.3431 0.757352 49
-2.70999 0.833274 0.442514 50
-2.86494 0.351062 0.553802 50
-2.72113 0.836199 0.245997 56
-2.86641 0.354758 0.349876 49
-2.88843 0.359474 0.150728 49
-0.634998 0.194386 -0.0330815 58
-0.641882 0.0838664 -0.0534938 90
-0.791117 0.101713 -0.120979 56
-0.768988 0.0982281 -0.170704 52
-2.69955 0.84658 0.644072 47
-2.84495 0.358783 0.757998 49
-2.7078 0.848664 0.442904 49
-2.86063 0.365751 0.553326 50
-2.71656 0.850909 0.245997 98
-2.86445 0.370261 0.349876 49
-2.87653 0.373825 0.150204 49
-0.626826 0.195464 -0.0326876 58
-0.643904 0.0875435 -0.0537113 90
-0.788125 0.105541 -0.120587 56
-0.770862 0.102694 -0.171266 52
-2.70519 0.853021 0.645756 52
-2.83953 0.363143 0.756706 50
-2.71352 0.855147 0.444075 44
-2.85999 0.370743 0.553326 50
-2.72458 0.858648 0.246869 102
-2.86387 0.37476 0.349876 49
-2.87594 0.378343 0.150204 49
-0.628865 0.19731 -0.0328189 58
-0.64375 0.0886672 -0.0537113 90
-0.785491 0.106599 -0.120196 56
-0.773116 0.104215 -0.171827 52
-2.703 0.86792 0.646318 53
-2.83526 0.377196 0.756059 49
-2.70666 0.868587 0.443685 47
-2.85321 0.384566 0.552373 49
-2.70597 0.867857 0.245561 53
-2.86187 0.38975 0.349876 49
-2.87145 0.393062 0.150073 49
-0.623105 0.198962 -0.0325564 58
-0.643293 0.0919243 -0.0537113 90
-0.792263 0.1117 -0.12137 58
-0.770145 0.107939 -0.171266 52
-2.69932 0.871415 0.645756 52
-2.83699 0.382463 0.756706 49
-2.71454 0.876349 0.445246 49
-2.85253 0.389546 0.552373 50
-2.85626 0.394074 0.349268 47
-2.86334 0.397057 0.149681 49
-0.622756 0.200049 -0.0325564 56
-0.645599 0.0933854 -0.0539288 90
-0.787174 0.112414 -0.120587 56
-0.767542 0.108955 -0.170704 53
-2.69225 0.885245 0.645195 49
-2.83495 0.397312 0.756706 49
-2.70522 0.889006 0.444465 49
-2.85045 0.404476 0.552373 49
-2.8517 0.408676 0.348964 47
-2.8538 0.410988 0.149288 44
-0.621665 0.203415 -0.0325564 56
-0.645085 0.096877 -0.0539288 90
-0.789019 0.116881 -0.120979 58
-0.771785 0.113652 -0.171827 52
-2.68608 0.88841 0.644072 49
-2.83186 0.401924 0.756059 47
-2.70835 0.895278 0.445246 55
-2.84481 0.409257 0.551419 47
-2.84853 0.413301 0.348659 47
-0.626049 0.206071 -0.0328189 58
-0.639985 0.0972906 -0.0534938 90
-0.78637 0.117907 -0.120587 56
-0.773998 0.115343 -0.172389 52
-2.68123 0.90293 0.644072 47
-2.82486 0.416543 0.754767 47
-2.70581 0.910708 0.445636 56
-2.83535 0.423072 0.54999 45
-2.8438 0.428341 0.348355 47
-2.63104 0.398518 0.137644 90
-0.629692 0.210942 -0.0330815 58
-0.644392 0.101378 -0.0539288 90
-0.788184 0.122387 -0.120979 58
-0.768543 0.118815 -0.171266 52
-2.66827 0.903229 0.641264 47
-2.82652 0.421825 0.755413 47
-2.70204 0.914164 0.445246 50
-2.83703 0.428383 0.550466 47
-2.84067 0.432438 0.348051 47
-0.62223 0.209635 -0.0326876 56
-0.634365 0.10101 -0.0530589 90
-0.785527 0.123394 -0.120587 55
-0.768355 0.120022 -0.171266 52
-2.6612 0.916393 0.640703 47
-2.81957 0.435397 0.754121 47
-2.69488 0.927495 0.444856 49
-2.82998 0.441988 0.549513 49
-2.83346 0.446542 0.347442 49
-0.625844 0.214519 -0.0329502 58
-0.638748 0.105102 -0.0534938 90
-0.782431 0.127124 -0.120196 55
-0.767716 0.124044 -0.171266 52
-2.6619 0.921835 0.641264 49
-2.81642 0.439949 0.753475 47
-2.68626 0.92977 0.443685 45
-2.83155 0.447799 0.54999 49
-2.83268 0.451486 0.347442 49
-0.627827 0.216429 -0.0330815 58
-0.636104 0.105826 -0.0532764 90
-0.782208 0.128489 -0.120196 55
-0.777125 0.126894 -0.173512 52
-2.65688 0.936224 0.641264 50
-2.81162 0.454799 0.752828 47
-2.67886 0.943469 0.443295 45
-2.82432 0.461835 0.549036 49
-2.8253 0.466006 0.346834 49
-2.83463 0.469545 0.148765 50
-0.621977 0.218052 -0.0328189 58
-0.687055 0.117721 -0.0115622 4
-0.642914 0.110365 -0.0539288 90
-0.783938 0.133118 -0.120587 55
-0.771618 0.130315 -0.172389 50
-2.65081 0.938767 0.640141 50
-2.80843 0.45932 0.752182 47
-2.67022 0.945667 0.442124 45
-2.82109 0.466367 0.54856 47
-2.81713 0.469725 0.345921 49
-2.83135 0.474083 0.148634 52
-0.623948 0.219972 -0.0329502 58
-0.689315 0.119329 -0.0116058 4
-1.43157 0.507437 -0.181936 4
-0.640264 0.11108 -0.0537113 90
-0.788577 0.135292 -0.12137 56
-0.768985 0.131267 -0.171827 50
-2.6434 0.952269 0.63958 50
-2.80361 0.473621 0.751536 49
-2.66059 0.957959 0.441344 45
-2.81619 0.480723 0.548083 49
-2.81219 0.484052 0.345617 49
-1.44654 0.52017 0.0262222 4
-2.83129 0.489322 0.148765 53
-0.627485 0.22493 -0.0332127 58
-0.696072 0.124204 -0.0117367 4
-1.42889 0.514926 -0.181936 4
-0.637218 0.11401 -0.0534938 89
-0.78058 0.138036 -0.120196 55
-0.768288 0.135292 -0.171827 52
-2.64648 0.958081 0.640703 50
-2.80278 0.478513 0.751536 47
-2.65908 0.962138 0.441344 47
-2.82018 0.486464 0.549036 50
-2.81387 0.488889 0.345921 50
-1.44563 0.522694 0.0262222 4
-2.83297 0.494194 0.148896 55
-0.622397 0.224322 -0.0329502 58
-0.690928 0.124565 -0.0116495 8
-1.43275 0.518864 -0.182544 4
-0.639473 0.115547 -0.0537113 89
-0.777904 0.138979 -0.119804 55
-0.775277 0.137732 -0.173512 50
-2.63914 0.971082 0.640141 50
-2.79556 0.491864 0.750244 49
-2.65401 0.976047 0.441344 49
-2.81043 0.499456 0.547607 50
-2.81127 0.503616 0.345921 52
-1.44531 0.530868 0.0262659 4
-2.82543 0.508145 0.148634 55
-0.618872 0.226715 -0.0328189 58
-0.690288 0.128061 -0.0116495 8
-1.42768 0.525499 -0.18224 4
-0.636407 0.118456 -0.0534938 88
-0.777166 0.14305 -0.119804 55
-0.769748 0.140942 -0.172389 50
-2.63516 0.97484 0.63958 50
-2.79232 0.496324 0.749597 49
-2.64999 0.97982 0.440953 50
-2.80705 0.504421 0.54713 50
-2.81283 0.50896 0.346225 53
-1.45132 0.536247 0.0263968 4
-2.82454 0.513076 0.148634 53
-0.63018 0.232133 -0.0334753 56
-0.690064 0.129265 -0.0116495 8
-1.42909 0.528853 -0.182544 4
-0.63865 0.120008 -0.0537113 86
-0.781776 0.145279 -0.120587 55
-0.767102 0.141857 -0.171827 52
-2.62757 0.988225 0.639018 50
-2.78959 0.511425 0.749597 49
-2.64002 0.992404 0.440173 50
-2.80437 0.519111 0.54713 50
-2.80272 0.522818 0.345313 50
-1.4485 0.543839 0.0263968 4
-2.82172 0.52835 0.148634 53
-0.624283 0.23367 -0.0332127 56
-0.686897 0.13254 -0.0116058 8
-1.42853 0.537454 -0.182848 4
-0.640462 0.123805 -0.0539288 83
-1.28678 0.484483 -0.259987 4
-0.77372 0.148023 -0.119413 53
-1.0089 0.38032 -0.279342 4
-0.761532 0.145123 -0.170704 52
-2.62829 0.993213 0.63958 50
-2.7887 0.516293 0.749597 50
-2.64077 0.997423 0.440563 52
-2.80346 0.524005 0.54713 50
-2.80189 0.52722 0.345313 49
-1.44287 0.544596 0.0263095 4
-2.81598 0.531864 0.148372 55
-0.626209 0.235643 -0.033344 58
-0.681751 0.132817 -0.0115186 8
-1.43232 0.541456 -0.183457 4
-0.640245 0.124923 -0.0539288 83
-1.29052 0.48847 -0.260939 4
-0.775888 0.149826 -0.119804 53
-1.00597 0.381222 -0.278696 4
-0.768489 0.147654 -0.172389 52
-2.62078 1.00609 0.639018 49
-2.78605 0.530401 0.749597 50
-2.63321 1.01035 0.440173 52
-2.79595 0.53727 0.546177 45
-1.48155 0.567525 0.135745 4
-2.79909 0.541883 0.345313 49
-1.44943 0.555479 0.026484 4
-2.81561 0.547073 0.148503 55
-0.625008 0.238809 -0.033344 58
-0.678616 0.135792 -0.011475 8
-1.43178 0.54984 -0.183761 4
-0.639604 0.128162 -0.0539288 79
-1.30177 0.500292 -0.263796 4
-0.775093 0.153887 -0.119804 53
-1.00178 0.385438 -0.278049 4
-0.767705 0.151676 -0.172389 52
-2.61692 1.00932 0.638457 50
-2.78037 0.534359 0.748305 50
-2.62914 1.01406 0.439783 52
-2.79983 0.543075 0.54713 50
-1.47591 0.568316 0.135309 8
-2.79814 0.546768 0.345313 50
-1.44612 0.557107 0.0264404 4
-2.8171 0.552462 0.148634 62
-0.622262 0.239 -0.0332127 58
-0.688192 0.138888 -0.0116495 4
-1.43314 0.553234 -0.184065 4
-0.636935 0.128802 -0.0537113 77
-1.30319 0.50345 -0.264272 3
-0.774823 0.155239 -0.119804 53
-1.00786 0.389809 -0.279989 4
-0.772223 0.153938 -0.173512 52
-2.61805 1.0266 0.640141 50
-2.77981 0.549859 0.748951 49
-2.62131 1.02736 0.439392 52
-2.79444 0.55774 0.546653 50
-1.47977 0.579022 0.135963 8
-2.79514 0.561899 0.345313 50
-1.44309 0.564923 0.0264404 4
-2.81897 0.568676 0.148896 82
-0.623283 0.243276 -0.033344 58
-0.684979 0.142118 -0.0116058 4
-1.43474 0.562796 -0.184674 4
-0.638671 0.132736 -0.0539288 76
-1.31186 0.514989 -0.266653 3
-0.778843 0.16026 -0.120587 55
-1.00798 0.396142 -0.280636 4
-0.771379 0.158114 -0.173512 52
-2.6187 1.0316 0.640703 50
-2.77885 0.55471 0.748951 49
-2.61969 1.03148 0.439392 53
-2.79106 0.562136 0.546177 49
-1.48107 0.582517 0.136181 4
-2.80156 0.567756 0.346225 55
-1.43512 0.564689 0.0263095 4
-2.81562 0.572609 0.148765 100
-0.627502 0.246196 -0.0336066 58
-0.68473 0.143313 -0.0116058 4
-1.43155 0.564137 -0.18437 4
-0.638438 0.13385 -0.0539288 73
-1.29955 0.512763 -0.264272 4
-0.778562 0.161619 -0.120587 55
-1.00953 0.398791 -0.281282 4
-0.768741 0.158847 -0.17295 50
-2.611 1.04439 0.640141 49
-2.77364 0.568287 0.748305 49
-2.61884 1.04702 0.440173 53
-2.78577 0.575763 0.5457 50
-1.48273 0.591857 0.136617 8
-2.80341 0.58342 0.346834 67
-1.43921 0.574733 0.0264404 4
-2.8077 0.586331 0.148503 120
-0.62157 0.247621 -0.033344 58
-0.683996 0.146777 -0.0116058 3
-1.42397 0.569777 -0.183761 4
-0.640167 0.137697 -0.0541462 71
-1.30149 0.521163 -0.265224 4
-0.775287 0.165194 -0.120196 53
-0.99406 0.398486 -0.277403 3
-0.770285 0.163361 -0.173512 50
-2.60465 1.04713 0.639018 50
-2.77264 0.573127 0.748305 49
-2.61014 1.04882 0.439002 52
-2.78707 0.581607 0.546177 52
-1.47014 0.589797 0.135527 8
-2.80238 0.588311 0.346834 71
-1.43578 0.576561 0.0263968 4
-2.80911 0.591741 0.148634 123
-0.623452 0.249638 -0.0334753 58
-0.688632 0.148995 -0.0116931 3
-1.42757 0.574117 -0.18437 4
-0.639926 0.138814 -0.0541462 73
-1.30058 0.523434 -0.265224 3
-0.770163 0.165539 -0.119413 53
-0.995532 0.4013 -0.278049 4
-0.769998 0.164705 -0.173512 52
-2.60346 1.06305 0.640141 50
-2.76714 0.587623 0.747659 50
-2.609 1.0648 0.439783 55
-2.78878 0.597212 0.54713 52
-1.46923 0.598684 0.135745 8
-2.79916 0.603465 0.346834 79
-1.442 0.587854 0.0265713 4
-2.80587 0.606932 0.148634 121
-0.624448 0.253844 -0.0336066 58
-0.680485 0.151143 -0.0115622 3
-1.42674 0.582773 -0.184674 4
-0.63919 0.142163 -0.0541462 70
-1.28865 0.526739 -0.26332 4
-0.769286 0.169569 -0.119413 53
-0.986716 0.403754 -0.276109 4
-0.766713 0.168361 -0.17295 50
-2.60179 1.06714 0.640141 50
-2.76611 0.592451 0.747659 50
-2.60504 1.06796 0.439392 52
-2.78054 0.600536 0.5457 52
-1.47279 0.603139 0.136181 8
-2.79336 0.606816 0.346225 71
-1.43635 0.58847 0.026484 4
-2.80491 0.611338 0.148634 101
-0.621694 0.253985 -0.0334753 58
-0.68022 0.15233 -0.0115622 4
-1.41665 0.581238 -0.183457 4
-0.641375 0.143805 -0.0543637 68
-1.28773 0.528988 -0.26332 4
-0.768989 0.170911 -0.119413 52
-0.981545 0.403633 -0.274816 3
-0.766448 0.169565 -0.17295 50
-2.59616 1.08075 0.640141 49
-2.76307 0.606444 0.747659 49
-2.59713 1.08063 0.439002 52
-2.78226 0.615654 0.546653 50
-1.46742 0.609628 0.135963 8
-2.79014 0.621434 0.346225 56
-1.43797 0.597655 0.0265713 4
-2.80655 0.627097 0.148896 77
-0.624964 0.259158 -0.0337378 58
-0.677 0.155229 -0.0115186 4
-1.42045 0.591515 -0.18437 4
-0.635751 0.146082 -0.0539288 67
-1.2873 0.536445 -0.263796 3
-0.768083 0.174935 -0.119413 50
-0.986172 0.411394 -0.276756 3
-0.770308 0.174624 -0.174073 50
-2.76201 0.611266 0.747659 49
-2.59752 1.08612 0.439392 52
-2.78107 0.620995 0.546653 52
-1.46176 0.610266 0.135527 8
-2.78179 0.624683 0.345313 50
-1.43682 0.600415 0.0265713 4
-2.79814 0.63036 0.148503 62
-0.622209 0.259284 -0.0336066 58
-0.676728 0.15641 -0.0115186 3
-1.42171 0.594953 -0.184674 4
-0.633065 0.146647 -0.0537113 65
-1.27957 0.53584 -0.262367 3
-0.772596 0.177351 -0.120196 52
-0.983155 0.41235 -0.276109 3
-0.765245 0.174912 -0.17295 50
-2.75631 0.62567 0.747013 49
-2.59388 1.10112 0.439783 52
-2.77299 0.634461 0.5457 50
-1.46531 0.621087 0.136181 8
-2.78078 0.640278 0.345617 53
-1.44285 0.611841 0.0267458 4
-2.79956 0.646606 0.148765 79
-0.625437 0.264492 -0.0338691 58
-0.675872 0.16007 -0.0115186 3
-1.42303 0.604582 -0.185282 4
-0.639571 0.15163 -0.0543637 65
-1.28568 0.546605 -0.264272 3
-0.76925 0.180844 -0.119804 52
-0.980982 0.417492 -0.276109 3
-0.769039 0.180132 -0.174073 50
-2.75286 0.629945 0.746366 49
-2.58987 1.10422 0.439392 52
-2.77428 0.639847 0.546177 50
-1.46423 0.623644 0.136181 8
-2.78703 0.646315 0.34653 61
-1.43489 0.611413 0.0266149 8
-2.80097 0.651565 0.148896 86
-0.624975 0.265583 -0.0338691 58
-0.680462 0.162376 -0.0116058 3
-1.42208 0.606816 -0.185282 4
-0.636878 0.152185 -0.0541462 64
-1.27796 0.545949 -0.262844 4
-0.77134 0.18274 -0.120196 52
-0.978033 0.418251 -0.275463 3
-0.76638 0.180795 -0.173512 50
-2.74963 0.64387 0.746366 50
-2.771 0.653881 0.546177 52
-1.46334 0.632036 0.136399 8
-2.77636 0.659191 0.345617 79
-1.42948 0.617674 0.0265713 4
-2.7878 0.663924 0.148372 102
-0.625913 0.269736 -0.0340004 58
-0.677199 0.165242 -0.0115622 3
-1.41661 0.613266 -0.184978 4
-0.638524 0.15598 -0.0543637 64
-1.28193 0.555344 -0.264272 3
-0.765566 0.185642 -0.119413 50
-0.96926 0.420304 -0.273523 3
-0.770166 0.185919 -0.174635 50
-2.74615 0.648118 0.74572 49
-2.76986 0.658716 0.546177 52
-1.45767 0.632603 0.135963 8
-2.78004 0.665183 0.346225 73
-1.43528 0.623161 0.0267022 4
-2.78664 0.668789 0.148372 115
-0.625442 0.270828 -0.0340004 58
-1.42463 0.619705 -0.186195 4
-0.63825 0.157094 -0.0543637 64
-1.27646 0.555617 -0.26332 3
-0.765241 0.186978 -0.119413 50
-0.975163 0.424898 -0.275463 3
-0.76747 0.186702 -0.174073 50
-2.84037 1.25299 0.707524 27
-2.74742 0.663614 0.747013 44
-2.71399 1.19662 0.463196 15
-2.76398 0.672634 0.5457 52
-1.46117 0.643242 0.136617 8
-2.7741 0.679143 0.345921 73
-1.43428 0.631677 0.0267458 4
-2.77825 0.682188 0.148111 109
-0.628534 0.276226 -0.0342629 56
-1.4191 0.626152 -0.185891 4
-0.639811 0.161136 -0.0545811 62
-1.28251 0.566267 -0.265224 3
-0.764251 0.190982 -0.119413 52
-0.970718 0.429019 -0.274816 3
-0.764114 0.190144 -0.173512 50
-2.82037 1.25004 0.703032 27
-2.74156 0.667274 0.74572 33
-2.72318 1.20636 0.465147 11
-2.7603 0.677358 0.545224 52
-1.45094 0.641754 0.135745 8
-2.77291 0.683984 0.345921 71
-1.43078 0.633415 0.0267022 4
-2.77948 0.687631 0.148242 105
-0.625769 0.27631 -0.0341317 58
-1.41347 0.626612 -0.185282 4
-0.63711 0.161657 -0.0543637 62
-1.28152 0.568505 -0.265224 3
-0.763917 0.192316 -0.119413 50
-0.976509 0.433832 -0.276756 4
-0.768514 0.192633 -0.174635 50
-2.76247 1.24228 0.690117 24
-2.7426 0.683256 0.747013 49
-2.71887 1.22209 0.465537 12
-2.75434 0.691209 0.544747 49
-1.45653 0.653682 0.136617 8
-2.77399 0.700184 0.34653 70
-1.432 0.64295 0.0267894 4
-2.78782 0.705702 0.148896 96
-0.622038 0.278557 -0.0340004 58
-1.41458 0.636291 -0.185891 4
-0.636255 0.164991 -0.0543637 61
-1.27843 0.57543 -0.265224 3
-0.765294 0.196914 -0.119804 50
-0.974224 0.438939 -0.276756 3
-0.767461 0.196788 -0.174635 50
-2.74498 1.23959 0.686186 55
-2.73672 0.686875 0.74572 45
-2.73045 1.23246 0.467879 18
-2.75551 0.696612 0.545224 52
-1.44858 0.653146 0.135963 8
-2.77048 0.703933 0.346225 59
-1.4286 0.644418 0.0267458 8
-2.78671 0.710081 0.148896 90
-0.623825 0.280672 -0.0341317 58
-1.40906 0.636465 -0.185282 4
-0.635966 0.166101 -0.0543637 59
-1.26848 0.573606 -0.26332 3
-0.762555 0.197644 -0.119413 50
-0.973457 0.440639 -0.276756 3
-0.764788 0.197399 -0.174073 50
-2.72516 1.24785 0.682817 44
-2.74257 0.7031 0.748305 44
-2.71722 1.24365 0.466708 50
-2.75908 0.712379 0.546653 52
-1.44752 0.661507 0.136181 8
-2.77396 0.720288 0.347138 70
-1.42759 0.652682 0.0267894 4
-2.78295 0.724662 0.148896 89
-0.617808 0.281852 -0.0338691 58
-1.41247 0.64694 -0.186195 4
-0.64232 0.171302 -0.055016 58
-1.27671 0.585143 -0.265701 4
-0.766292 0.202869 -0.120196 50
-0.966826 0.443541 -0.275463 3
-0.766104 0.202007 -0.174635 50
-2.69864 1.2414 0.67664 29
-2.73432 0.706086 0.746366 42
-2.69037 1.23703 0.462416 32
-2.75295 0.716446 0.5457 52
-1.45315 0.667155 0.136835 8
-2.76309 0.722633 0.345921 73
-1.41953 0.652285 0.0266585 4
-2.78169 0.729518 0.148896 90
-1.40684 0.647326 -0.185587 4
-0.639611 0.171794 -0.0547986 56
-1.269 0.584285 -0.264272 4
-0.765936 0.204206 -0.120196 50
-0.968165 0.44641 -0.276109 4
-0.76575 0.203344 -0.174635 45
-2.67202 1.2467 0.671587 29
-2.73513 0.722095 0.747659 45
-2.67469 1.24739 0.460855 29
-2.75391 0.732104 0.546653 52
-1.44275 0.671848 0.136181 8
-2.76634 0.739483 0.346834 70
-1.42062 0.661824 0.0267458 4
-2.77046 0.742631 0.148503 102
-1.39882 0.652825 -0.184978 4
-0.636296 0.1745 -0.0545811 56
-1.27027 0.593223 -0.265224 4
-0.769629 0.209482 -0.120979 50
-0.965814 0.451473 -0.276109 4
-0.769349 0.208731 -0.175758 49
-2.65242 1.24262 0.667094 50
-2.72919 0.725635 0.746366 49
-2.65037 1.24111 0.456953 30
-2.74788 0.735648 0.5457 52
-1.44157 0.674365 0.136181 4
-2.75798 0.741906 0.345921 55
-1.41494 0.662179 0.0266585 4
-2.76688 0.746336 0.148372 116
-0.624366 0.291475 -0.0343942 58
-1.40228 0.657131 -0.185587 4
-0.63599 0.17561 -0.0545811 56
-1.26701 0.594395 -0.264748 3
-0.771648 0.211463 -0.12137 49
-0.967209 0.454188 -0.276756 3
-0.76902 0.20994 -0.175758 50
-2.65467 1.26067 0.669341 59
-2.72782 0.740067 0.747013 45
-2.64607 1.25603 0.457343 58
-2.74649 0.750189 0.546177 50
-1.44264 0.68379 0.136617 8
-2.75406 0.756336 0.345921 53
-1.41834 0.672551 0.0267894 8
-2.77497 0.764106 0.149027 90
-0.618322 0.292596 -0.0341317 56
-1.39882 0.664465 -0.185587 4
-0.639866 0.180254 -0.055016 56
-1.26177 0.599744 -0.264272 3
-0.95836 0.455956 -0.274816 4
-0.772611 0.215242 -0.176881 49
-2.65906 1.26846 0.671025 59
-2.71953 0.74293 0.745074 45
-2.64387 1.26065 0.457343 59
-2.74031 0.754166 0.545224 50
-1.45043 0.690597 0.137488 8
-2.75273 0.761142 0.345921 56
-1.41254 0.673118 0.0267022 4
-2.76882 0.767623 0.148765 79
-0.61781 0.293674 -0.0341317 58
-1.3999 0.667976 -0.185891 8
-0.632348 0.179384 -0.0543637 55
-1.26072 0.601946 -0.264272 3
-0.966192 0.461973 -0.277403 4
-0.765186 0.21466 -0.175197 49
-2.64997 1.28176 0.670464 59
-2.72012 0.758923 0.746366 49
-2.64145 1.27708 0.458123 59
-2.74342 0.770483 0.546653 50
-1.43771 0.694096 0.136617 4
-2.75574 0.778035 0.346834 76
-1.41574 0.683772 0.0268331 4
-2.76463 0.782592 0.148765 62
-0.620758 0.299082 -0.0343942 56
-1.39626 0.67554 -0.185891 8
-0.636195 0.184042 -0.0547986 56
-1.26407 0.611973 -0.265701 3
-0.959417 0.464914 -0.276109 4
-0.764013 0.218796 -0.175197 45
-2.65453 1.28912 0.672148 62
-2.71414 0.762371 0.745074 49
-2.65033 1.28709 0.460074 59
-2.73262 0.772615 0.544747 49
-1.43874 0.697692 0.136835 4
-2.74961 0.781495 0.346225 68
-1.4123 0.685149 0.0267894 4
-2.76086 0.786736 0.148634 70
-0.62248 0.301257 -0.0345255 56
-1.40401 0.682322 -0.187108 4
