# .PCD v0.7 - Point Cloud Data file format
VERSION 0.7
FIELDS x y z intensity
SIZE 4 4 4 4
TYPE F F F F
COUNT 1 1 1 1
WIDTH 1546
HEIGHT 1
VIEWPOINT 0 0 0 1 0 0 0
POINTS 1546
DATA ascii
-0.788701 0.069825 -0.0927933 90
-0.66266 -0.0529343 -0.055016 53
-0.804862 0.0715615 -0.149992 58
-0.797436 -0.0652087 -0.12137 50
-0.80209 0.0719974 -0.206274 53
-0.799299 -0.0661729 -0.176881 50
-7.16443 -0.610558 1.9147 29
-6.94349 -0.579426 1.34638 1
-7.2733 -0.59699 0.890511 33
-3.05811 -0.246085 0.15897 12
-0.658738 0.0613414 -0.0329502 122
-0.793252 0.0745644 -0.0934018 90
-0.66541 -0.0496671 -0.0552335 53
-0.799577 0.0754455 -0.14904 58
-0.797767 -0.0610324 -0.12137 50
-0.799298 0.0759634 -0.205627 52
-0.79479 -0.0614422 -0.175758 50
-2.85252 0.274758 0.652495 38
-7.16067 -0.597647 1.91341 27
-6.93471 -0.566501 1.34447 1
-7.2767 -0.585766 0.890815 33
-3.05351 -0.240881 0.158709 12
-0.661115 0.062732 -0.0330815 126
-0.793134 0.0758103 -0.0934018 90
-0.667978 -0.0487046 -0.0554509 53
-0.797002 0.0766019 -0.148564 58
-0.795411 -0.0594411 -0.120979 52
-0.801567 0.0775952 -0.206274 53
-0.799741 -0.0605912 -0.176881 52
-2.85105 0.28969 0.652495 47
-7.16602 -0.561587 1.91406 30
-6.93259 -0.531016 1.34352 1
-7.28215 -0.547845 0.89112 33
-3.05224 -0.224702 0.158578 12
-0.660778 0.0661927 -0.0330815 130
-0.795195 0.0802154 -0.093706 90
-0.663257 -0.0448347 -0.055016 53
-0.799045 0.0808863 -0.14904 58
-0.793249 -0.0550895 -0.120587 50
-0.793958 0.0809041 -0.204334 53
-0.79519 -0.0560308 -0.175758 50
-2.84811 0.294414 0.651933 47
-7.16217 -0.548707 1.91277 29
-6.93849 -0.518074 1.34447 1
-7.27072 -0.534217 0.889599 33
-3.05512 -0.219557 0.158709 12
-0.658178 0.0670875 -0.0329502 134
-0.792586 0.0813455 -0.0934018 90
-0.663334 -0.043677 -0.055016 55
-0.796462 0.0820251 -0.148564 58
-0.795807 -0.0538867 -0.120979 52
-0.7914 0.0821746 -0.203687 53
-0.787998 -0.0540974 -0.174073 50
-2.84406 0.309554 0.651372 47
-7.16503 -0.509948 1.91277 29
-6.93132 -0.481051 1.34257 1
-7.2735 -0.494871 0.889599 33
-3.05377 -0.202855 0.158578 12
-0.657818 0.0705328 -0.0329502 135
-0.789667 0.0853616 -0.0930975 90
-0.656099 -0.0396976 -0.0543637 55
-0.803325 0.0871398 -0.149992 58
-0.793615 -0.0495503 -0.120587 52
-0.795759 0.0868497 -0.20498 53
-0.79314 -0.0501705 -0.175197 50
-2.84599 0.31429 0.651933 49
-7.15146 -0.496428 1.90889 27
-6.9297 -0.468785 1.34209 1
-7.27179 -0.483279 0.889294 33
-3.05409 -0.198058 0.158578 12
-0.657694 0.0716808 -0.0329502 140
-0.791998 0.0868768 -0.0934018 90
-0.661138 -0.0388808 -0.0547986 55
-0.803171 0.0885417 -0.149992 58
-0.791236 -0.0480006 -0.120196 52
-0.795606 0.0882384 -0.20498 53
-0.790787 -0.0487598 -0.174635 52
-2.8443 0.329187 0.651933 49
-7.15388 -0.460225 1.90889 27
-2.85816 0.330304 0.449148 53
-6.92708 -0.433395 1.34114 1
-2.86506 0.33061 0.249265 55
-7.27423 -0.445197 0.889294 33
-3.05508 -0.182064 0.158578 14
-0.657322 0.0750088 -0.0329502 146
-0.791533 0.0910225 -0.0934018 90
-0.65884 -0.0353824 -0.0545811 55
-0.797838 0.0920348 -0.14904 55
-0.793941 -0.0440087 -0.120587 52
-0.79515 0.0922642 -0.20498 53
-0.795894 -0.0449228 -0.175758 50
-2.84136 0.333369 0.651372 49
-7.15708 -0.447891 1.90953 26
-2.85758 0.335292 0.449148 55
-6.93273 -0.421606 1.34209 1
-2.86448 0.33561 0.249265 56
-7.27251 -0.432352 0.88899 32
-3.0529 -0.176584 0.158447 14
-0.65967 0.0764485 -0.0330815 148
-0.786444 0.0918196 -0.0927933 88
-0.656415 -0.0340852 -0.0543637 55
-0.795239 0.0931374 -0.148564 58
-0.791552 -0.0424756 -0.120196 52
-0.792589 0.0933651 -0.204334 53
-0.791108 -0.0432379 -0.174635 50
-2.83946 0.349233 0.651372 50
-7.15458 -0.408883 1.90824 26
-2.85082 0.350144 0.448368 55
-6.93246 -0.383953 1.34161 1
-2.86015 0.350799 0.249048 56
-7.27475 -0.392998 0.88899 33
-3.05631 -0.160198 0.158578 14
-0.659247 0.0800165 -0.0330815 146
-0.793324 0.0969896 -0.093706 90
-0.66405 -0.0309346 -0.055016 56
-0.799594 0.0980445 -0.149516 58
-0.791764 -0.0383305 -0.120196 50
-0.794469 0.0979518 -0.20498 52
-0.788898 -0.0388222 -0.174073 50
-2.83649 0.353391 0.65081 52
-6.98167 -0.386658 1.86172 1
-2.85272 0.354928 0.448758 56
-6.92576 -0.371453 1.34018 1
-2.85953 0.355791 0.249048 56
-7.26792 -0.381175 0.888077 33
-3.05655 -0.155397 0.158578 14
-0.659106 0.081167 -0.0330815 142
-0.741295 -0.0336764 -0.0123476 9
-0.788246 0.0976171 -0.0930975 90
-0.664103 -0.0297756 -0.055016 56
-0.796987 0.0991328 -0.14904 58
-0.796761 -0.0372087 -0.120979 50
-0.794297 0.0993382 -0.20498 52
-0.791391 -0.0377139 -0.174635 50
-2.8346 0.368237 0.65081 50
-6.97389 -0.350824 1.85913 1
-2.84592 0.369222 0.447977 55
-6.93001 -0.336515 1.34066 1
-2.86016 0.370581 0.249265 55
-7.26486 -0.342878 0.887469 33
-3.05982 -0.139509 0.158709 14
-0.658687 0.0845019 -0.0330815 134
-0.728972 -0.0293396 -0.0121294 11
-0.790185 0.102065 -0.0934018 90
-0.656782 -0.0260632 -0.0543637 56
-0.796475 0.103165 -0.14904 58
-0.794478 -0.0329192 -0.120587 50
-0.796178 0.103673 -0.205627 52
-0.791578 -0.0335697 -0.174635 50
-2.83643 0.373008 0.651372 50
-6.97449 -0.338652 1.85913 1
-2.84527 0.374188 0.447977 53
-6.92813 -0.324303 1.34018 1
-2.85951 0.375572 0.249265 53
-7.26793 -0.330312 0.887773 33
-3.05757 -0.134055 0.158578 14
-0.653588 0.0849971 -0.0328189 124
-0.731519 -0.0281798 -0.0121731 11
-0.790005 0.103444 -0.0934018 90
-0.661803 -0.025142 -0.0547986 56
-0.793861 0.104232 -0.148564 58
-0.794534 -0.0315326 -0.120587 50
-0.798389 0.105383 -0.206274 52
-0.791635 -0.0321881 -0.174635 50
-2.82954 0.387686 0.650249 52
-6.97858 -0.302235 1.85978 1
-2.84572 0.389417 0.448368 52
-6.92974 -0.288023 1.34018 1
-2.85504 0.390201 0.249048 50
-7.27204 -0.292355 0.888077 33
-3.05573 -0.117943 0.158447 15
-0.655607 0.0887582 -0.0329502 115
-0.719168 -0.023852 -0.0119549 11
-0.782079 0.106561 -0.092489 88
-0.661925 -0.0216765 -0.0547986 56
-0.795735 0.108723 -0.14904 56
-0.794689 -0.027372 -0.120587 50
-0.800219 0.109895 -0.20692 52
-0.789359 -0.0279415 -0.174073 49
-2.82893 0.39213 0.650249 50
-6.97669 -0.289953 1.85913 1
-2.84015 0.393702 0.447587 50
-7.17054 -0.285664 1.38689 36
-2.85189 0.39484 0.24883 49
-7.27749 -0.279856 0.888686 33
-3.05843 -0.112706 0.158578 15
-0.652979 0.0895579 -0.0328189 111
-0.784349 0.10827 -0.0927933 85
-0.659473 -0.020426 -0.0545811 56
-0.793114 0.109771 -0.148564 55
-0.789801 -0.0257937 -0.119804 52
-0.788069 0.109606 -0.203687 52
-0.79184 -0.0266607 -0.174635 49
-2.82195 0.406733 0.649126 49
-6.98294 -0.253598 1.86042 1
-2.8356 0.408215 0.447197 49
-7.17684 -0.248288 1.38784 35
-2.84978 0.409767 0.24883 49
-7.26646 -0.241327 0.887165 33
-3.05149 -0.0964421 0.158185 15
-0.652501 0.0929757 -0.0328189 106
-0.77886 0.111662 -0.0921848 83
-0.657082 -0.0168906 -0.0543637 56
-0.7901 0.113569 -0.148088 56
-0.789925 -0.0216579 -0.119804 50
-0.792263 0.11443 -0.20498 52
-0.789534 -0.0224301 -0.174073 50
-2.82372 0.411517 0.649687 49
-6.97854 -0.241239 1.85913 1
-2.83244 0.412806 0.446807 49
-7.17236 -0.235597 1.38689 35
-2.84906 0.414741 0.24883 49
-7.26687 -0.228645 0.887165 33
-3.05415 -0.0911945 0.158316 15
-0.652338 0.0941143 -0.0328189 103
-0.781119 0.113382 -0.092489 82
-0.657111 -0.0157437 -0.0543637 56
-0.799612 0.116378 -0.149992 56
-0.785026 -0.0201224 -0.119021 50
-0.79684 0.11652 -0.206274 53
-0.792007 -0.021132 -0.174635 50
-2.81663 0.426058 0.648564 49
-6.97971 -0.204697 1.85913 1
-2.83024 0.427631 0.446807 49
-7.17595 -0.198109 1.38737 35
-2.837 0.428161 0.247958 49
-7.27541 -0.190793 0.888077 33
-3.05458 -0.0752018 0.158316 17
-0.649351 0.0972674 -0.0326876 101
-0.782968 0.117844 -0.0927933 80
-0.657186 -0.0121882 -0.0543637 56
-0.796566 0.120193 -0.149516 58
-0.792525 -0.0162082 -0.120196 52
-0.793832 0.120324 -0.205627 52
-0.789672 -0.0169176 -0.174073 50
-2.81588 0.430973 0.648564 49
-6.98005 -0.192515 1.85913 1
-2.82705 0.432196 0.446416 49
-7.17877 -0.184397 1.38784 35
-2.83871 0.433489 0.248176 50
-7.27325 -0.178032 0.887773 32
-3.05221 -0.0698095 0.158185 15
-0.64918 0.0984006 -0.0326876 99
-0.785213 0.119588 -0.0930975 77
-0.662186 -0.0111611 -0.0547986 56
-0.793929 0.121209 -0.14904 58
-0.787615 -0.0147026 -0.119413 52
-0.788827 0.121107 -0.204334 53
-0.787265 -0.0154764 -0.173512 52
-2.8111 0.445819 0.648003 49
-6.96892 -0.15447 1.8559 1
-2.81736 0.446322 0.445246 49
-7.17227 -0.146651 1.38641 33
-2.8314 0.448061 0.24774 50
-7.27163 -0.138629 0.887469 32
-3.04756 -0.0531995 0.157924 17
-0.648656 0.101798 -0.0326876 97
-0.784555 0.123835 -0.0930975 77
-0.657255 -0.00759992 -0.0543637 58
-0.795686 0.12589 -0.149516 58
-0.79015 -0.0106268 -0.119804 52
-0.788182 0.125235 -0.204334 52
-0.792208 -0.0113162 -0.174635 50
-2.80799 0.449848 0.647441 49
-6.97401 -0.142409 1.85719 1
-2.81665 0.450747 0.445246 49
-7.17252 -0.134133 1.38641 33
-2.82324 0.451817 0.247087 52
-7.24703 -0.126756 0.884426 27
-0.681333 0.108094 0.0114313 8
-3.05263 -0.0484995 0.158185 20
-0.646012 0.102534 -0.0325564 95
-0.784359 0.125067 -0.0930975 76
-0.654777 -0.00641018 -0.0541462 58
-0.795465 0.127279 -0.149516 56
-0.790168 -0.00924766 -0.119804 52
-0.795113 0.127773 -0.206274 52
-0.787354 -0.00997993 -0.173512 50
-2.8056 0.464544 0.647441 50
-6.99879 -0.107496 1.86365 1
-2.81425 0.465489 0.445246 50
-2.82092 0.466101 0.247087 55
-3.04785 -0.0324543 0.157924 21
-0.647929 0.106324 -0.0326876 91
-0.781246 0.128764 -0.0927933 76
-0.659783 -0.00304082 -0.0545811 56
-0.789969 0.130495 -0.148564 55
-0.790205 -0.00511025 -0.119804 52
-0.796838 0.132195 -0.20692 50
-0.784959 -0.00582408 -0.17295 52
-2.79998 0.468634 0.646318 49
-2.81344 0.4704 0.445246 52
-2.82747 0.472258 0.24774 61
-3.0504 -0.027161 0.158055 23
-0.647743 0.107455 -0.0326876 90
-0.783467 0.13054 -0.0930975 71
-0.659787 -0.00188928 -0.0545811 56
-0.79458 0.13269 -0.149516 55
-0.792682 -0.00375779 -0.120196 53
-0.78944 0.132513 -0.20498 52
-0.782532 -0.00442514 -0.172389 50
-2.7998 0.484192 0.646879 50
-2.80598 0.484772 0.444465 53
-3.10965 -0.0174144 0.597172 9
-2.82487 0.487549 0.24774 76
-3.10414 -0.0130769 0.376345 8
-0.689813 0.118117 0.0116058 4
-3.0505 -0.0106564 0.158055 23
-0.647171 0.110845 -0.0326876 90
-0.787639 0.135627 -0.093706 71
-0.654807 0.00158971 -0.0541462 58
-0.798686 0.137831 -0.150468 56
-0.790222 0.000406503 -0.119804 53
-0.788736 0.136644 -0.20498 52
-0.784981 -0.000206925 -0.17295 50
-2.79904 0.48859 0.646879 50
-2.80765 0.489604 0.444856 55
-3.08268 -0.011841 0.59193 1
-2.82647 0.492908 0.247958 90
-3.05701 -0.00800344 0.370565 3
-0.689606 0.119321 0.0116058 8
-3.05051 -0.00586469 0.158055 17
-0.649436 0.112405 -0.0328189 90
-0.782536 0.136006 -0.0930975 70
-0.659784 0.00271691 -0.0545811 56
-0.791193 0.137947 -0.14904 55
-0.795158 0.00176674 -0.120587 55
-0.790874 0.138441 -0.205627 52
-0.782544 0.00103803 -0.172389 50
-2.79644 0.503239 0.646879 50
-2.80262 0.50386 0.444465 55
-3.06798 0.00376712 0.58907 8
-2.82639 0.507649 0.248176 90
-3.04212 0.00798747 0.368739 11
-0.681613 0.121479 0.011475 8
-3.04551 0.010099 0.157793 20
-0.643945 0.114804 -0.0325564 90
-0.779372 0.13966 -0.0927933 68
-0.657271 0.00605155 -0.0543637 58
-0.795314 0.142826 -0.149992 55
-0.795138 0.00593013 -0.120587 53
-0.792539 0.142875 -0.206274 52
-0.784964 0.00513623 -0.17295 52
-2.78846 0.506321 0.645195 52
-2.80659 0.509636 0.445246 56
-3.0606 0.00911146 0.587641 4
-2.81815 0.511244 0.247522 86
-3.03714 0.0132831 0.368131 11
-0.683859 0.123117 0.0115186 8
-3.04798 0.0154232 0.157924 24
-0.648656 0.116823 -0.0328189 90
-0.78645 0.142358 -0.093706 68
-0.654769 0.00718956 -0.0541462 56
-0.795064 0.144214 -0.149992 56
-0.790188 0.00730239 -0.119804 53
-0.787538 0.143385 -0.20498 52
-0.784954 0.00650625 -0.17295 50
-2.78329 0.520952 0.644633 50
-2.79661 0.522959 0.444075 50
-3.06051 0.0251365 0.587641 4
-2.81543 0.525993 0.247522 67
-3.03703 0.0291853 0.368131 11
-0.685662 0.127156 0.0115622 9
-3.04786 0.0313821 0.157924 26
-0.650468 0.120792 -0.0329502 90
-0.785694 0.146474 -0.093706 67
-0.657211 0.0107547 -0.0543637 58
-0.789474 0.147465 -0.14904 58
-0.790139 0.0114397 -0.119804 53
-0.789149 0.147955 -0.205627 52
-0.784909 0.0106161 -0.17295 52
-2.78237 0.525809 0.644633 52
-2.79811 0.528298 0.444465 45
-3.06046 0.0310123 0.587641 3
-2.81206 0.530443 0.247304 61
-3.04442 0.0345586 0.369043 11
-0.687873 0.128938 0.0116058 11
-3.0478 0.0367015 0.157924 23
-0.640445 0.120066 -0.0324251 90
-0.785437 0.147845 -0.093706 67
-0.657191 0.0119017 -0.0543637 58
-0.794038 0.149761 -0.149992 55
-0.795056 0.0128687 -0.120587 55
-0.788864 0.14947 -0.205627 52
-0.784889 0.0119861 -0.17295 52
-2.77949 0.540855 0.644633 52
-2.79764 0.543902 0.444856 41
-3.09461 0.04751 0.594313 3
-2.80671 0.545174 0.247087 58
-3.10869 0.0520095 0.376954 2
-0.689642 0.133016 0.0116495 12
-3.05005 0.0532307 0.158055 23
-0.642258 0.123896 -0.0325564 90
-0.784625 0.152093 -0.093706 59
-0.65463 0.0153026 -0.0541462 58
-0.790807 0.153583 -0.149516 55
-0.794977 0.0170314 -0.120587 55
-0.79044 0.154065 -0.206274 50
-0.77507 0.0160914 -0.170704 52
-2.78341 0.546161 0.645756 50
-2.79194 0.547344 0.444075 50
-2.80575 0.550072 0.247087 61
-0.689408 0.134219 0.0116495 12
-3.04497 0.0579345 0.157793 23
-0.64204 0.125017 -0.0325564 90
-0.784386 0.153325 -0.093706 61
-0.654602 0.0164451 -0.0541462 58
-0.792946 0.155439 -0.149992 53
-0.792478 0.0183767 -0.120196 55
-0.79017 0.155444 -0.206274 52
-0.777479 0.0173479 -0.171266 53
-2.77574 0.559762 0.644633 50
-2.79145 0.562443 0.444465 52
-2.80293 0.564266 0.247087 64
-0.68382 0.136717 0.0115622 11
-3.05211 0.074047 0.158185 23
-0.646294 0.129254 -0.0328189 88
-0.786004 0.157923 -0.0940102 59
-0.657 0.0198151 -0.0543637 59
-0.792149 0.15945 -0.149992 53
-0.792371 0.0225258 -0.120196 53
-0.794106 0.160406 -0.207567 53
-0.779813 0.0214704 -0.171827 52
-2.77486 0.564121 0.644633 50
-2.78805 0.566821 0.444075 52
-7.16451 0.164923 1.38498 33
-2.80194 0.569157 0.247087 83
-7.25342 0.177006 0.885339 29
-0.688479 0.138909 0.0116495 9
-3.04699 0.0792519 0.157924 23
-0.643621 0.129883 -0.0326876 83
-0.783296 0.158797 -0.093706 59
-0.654475 0.0209004 -0.0541462 59
-0.791869 0.160833 -0.149992 53
-0.789862 0.0238492 -0.119804 55
-0.789093 0.160819 -0.206274 52
-0.78221 0.0228875 -0.172389 52
-2.76928 0.57911 0.644072 50
-6.89331 0.184198 1.83587 1
-2.7801 0.580885 0.443295 53
-7.15861 0.203548 1.38403 30
-2.81101 0.586859 0.248176 90
-7.25236 0.216248 0.885339 29
-0.687717 0.142632 0.0116495 9
-3.04652 0.0957364 0.157924 23
-0.645352 0.133876 -0.0328189 80
-0.782425 0.163033 -0.093706 61
-0.651863 0.0243664 -0.0539288 59
-0.790987 0.165115 -0.149992 53
-0.794662 0.0281294 -0.120587 55
-0.788212 0.165086 -0.206274 52
-0.777204 0.0269808 -0.171266 52
-2.77313 0.584466 0.645195 52
-6.92919 0.197234 1.84556 1
-2.78644 0.586782 0.444465 56
-7.15088 0.215824 1.3826 30
-2.80755 0.59125 0.247958 105
-7.26689 0.228097 0.887165 30
-0.687467 0.143832 0.0116495 4
-3.04387 0.100443 0.157793 23
-0.640232 0.133969 -0.0325564 73
-0.787023 0.16529 -0.0943145 59
-0.654309 0.0255832 -0.0541462 62
-0.790698 0.166495 -0.149992 55
-0.794612 0.0295163 -0.120587 56
-0.790284 0.166965 -0.20692 50
-0.774726 0.0281284 -0.170704 52
-2.76527 0.597946 0.644072 52
-6.92569 0.232224 1.84491 1
-2.78091 0.600841 0.444075 55
-7.16687 0.252609 1.38594 33
-2.80208 0.604926 0.24774 103
-7.26559 0.266143 0.887165 33
-0.689173 0.147839 0.0116931 3
-3.05078 0.116654 0.158185 24
-0.639522 0.137319 -0.0325564 70
-0.781298 0.168355 -0.093706 59
-0.654166 0.0290088 -0.0541462 64
-0.789845 0.170495 -0.149992 55
-0.799381 0.0338557 -0.12137 56
-0.789429 0.170963 -0.20692 52
-0.777003 0.0322703 -0.171266 52
-2.76185 0.602252 0.64351 50
-6.92527 0.244311 1.84491 1
-2.77745 0.605166 0.443685 41
-7.16392 0.266278 1.38546 30
-2.80102 0.609816 0.24774 91
-7.26016 0.278636 0.886556 33
-0.67912 0.147026 0.0115186 4
-3.04559 0.121787 0.157924 23
-0.631965 0.136835 -0.0321625 62
-0.778579 0.169187 -0.0934018 59
-0.651626 0.030054 -0.0539288 67
-0.789546 0.171873 -0.149992 55
-0.796854 0.0351569 -0.120979 56
-0.786741 0.171958 -0.206274 52
-0.77938 0.0337165 -0.171827 52
-2.7633 0.618252 0.644633 52
-6.93109 0.282066 1.84685 1
-2.77413 0.620185 0.443685 53
-7.16488 0.303887 1.38594 33
-2.78553 0.622241 0.246651 65
-7.25607 0.317806 0.886252 33
-0.68078 0.151127 0.0115622 3
-3.04239 0.138154 0.157793 23
-0.63124 0.140142 -0.0321625 64
-0.782494 0.174486 -0.0940102 59
-0.648971 0.033356 -0.0537113 68
-0.786211 0.175603 -0.149516 53
-0.799119 0.039575 -0.12137 58
-0.781119 0.175011 -0.20498 52
-0.779186 0.0379329 -0.171827 53
-2.7552 0.620981 0.642949 50
-6.92093 0.29376 1.84427 1
-2.76582 0.623393 0.442514 52
-7.15943 0.316178 1.38498 30
-2.7893 0.628199 0.247087 56
-7.25798 0.330581 0.886556 33
-3.03965 0.14335 0.157662 24
-0.633429 0.141794 -0.0322938 61
-0.787028 0.176948 -0.0946187 58
-0.6514 0.0346024 -0.0539288 73
-0.785903 0.176975 -0.149516 53
-0.796582 0.0408581 -0.120979 58
-0.787876 0.177983 -0.20692 52
-0.771817 0.0389701 -0.170143 52
-2.74942 0.635329 0.642387 50
-6.92171 0.330107 1.84491 1
-2.76492 0.638423 0.442904 52
-7.16013 0.35378 1.38546 33
-2.77869 0.641111 0.246433 56
-7.25119 0.368331 0.885948 33
-0.632678 0.145108 -0.0322938 61
-0.783674 0.180505 -0.0943145 58
-0.646235 0.0377589 -0.0534938 74
-0.787356 0.181644 -0.149992 53
-0.796365 0.0448894 -0.120979 58
-0.784582 0.181557 -0.206274 52
-0.771603 0.0430108 -0.170143 53
-2.7508 0.640201 0.642949 50
-6.92112 0.342187 1.84491 1
-2.76392 0.642766 0.442904 55
-7.1595 0.366276 1.38546 35
-2.77757 0.64596 0.246433 65
-7.2506 0.379721 0.885948 33
-0.632424 0.146212 -0.0322938 61
-0.783389 0.181736 -0.0943145 56
-0.651142 0.0391492 -0.0539288 77
-0.787038 0.183018 -0.149992 53
-0.798751 0.0464076 -0.12137 58
-0.791316 0.184584 -0.208214 50
-0.778833 0.0445951 -0.171827 52
-2.74504 0.654029 0.642387 52
-6.92171 0.377343 1.84556 1
-2.76051 0.657229 0.442904 47
-7.15755 0.402509 1.38546 35
-2.78395 0.662321 0.247304 90
-7.25099 0.417821 0.886252 33
-0.63165 0.149522 -0.0322938 61
-0.787253 0.186991 -0.094923 56
-0.648442 0.0424138 -0.0537113 79
-0.788488 0.187571 -0.150468 53
-0.793567 0.0503067 -0.120587 58
-0.788024 0.188022 -0.207567 50
-0.778589 0.0486724 -0.171827 52
-2.74626 0.659389 0.642949 52
-6.92105 0.389423 1.84556 1
-2.75696 0.661468 0.442514 42
-7.15922 0.41639 1.38594 35
-2.78764 0.668342 0.24774 98
-7.25273 0.430621 0.886556 32
-0.633815 0.151208 -0.0324251 61
-0.784514 0.187783 -0.0946187 58
-0.648367 0.0435454 -0.0537113 85
-0.785774 0.18837 -0.149992 53
-0.795943 0.0518372 -0.120979 58
-0.787661 0.189535 -0.207567 50
-0.776071 0.0498902 -0.171266 52
-2.74029 0.673656 0.642387 45
-6.91161 0.426423 1.84362 1
-2.75814 0.677556 0.443295 56
-7.14959 0.453409 1.38451 35
-2.77914 0.682225 0.247304 102
-7.2503 0.469855 0.886556 33
-0.628166 0.153331 -0.0321625 59
-0.781077 0.19143 -0.0943145 56
-0.64813 0.0469397 -0.0537113 85
-0.784743 0.192619 -0.149992 53
-0.793196 0.0558455 -0.120587 58
-0.789002 0.194238 -0.208214 50
-0.773358 0.0539341 -0.170704 53
-2.74159 0.678546 0.642949 44
-6.91808 0.438939 1.84556 1
-2.74988 0.680105 0.442124 55
-7.15124 0.466045 1.38498 35
-2.77553 0.686475 0.247087 107
-7.24707 0.481081 0.886252 33
-3.041 0.206777 0.157924 18
-0.623052 0.153224 -0.0319 59
-0.783184 0.193255 -0.0946187 56
-0.643077 0.047739 -0.0532764 89
-0.793098 0.0572298 -0.120587 58
-0.791005 0.1962 -0.20886 52
-0.775703 0.0553069 -0.171266 53
-2.73328 0.691693 0.641826 39
-6.91336 0.473785 1.84491 1
-2.75586 0.696921 0.443685 56
-7.14634 0.502064 1.38451 35
-2.77444 0.701126 0.247304 102
-7.24693 0.519195 0.886556 33
-3.04236 0.222875 0.158055 20
-0.627081 0.157712 -0.0321625 59
-0.625098 0.0498169 -0.0103405 4
-0.782161 0.197353 -0.0946187 56
-0.645303 0.0512844 -0.0534938 89
-0.79525 0.0615574 -0.120979 58
-0.785322 0.199007 -0.207567 50
-0.780263 0.0597093 -0.172389 52
-2.73206 0.696463 0.641826 50
-6.91493 0.486018 1.84556 1
-2.75703 0.70234 0.444075 56
-7.14536 0.515783 1.38451 35
-2.77562 0.706583 0.247522 90
-7.24354 0.531663 0.886252 35
-2.84839 0.726205 0.0506992 1
-3.03948 0.228002 0.157924 18
-0.626804 0.158806 -0.0321625 59
-0.615039 0.0501721 -0.010166 4
-0.781815 0.198718 -0.0946187 56
-0.642728 0.0522273 -0.0532764 90
-0.790199 0.201152 -0.151421 52
-0.800067 0.0633052 -0.121762 58
-0.787277 0.201116 -0.208214 50
-0.775298 0.0607209 -0.171266 53
-2.73061 0.71185 0.642387 52
-6.90979 0.523244 1.84491 1
-2.74602 0.715376 0.442904 56
-7.14746 0.553564 1.38546 35
-2.76935 0.720961 0.247304 90
-7.23808 0.570653 0.885948 33
-2.82762 0.73669 0.0503938 1
-3.0382 0.244444 0.157924 20
-0.625964 0.162086 -0.0321625 59
-0.61725 0.0536964 -0.0102097 4
-0.78553 0.204202 -0.0952272 55
-0.644929 0.0557881 -0.0534938 90
-0.786725 0.204802 -0.150945 53
-0.797263 0.0673006 -0.12137 58
-0.786213 0.205235 -0.208214 50
-0.774959 0.0649148 -0.171266 53
-2.72478 0.7149 0.641264 36
-6.90887 0.535303 1.84491 1
-2.7425 0.719061 0.442514 56
-7.14403 0.565846 1.38498 35
-2.76809 0.725794 0.247304 90
-7.23965 0.582219 0.886252 33
-2.81183 0.73781 0.050132 1
-3.04279 0.249616 0.158185 20
-0.62568 0.163178 -0.0321625 59
-0.614664 0.0545719 -0.010166 4
-0.785208 0.205435 -0.0952272 55
-0.647313 0.0571143 -0.0537113 90
-0.786367 0.206175 -0.150945 52
-0.794683 0.0684948 -0.120979 58
-0.788188 0.207225 -0.20886 50
-0.774856 0.066132 -0.171266 53
-2.7257 0.73042 0.642387 44
-6.90607 0.570265 1.84491 1
-2.7387 0.733411 0.442514 56
-7.14108 0.601998 1.38498 35
-2.75957 0.738505 0.246869 111
-7.2365 0.620117 0.886252 33
-2.78874 0.74685 0.049783 9
-3.03895 0.265332 0.158055 18
-0.627228 0.1671 -0.0322938 59
-0.61438 0.0576822 -0.010166 3
-0.786518 0.210189 -0.0955314 55
-0.639561 0.059862 -0.0530589 90
-0.782943 0.209514 -0.150468 52
-0.796773 0.0728648 -0.12137 58
-0.787129 0.211212 -0.20886 49
-0.772071 0.0699835 -0.170704 53
-2.72443 0.735176 0.642387 50
-6.91469 0.583122 1.8475 1
-2.7398 0.738833 0.442904 55
-7.14236 0.615916 1.38546 32
-2.75346 0.742022 0.246433 131
-7.23541 0.632746 0.886252 32
-2.78007 0.750246 0.0496521 11
-3.03849 0.270635 0.158055 17
-0.624526 0.167543 -0.0321625 59
-0.614279 0.0587544 -0.010166 3
-0.79094 0.212859 -0.0961399 53
-0.641937 0.0611961 -0.0532764 90
-0.784945 0.211522 -0.150945 52
-0.796645 0.0742554 -0.12137 58
-0.784392 0.212088 -0.208214 50
-0.771948 0.0713309 -0.170704 53
-2.71571 0.748609 0.641264 50
-2.74052 0.75496 0.443685 56
-2.75661 0.758895 0.247087 90
-2.77128 0.763462 0.0495648 14
-2.99721 0.283374 0.155961 17
-0.62364 0.17081 -0.0321625 59
-0.626396 0.0632381 -0.0103842 3
-0.780211 0.214488 -0.094923 52
-0.644087 0.0647873 -0.0534938 90
-0.786154 0.216422 -0.151421 52
-0.796245 0.0784256 -0.12137 58
-0.783271 0.216192 -0.208214 49
-0.769125 0.0752845 -0.170143 53
-2.71453 0.752874 0.641264 50
-2.74171 0.759925 0.444075 56
-2.74808 0.761706 0.246433 64
-2.77235 0.768967 0.0496085 14
-3.02161 0.290431 0.15727 15
-0.628152 0.173236 -0.0324251 58
-0.623796 0.0640947 -0.0103405 3
-0.784654 0.217044 -0.0955314 50
-0.646452 0.0661466 -0.0537113 90
-0.788139 0.218453 -0.151897 50
-0.798565 0.0800467 -0.121762 58
-0.785218 0.21821 -0.20886 47
-0.776282 0.0771701 -0.171827 52
-2.7129 0.767741 0.641826 50
-2.8491 0.278248 0.756706 35
-2.72582 0.770904 0.442124 53
-2.86733 0.284995 0.552849 49
-2.74419 0.775605 0.246433 65
-2.87373 0.289635 0.349876 47
-2.76121 0.780945 0.0494776 15
-2.88838 0.293107 0.150335 42
-0.624834 0.175841 -0.0322938 59
-0.623464 0.0672512 -0.0103405 3
-0.783506 0.22115 -0.0955314 50
-0.646097 0.0695305 -0.0537113 90
-0.784663 0.221768 -0.151421 50
-0.795678 0.0839824 -0.12137 58
-0.786426 0.222844 -0.209507 47
-0.771019 0.0807565 -0.170704 53
-2.70921 0.771806 0.641264 50
-2.85582 0.283925 0.758644 47
-2.72684 0.776338 0.442514 53
-2.86678 0.2905 0.552849 49
-2.75002 0.782442 0.247087 100
-2.87075 0.294401 0.349572 49
-2.76211 0.78693 0.0495212 23
-2.89284 0.298652 0.150597 49
-0.629328 0.178303 -0.0325564 59
-0.625832 0.0685927 -0.0103842 3
-0.780734 0.221835 -0.0952272 50
-0.645975 0.0706581 -0.0537113 90
-0.796072 0.226515 -0.153802 50
-0.793074 0.0851224 -0.120979 58
-0.781355 0.223019 -0.208214 47
-0.768453 0.0818593 -0.170143 52
-2.70032 0.785091 0.640141 50
-2.84944 0.298876 0.757352 47
-2.7226 0.79108 0.442514 53
-2.86278 0.30525 0.552373 49
-2.73857 0.795222 0.246433 201
-2.86664 0.309667 0.349268 49
-2.74835 0.798587 0.0493467 30
-2.88125 0.313236 0.150073 49
-0.630782 0.182294 -0.0326876 58
-0.622966 0.0717109 -0.0103405 3
-0.784286 0.227446 -0.0958357 49
-0.648072 0.0743049 -0.0539288 90
-0.799546 0.232196 -0.154754 49
-0.792602 0.089412 -0.120979 58
-0.770421 0.0862717 -0.170704 53
-2.70142 0.790016 0.640703 50
-2.84651 0.303597 0.756706 47
-2.71885 0.795136 0.442124 52
-2.8598 0.309986 0.551896 50
-2.74196 0.801401 0.246869 107
-2.86363 0.314403 0.348964 49
-2.75175 0.804789 0.0494339 41
-2.87822 0.317994 0.149943 49
-0.630463 0.183394 -0.0326876 58
-0.62284 0.072798 -0.0103405 3
-0.779126 0.227416 -0.0952272 47
-0.647942 0.0754359 -0.0539288 90
-0.794899 0.0910615 -0.12137 58
-0.767847 0.0873561 -0.170143 52
-2.69958 0.804847 0.641264 50
-2.84253 0.317736 0.756059 47
-2.71242 0.808181 0.441734 53
-2.8582 0.324456 0.551896 50
-2.73548 0.814557 0.246651 62
-2.862 0.328893 0.348964 52
-2.74764 0.818706 0.0494339 49
-2.87657 0.332558 0.149943 49
-0.634278 0.188123 -0.0329502 58
-0.627431 0.0765172 -0.0104278 3
-0.647538 0.0788274 -0.0539288 90
-0.791975 0.094805 -0.120979 58
-0.767395 0.0912413 -0.170143 52
-2.70284 0.81096 0.642387 49
-2.84198 0.322697 0.756059 47
-2.71101 0.812914 0.441734 55
-2.85757 0.329943 0.551896 50
-2.7269 0.817182 0.245997 56
-2.86143 0.333887 0.348964 55
-2.87846 0.337865 0.150073 52
-0.629167 0.187791 -0.0326876 58
-0.632262 0.0781885 -0.0105151 3
-0.644925 0.0796704 -0.0537113 90
-0.794261 0.09647 -0.12137 58
-0.772076 0.0931338 -0.171266 53
-2.69608 0.824858 0.641826 49
-2.84019 0.338069 0.756059 49
-2.70893 0.828293 0.442124 55
-2.85093 0.34432 0.550943 50
-2.73196 0.834839 0.246869 55
-2.85958 0.349364 0.348964 58
-2.86916 0.352533 0.149681 49
-0.628176 0.191083 -0.0326876 58
-0.634311 0.0819098 -0.0105587 3
-0.644499 0.0830461 -0.0537113 90
-0.788842 0.100036 -0.120587 58
-0.773979 0.0975995 -0.171827 52
-2.69944 0.830527 0.642949 49
-2.8372 0.34274 0.755413 49
-2.70527 0.83182 0.441734 50
-2.84789 0.349001 0.550466 50
-2.7186 0.835941 0.245779 59
-2.85903 0.353856 0.348964 55
-2.8686 0.35704 0.149681 49
-0.632612 0.193651 -0.0329502 58
-0.646571 0.0845464 -0.0107769 3
-0.63941 0.0835621 -0.0532764 90
-0.791117 0.101713 -0.120979 58
-0.76657 0.0979346 -0.170143 52
-2.69738 0.84538 0.64351 49
-2.83063 0.3565 0.754121 49
-2.70323 0.846713 0.442124 49
-2.84608 0.363411 0.550466 50
-2.71434 0.84969 0.245779 127
-2.85467 0.368507 0.348659 53
-2.86917 0.372372 0.149812 49
-0.622063 0.193967 -0.0324251 56
-0.651094 0.0884549 -0.0108641 3
-0.643904 0.0875435 -0.0537113 90
-0.793023 0.106166 -0.12137 58
-0.77088 0.102559 -0.171266 52
-2.70286 0.852287 0.645195 52
-2.83 0.36144 0.754121 49
-2.70646 0.852916 0.442904 47
-2.84782 0.369186 0.550943 52
-2.71285 0.854426 0.245779 98
-2.85156 0.373171 0.348355 49
-2.86356 0.376736 0.14955 49
-0.621723 0.195053 -0.0324251 56
-0.650938 0.0895911 -0.0108641 3
-0.64375 0.0886672 -0.0537113 90
-0.792837 0.10755 -0.12137 58
-0.7707 0.103905 -0.171266 52
-2.69821 0.866899 0.645195 52
-2.82801 0.376747 0.754121 50
-2.70416 0.868303 0.443295 47
-2.84584 0.384092 0.550943 50
-2.70819 0.869091 0.245779 53
-2.8495 0.388594 0.348355 49
-2.86643 0.392893 0.149812 49
-0.627823 0.2006 -0.0328189 58
-0.655398 0.0937841 -0.0109514 3
-0.643277 0.0920366 -0.0537113 90
-0.787369 0.11104 -0.120587 58
-0.772541 0.108396 -0.171827 52
-2.69453 0.870386 0.644633 52
-2.82495 0.381363 0.753475 49
-2.70279 0.87255 0.443295 49
-2.84274 0.38873 0.550466 50
-2.84889 0.393069 0.348355 49
-2.85839 0.396379 0.149419 49
-0.627472 0.201695 -0.0328189 58
-0.657709 0.0952684 -0.010995 3
-0.643116 0.0931592 -0.0537113 90
-0.787174 0.112414 -0.120587 58
-0.77237 0.10961 -0.171827 52
-2.68531 0.882958 0.64351 49
-2.82538 0.395987 0.754121 49
-2.70522 0.889006 0.444465 50
-2.8383 0.402773 0.54999 49
-2.84433 0.407633 0.348051 47
-2.85133 0.410636 0.149157 44
-0.63352 0.207322 -0.0332127 58
-0.662168 0.0993023 -0.0110823 4
-0.640153 0.0961735 -0.0534938 90
-0.78413 0.116187 -0.120196 56
-0.771785 0.113652 -0.171827 52
-2.68145 0.886878 0.642949 49
-2.82468 0.400918 0.754121 49
-2.70366 0.893726 0.444465 55
-2.83509 0.407876 0.549513 49
-2.84116 0.412244 0.347747 47
-0.628418 0.206857 -0.0329502 58
-0.666942 0.101173 -0.0111695 4
-0.644914 0.0980028 -0.0539288 90
-0.788814 0.118258 -0.120979 58
-0.771586 0.114999 -0.171827 52
-2.67661 0.901373 0.642949 47
-2.82008 0.415847 0.753475 47
-2.69879 0.908341 0.444465 56
-2.83049 0.422356 0.549036 49
-2.83398 0.426879 0.347138 47
-2.63104 0.398518 0.137644 90
-0.632058 0.21174 -0.0332127 58
-0.683688 0.107375 -0.011475 4
-0.641929 0.101009 -0.0537113 90
-0.785742 0.122023 -0.120587 56
-0.770952 0.119172 -0.171827 52
-2.66597 0.902447 0.640703 47
-2.81696 0.420416 0.752828 47
-2.69736 0.912579 0.444465 50
-2.8249 0.426571 0.548083 49
-2.8284 0.430592 0.34653 49
-0.626959 0.211239 -0.0329502 58
-0.681028 0.108193 -0.0114313 4
-0.63929 0.101756 -0.0534938 90
-0.783086 0.123025 -0.120196 55
-0.768355 0.120022 -0.171266 52
-2.6589 0.915599 0.640141 47
-2.81002 0.433939 0.751536 47
-2.68554 0.924276 0.443295 47
-2.82513 0.441238 0.54856 50
-2.83101 0.446159 0.347138 49
-2.81326 0.445386 0.147457 39
-0.625844 0.214519 -0.0329502 58
-0.69035 0.113189 -0.0116058 4
-0.633827 0.10433 -0.0530589 90
-0.779991 0.126743 -0.119804 55
-0.762901 0.123296 -0.170143 52
-2.65039 0.917843 0.638457 49
-2.80688 0.438475 0.75089 47
-2.67926 0.927344 0.442514 45
-2.82427 0.446661 0.54856 50
-2.82287 0.44994 0.346225 50
-2.82727 0.452639 0.148242 39
-0.620752 0.213973 -0.0326876 56
-0.687682 0.114002 -0.0115622 3
-0.636104 0.105826 -0.0532764 90
-0.782208 0.128489 -0.120196 55
-0.769905 0.125761 -0.171827 52
-2.65228 0.934602 0.640141 50
-2.80446 0.453655 0.75089 49
-2.67653 0.942648 0.442904 45
-2.81221 0.459875 0.546653 47
-2.81795 0.464807 0.345921 49
-2.83463 0.469545 0.148765 56
-0.621977 0.218052 -0.0328189 56
-0.689522 0.118126 -0.0116058 4
-0.633084 0.108752 -0.0530589 90
-0.781524 0.132583 -0.120196 55
-0.769213 0.129925 -0.171827 50
-2.64622 0.937138 0.639018 50
-2.80367 0.458549 0.75089 49
-2.66341 0.942725 0.440953 45
-2.81624 0.465575 0.547607 50
-2.81722 0.469233 0.345921 50
-2.84128 0.47522 0.149157 79
-0.621596 0.219137 -0.0328189 56
-0.694246 0.120148 -0.0116931 4
-0.640264 0.11108 -0.0537113 90
-0.781292 0.133947 -0.120196 55
-0.771412 0.131527 -0.172389 50
-2.63669 0.949328 0.637895 50
-2.79893 0.472336 0.750244 49
-2.65611 0.955821 0.440563 45
-2.81143 0.479415 0.54713 50
-2.81717 0.484394 0.346225 53
-1.44898 0.520765 0.0262659 4
-2.83383 0.489249 0.148896 67
-0.61813 0.221433 -0.0326876 56
-0.691166 0.123239 -0.0116495 4
-0.637238 0.113899 -0.0534938 88
-0.778146 0.137621 -0.119804 55
-0.768311 0.135158 -0.171827 50
-2.63978 0.955129 0.639018 50
-2.79572 0.476818 0.749597 49
-2.65212 0.959614 0.440173 47
-2.81059 0.484321 0.54713 50
-2.82121 0.490151 0.346834 58
-1.44572 0.522441 0.0262222 4
-2.83543 0.494619 0.149027 76
-0.622437 0.224214 -0.0329502 56
-0.693412 0.124871 -0.0116931 8
-1.42808 0.51717 -0.181936 4
-0.637039 0.115011 -0.0534938 89
-0.777904 0.138979 -0.119804 55
-0.768074 0.136498 -0.171827 52
-2.63457 0.969397 0.639018 49
-2.78842 0.490621 0.748305 49
-2.64706 0.973487 0.440173 49
-2.8056 0.498605 0.546653 52
-2.8186 0.504916 0.346834 59
-1.44297 0.530004 0.0262222 4
-2.83526 0.509896 0.149157 86
-0.625899 0.229306 -0.0332127 55
-0.690288 0.128061 -0.0116495 8
-1.42535 0.52464 -0.181936 4
-0.643762 0.119769 -0.0541462 88
-0.772304 0.142186 -0.119021 55
-0.772147 0.141366 -0.17295 50
-2.63288 0.973994 0.639018 50
-2.78518 0.495068 0.747659 49
-2.64072 0.97639 0.439392 49
-2.80464 0.503991 0.546653 52
-2.82016 0.510273 0.347138 59
-1.44429 0.533642 0.0262659 4
-2.827 0.513518 0.148765 58
-0.625498 0.230398 -0.0332127 56
-0.694984 0.130152 -0.0117367 8
-1.41978 0.5254 -0.181327 4
-0.641101 0.12045 -0.0539288 85
-1.28938 0.477514 -0.259987 4
-0.776915 0.144406 -0.119804 55
-1.01314 0.375876 -0.279989 4
-0.771899 0.142713 -0.17295 50
-2.62757 0.988225 0.639018 50
-2.78484 0.510562 0.748305 49
-2.64002 0.992404 0.440173 52
-2.80196 0.518669 0.546653 52
-2.81004 0.524171 0.346225 55
-1.44148 0.541197 0.0262659 4
-2.81927 0.527895 0.148503 55
-0.624283 0.23367 -0.0332127 58
-0.696727 0.134367 -0.0117804 8
-1.42156 0.534826 -0.181936 4
-0.640462 0.123805 -0.0539288 80
-1.29826 0.488819 -0.262367 4
-0.778576 0.148921 -0.120196 55
-0.999863 0.376901 -0.276756 4
-0.768719 0.146446 -0.172389 52
-2.62601 0.992351 0.639018 50
-2.78632 0.515857 0.748951 50
-2.63384 0.994802 0.439392 52
-2.79864 0.523112 0.546177 50
-2.80677 0.52813 0.345921 53
-1.44754 0.546366 0.0263968 4
-2.82089 0.532782 0.148634 55
-0.619205 0.232991 -0.0329502 56
-0.689121 0.1342 -0.0116495 8
-1.42072 0.537058 -0.181936 4
-0.640245 0.124923 -0.0539288 79
-1.29511 0.490213 -0.261891 4
-0.775888 0.149826 -0.119804 53
-1.00372 0.380363 -0.278049 4
-0.766093 0.147209 -0.171827 50
-2.61851 1.00521 0.638457 50
-2.7813 0.529506 0.748305 49
-2.62629 1.00769 0.439002 52
-2.79113 0.536352 0.545224 47
-1.47922 0.566632 0.135527 4
-2.80397 0.542818 0.345921 52
-1.44709 0.554582 0.0264404 4
-2.81316 0.546601 0.148372 55
-0.622678 0.237913 -0.0332127 56
-0.685979 0.137213 -0.0116058 8
-1.42484 0.547165 -0.182848 4
-0.644495 0.129105 -0.0543637 79
-1.29948 0.49941 -0.26332 4
-0.772668 0.153421 -0.119413 52
-1.00403 0.386309 -0.278696 4
-0.765312 0.151218 -0.171827 50
-2.6192 1.0102 0.639018 50
-2.77563 0.533456 0.747013 50
-2.62914 1.01406 0.439783 52
-2.7926 0.541686 0.5457 50
-1.48288 0.571007 0.135963 4
-2.80058 0.54724 0.345617 50
-1.45079 0.558908 0.0265277 8
-2.81465 0.551986 0.148503 59
-0.624591 0.2399 -0.033344 58
-0.680831 0.137454 -0.0115186 8
-1.41694 0.546964 -0.181936 4
-0.641824 0.129754 -0.0541462 77
-1.29632 0.50079 -0.262844 3
-0.779671 0.15618 -0.120587 55
-1.00336 0.38806 -0.278696 4
-0.767439 0.153015 -0.172389 50
-2.61142 1.02347 0.638457 50
-2.77517 0.548446 0.747659 49
-2.61689 1.0251 0.438612 53
-2.78973 0.5563 0.5457 50
-1.47059 0.575127 0.135091 4
-2.79768 0.561896 0.345617 52
-1.43853 0.562846 0.0263531 4
-2.81662 0.567694 0.148765 65
-0.623283 0.243276 -0.033344 58
-0.685004 0.141998 -0.0116058 4
-1.42098 0.557099 -0.182848 4
-0.636229 0.132247 -0.0537113 74
-1.30282 0.511166 -0.264748 4
-0.776421 0.159777 -0.120196 52
-0.996818 0.391537 -0.277403 4
-0.769017 0.157505 -0.17295 52
-2.60737 1.02713 0.637895 49
-2.77421 0.553288 0.747659 49
-2.61969 1.03148 0.439392 53
-2.79347 0.562616 0.546653 50
-1.47422 0.579519 0.135527 4
-2.80156 0.567756 0.346225 56
-1.44442 0.568358 0.026484 4
-2.82052 0.573596 0.149027 88
-0.622858 0.244363 -0.033344 58
-0.692106 0.144679 -0.0117367 4
-1.42001 0.559578 -0.182848 4
-0.640879 0.134343 -0.0541462 73
-1.3042 0.514341 -0.265224 3
-0.773721 0.160645 -0.119804 53
-0.993819 0.39256 -0.276756 3
-0.766352 0.158369 -0.172389 52
-2.6063 1.04304 0.639018 50
-2.76644 0.567328 0.746366 49
-2.6072 1.04288 0.438222 53
-2.78327 0.575756 0.545224 50
-1.478 0.590264 0.136181 4
-2.80087 0.583407 0.34653 61
-1.44143 0.575913 0.026484 4
-2.81248 0.587835 0.148765 93
-0.630839 0.251336 -0.0338691 58
-0.686418 0.147405 -0.0116495 3
-1.41466 0.566328 -0.182544 4
-0.640167 0.137697 -0.0541462 73
-1.30368 0.522305 -0.265701 3
-0.770451 0.164194 -0.119413 52
-0.98503 0.395052 -0.274816 3
-0.76787 0.163004 -0.17295 52
-2.60917 1.04895 0.640141 50
-2.77018 0.573126 0.747659 49
-2.60327 1.04606 0.437832 53
-2.78466 0.58111 0.5457 52
-1.47466 0.591913 0.135963 4
-2.79995 0.587806 0.34653 65
-1.44506 0.580295 0.0265713 4
-2.81156 0.592252 0.148765 90
-0.625768 0.250571 -0.0336066 58
-0.688606 0.149115 -0.0116931 3
-1.42527 0.573189 -0.184065 4
-0.63505 0.137794 -0.0537113 70
-1.29594 0.521823 -0.264272 3
-0.77258 0.166043 -0.119804 52
-0.988816 0.398582 -0.276109 4
-0.760457 0.162726 -0.171266 52
-2.59913 1.06075 0.639018 50
-2.76488 0.586642 0.747013 50
-2.60233 1.06154 0.438612 55
-2.78169 0.595197 0.5457 52
-1.47856 0.602193 0.136617 4
-2.79684 0.602458 0.34653 68
-1.43979 0.586657 0.0265277 4
-2.81086 0.607488 0.148896 90
-0.622137 0.252899 -0.0334753 58
-1.41766 0.578764 -0.183457 4
-0.63919 0.142163 -0.0541462 70
-1.29555 0.529306 -0.264748 4
-0.7717 0.170086 -0.119804 53
-0.982318 0.401748 -0.274816 4
-0.76436 0.16772 -0.172389 52
-2.59728 1.06529 0.639018 50
-2.76149 0.590966 0.746366 49
-2.59818 1.06514 0.438222 52
-2.77814 0.600022 0.545224 52
-1.46829 0.600991 0.135745 4
-2.79578 0.607339 0.34653 59
-1.44328 0.591319 0.0266149 4
-2.8098 0.612393 0.148896 76
-0.621694 0.253985 -0.0334753 58
-1.41665 0.581238 -0.183457 4
-0.641375 0.143805 -0.0543637 68
-1.30597 0.536238 -0.267129 3
-0.771402 0.171432 -0.119804 52
-0.983777 0.404554 -0.275463 4
-0.764066 0.169054 -0.172389 52
-2.59373 1.08026 0.63958 49
-2.76297 0.606926 0.747659 50
-2.59694 1.08108 0.439002 52
-2.77496 0.61456 0.545224 50
-1.46732 0.609885 0.135963 4
-2.78761 0.621385 0.345921 55
-1.44017 0.598868 0.0266149 4
-2.79669 0.625424 0.148372 55
-0.624964 0.259158 -0.0337378 58
-1.41577 0.58985 -0.183761 4
-0.640614 0.147162 -0.0543637 67
-1.30305 0.543297 -0.267129 3
-0.770494 0.175469 -0.119804 52
-0.988328 0.412499 -0.277403 3
-0.76314 0.173185 -0.172389 50
-2.75483 0.610193 0.74572 49
-2.59296 1.08421 0.438612 50
-2.77388 0.619402 0.545224 49
-1.46395 0.611483 0.135745 4
-2.77936 0.624144 0.345008 49
-1.42759 0.596552 0.0263968 4
-2.79327 0.629271 0.148242 55
-0.624511 0.260249 -0.0337378 58
-1.40798 0.589193 -0.182848 4
-0.637925 0.147735 -0.0541462 65
-1.3021 0.54557 -0.267129 3
-0.765367 0.175738 -0.119021 52
-0.992058 0.416098 -0.278696 3
-0.77238 0.176496 -0.174635 52
-2.75406 0.624659 0.746366 49
-2.58725 1.09777 0.438612 52
-2.77071 0.633434 0.545224 50
-1.46542 0.620832 0.136181 4
-2.78331 0.640345 0.345921 49
-1.42916 0.605725 0.026484 4
-2.7875 0.643331 0.148111 56
-0.627735 0.265469 -0.0340004 58
-1.40716 0.59753 -0.183153 4
-0.641998 0.152187 -0.0545811 64
-1.29481 0.550229 -0.266177 3
-0.771657 0.181394 -0.120196 50
-0.989939 0.421113 -0.278696 3
-0.766695 0.179457 -0.173512 50
-2.74825 0.628396 0.745074 49
-2.58533 1.10228 0.438612 52
-2.7671 0.638205 0.544747 50
-1.46434 0.623388 0.136181 4
-2.77736 0.644089 0.345313 55
-1.42799 0.608467 0.026484 8
-2.78638 0.648195 0.148111 56
-0.629566 0.267546 -0.0341317 58
-1.41752 0.604864 -0.184674 4
-0.636878 0.152185 -0.0541462 65
-1.30287 0.556353 -0.268081 3
-0.766527 0.181631 -0.119413 52
-0.989128 0.423013 -0.278696 4
-0.768755 0.181339 -0.174073 49
-2.74481 0.643256 0.745074 49
-2.76611 0.653245 0.545224 52
-1.46551 0.633282 0.136617 4
-2.77866 0.660245 0.345921 65
-1.42479 0.615936 0.026484 4
-2.79012 0.664985 0.148503 80
-0.628157 0.270838 -0.0341317 58
-1.4165 0.613513 -0.184978 4
-0.64092 0.156665 -0.0545811 62
-1.30209 0.564372 -0.268558 4
-0.767969 0.186209 -0.119804 50
-0.982472 0.426258 -0.277403 3
-0.765391 0.184938 -0.173512 50
-2.74369 0.648046 0.745074 50
-2.76496 0.658071 0.545224 52
-1.46212 0.634845 0.136399 4
-2.77762 0.664609 0.345921 61
-1.43288 0.622413 0.0266585 4
-2.7915 0.669946 0.148634 94
-0.627683 0.271934 -0.0341317 58
-1.41781 0.616729 -0.185282 4
-0.6358 0.156628 -0.0541462 62
-1.28986 0.561733 -0.266177 3
-0.765241 0.186978 -0.119413 50
-0.977302 0.426036 -0.276109 4
-0.769841 0.187263 -0.174635 50
-2.8426 1.25397 0.708086 27
-2.74037 0.661925 0.745074 44
-2.72077 1.19961 0.464367 15
-2.75921 0.671481 0.544747 49
-1.46117 0.643242 0.136617 4
-2.7741 0.679143 0.345921 61
-1.43199 0.630667 0.0267022 4
-2.78795 0.684553 0.148634 90
-0.623967 0.274208 -0.0340004 58
-1.41229 0.623141 -0.184978 4
-0.639811 0.161136 -0.0545811 62
-1.28924 0.569248 -0.266653 4
-0.76665 0.191566 -0.119804 52
-0.975133 0.430978 -0.276109 4
-0.766482 0.190718 -0.174073 50
-2.81591 1.24806 0.701909 29
-2.74156 0.667274 0.74572 35
-2.72093 1.20536 0.464757 11
-2.7603 0.677358 0.545224 52
-1.45777 0.644782 0.136399 4
-2.7705 0.683394 0.345617 79
-1.42621 0.631388 0.0266149 8
-2.78433 0.688822 0.148503 90
-0.625769 0.27631 -0.0341317 58
-1.4112 0.625605 -0.184978 4
-0.639528 0.162252 -0.0545811 62
-1.28376 0.569502 -0.265701 3
-0.768713 0.193492 -0.120196 50
-0.972098 0.431865 -0.275463 3
-0.761415 0.1909 -0.17295 49
-2.76247 1.24228 0.690117 24
-2.73791 0.682097 0.74572 45
-2.72112 1.2231 0.465928 12
-2.75672 0.691802 0.545224 50
-1.45199 0.651638 0.136181 4
-2.76917 0.698977 0.345921 61
-1.432 0.64295 0.0267894 8
-2.7854 0.705094 0.148765 80
-0.622038 0.278557 -0.0340004 58
-1.4078 0.633231 -0.184978 4
-0.63867 0.165599 -0.0545811 62
-1.27619 0.57442 -0.264748 3
-0.765294 0.196914 -0.119804 50
-0.972024 0.437944 -0.276109 3
-0.767461 0.196788 -0.174635 50
-2.74276 1.23859 0.685625 53
-2.73437 0.686291 0.745074 45
-2.7282 1.23144 0.467489 17
-2.75313 0.696015 0.544747 52
-1.45085 0.654172 0.136181 4
-2.76326 0.702112 0.345313 55
-1.41949 0.640299 0.0265713 4
-2.77945 0.708243 0.148503 79
-0.623825 0.280672 -0.0341317 58
-1.40454 0.634418 -0.184674 4
-0.63838 0.166713 -0.0545811 59
-1.27966 0.578674 -0.265701 4
-0.764949 0.198249 -0.119804 50
-0.96686 0.437643 -0.274816 3
-0.762426 0.196805 -0.173512 49
-2.73624 1.25293 0.685625 47
-2.73086 0.700122 0.745074 44
-2.71498 1.24262 0.466318 53
-2.74957 0.709941 0.544747 50
-1.44752 0.661507 0.136181 4
-2.76195 0.71719 0.345617 61
-1.42078 0.649558 0.0266585 8
-2.7757 0.722787 0.148503 67
-0.622347 0.283934 -0.0341317 58
-1.40796 0.644869 -0.185587 4
-0.637498 0.170053 -0.0545811 59
-1.27448 0.584118 -0.265224 3
-0.766292 0.202869 -0.120196 50
-0.962439 0.441521 -0.274169 3
-0.768463 0.202614 -0.175197 49
-2.70307 1.24344 0.677763 29
-2.7273 0.704287 0.744428 42
-2.69486 1.2391 0.463196 32
-2.7482 0.715218 0.544747 52
-1.45541 0.668196 0.137052 4
-2.76069 0.72201 0.345617 68
-1.41953 0.652285 0.0266585 4
-2.77927 0.728889 0.148765 79
-0.626385 0.287109 -0.0343942 58
-1.40458 0.646286 -0.185282 4
-0.637201 0.171166 -0.0545811 58
-1.28237 0.590457 -0.267129 3
-0.763547 0.203585 -0.119804 50
-0.972548 0.448438 -0.277403 3
-0.76575 0.203344 -0.174635 50
-2.67423 1.24773 0.672148 29
-2.72812 0.720258 0.74572 44
-2.67469 1.24739 0.460855 29
-2.74679 0.730224 0.545224 52
-1.44275 0.671848 0.136181 4
-2.75674 0.736936 0.345617 73
-1.4093 0.656536 0.0265277 4
-2.76805 0.741988 0.148372 90
-0.624873 0.290385 -0.0343942 58
-1.41455 0.660185 -0.187108 4
-0.638702 0.175141 -0.0547986 56
-1.27471 0.595305 -0.266177 4
-0.767243 0.208848 -0.120587 50
-0.963628 0.450448 -0.275463 3
-0.771704 0.209355 -0.17632 49
-2.64801 1.24055 0.665971 52
-2.72452 0.724402 0.745074 47
-2.64813 1.24006 0.456562 30
-2.74551 0.735017 0.545224 52
-1.44608 0.676479 0.136617 4
-2.75558 0.741265 0.345617 58
-1.41268 0.661118 0.0266149 4
-2.77411 0.748274 0.148765 105
-0.622105 0.290415 -0.0342629 58
-1.40677 0.659241 -0.186195 4
-0.633585 0.174965 -0.0543637 56
-1.27145 0.596484 -0.265701 4
-0.967209 0.454188 -0.276756 3
-0.766666 0.209312 -0.175197 50
-2.65907 1.26277 0.670464 59
-2.71849 0.737554 0.744428 44
-2.64383 1.25497 0.456953 58
-2.73702 0.747619 0.544271 50
-1.44264 0.68379 0.136617 4
-2.74927 0.75503 0.345313 52
-1.40931 0.668259 0.0266149 4
-2.76775 0.76213 0.148634 90
-0.620576 0.293668 -0.0342629 58
-1.40106 0.665531 -0.185891 4
-0.635062 0.178938 -0.0545811 56
-1.2662 0.601856 -0.265224 3
-0.960539 0.456996 -0.275463 4
-0.765559 0.213324 -0.175197 50
-2.65906 1.26846 0.671025 59
-2.7172 0.742297 0.744428 47
-2.65055 1.26384 0.458513 58
-2.73795 0.753519 0.544747 49
-1.43695 0.684162 0.136181 4
-2.74795 0.759827 0.345313 56
-1.40803 0.670964 0.0266149 4
-2.76642 0.76696 0.148634 74
-0.61781 0.293674 -0.0341317 56
-1.3999 0.667976 -0.185891 4
-0.63955 0.18137 -0.055016 56
-1.25851 0.600886 -0.263796 4
-0.974902 0.466152 -0.279989 4
-0.765186 0.21466 -0.175197 49
-2.65655 1.28495 0.672148 61
-2.71314 0.756988 0.744428 49
-2.6459 1.27923 0.458904 58
-2.73396 0.767845 0.544747 50
-1.43995 0.69518 0.136835 4
-2.7438 0.774684 0.345313 73
-1.41349 0.682683 0.0267894 4
-2.75982 0.78124 0.148503 59
-0.620758 0.299082 -0.0343942 56
-1.39403 0.674457 -0.185587 4
-0.636195 0.184042 -0.0547986 56
-1.25965 0.60983 -0.264748 4
-0.968104 0.469138 -0.278696 4
-0.761667 0.21814 -0.174635 45
-2.65672 1.29018 0.67271 62
-2.70949 0.761073 0.743782 49
-2.65477 1.28925 0.460855 61
-2.73262 0.772615 0.544747 50
-1.4365 0.696604 0.136617 4
-2.74483 0.780146 0.345617 76
-1.4123 0.685149 0.0267894 4
-2.75845 0.786056 0.148503 67
-0.62248 0.301257 -0.0345255 56
-1.39285 0.676889 -0.185587 4
-0.635872 0.185152 -0.0547986 55
-1.263 0.614178 -0.265701 3
-0.969454 0.471887 -0.279342 4
-2.65625 1.30777 0.674394 71
-2.70547 0.77525 0.743782 49
-2.6502 1.30422 0.461245 67
-2.72854 0.786912 0.544747 50
-1.4373 0.706316 0.137052 4
-2.73832 0.79382 0.345313 55
-1.41766 0.696954 0.026964 4
-2.7543 0.800488 0.148503 90
-0.620894 0.304512 -0.0345255 56
-1.39597 0.687468 -0.186499 4
-0.632502 0.187787 -0.0545811 55
-1.25096 0.616435 -0.263796 3
-0.962641 0.474814 -0.278049 4
-2.65856 1.3141 0.675517 82
-2.70411 0.77997 0.743782 49
-2.65257 1.31058 0.462025 77
-2.72244 0.790313 0.543794 50
-1.43606 0.708824 0.137052 4
-2.72754 0.795358 0.344096 50
-1.40972 0.696101 0.0268331 4
-2.75544 0.80551 0.148634 90
-0.615887 0.30338 -0.0342629 58
-1.38599 0.685253 -0.185282 4
-0.636956 0.190282 -0.055016 55
-1.25428 0.620799 -0.264748 3
-0.968298 0.479718 -0.279989 4
-2.656 1.33019 0.67664 86
-2.70245 0.794324 0.744428 47
-2.65229 1.32776 0.463196 88
-2.71841 0.804082 0.543794 49
-1.43468 0.717199 0.13727 4
-2.7281 0.811035 0.344704 50
-1.40842 0.704347 0.0268767 4
-2.75358 0.820635 0.148765 90
-0.620985 0.309958 -0.0346568 58
-1.3846 0.693614 -0.185587 4
-0.633563 0.192906 -0.0547986 55
-1.23797 0.620528 -0.261891 3
-0.961543 0.482441 -0.278696 4
-2.62757 1.32167 0.669902 38
-2.70337 0.79972 0.745074 45
-2.63012 1.3224 0.459684 45
-2.72156 0.810693 0.544747 52
-1.42675 0.716344 0.136617 4
-2.7243 0.815087 0.3444 50
-1.41153 0.709298 0.026964 4
-2.74257 0.822587 0.148242 56
-0.622672 0.312165 -0.034788 58
-1.38782 0.698264 -0.186195 4
-0.635612 0.194724 -0.055016 53
-1.23031 0.61937 -0.260463 3
-0.958461 0.483196 -0.278049 4
-2.59651 1.32369 0.663725 33
-2.69669 0.813642 0.744428 45
-2.59873 1.32427 0.455392 35
-2.71493 0.824223 0.544271 49
-1.43617 0.730841 0.137924 4
-2.7246 0.831256 0.345008 64
-1.41447 0.720087 0.0270949 4
-0.618806 0.314286 -0.0346568 56
-1.38181 0.704633 -0.185891 4
-0.632201 0.197325 -0.0547986 53
-1.22913 0.627135 -0.260939 3
-2.01175 0.615488 -0.328091 12
-0.94947 0.484905 -0.276109 4
-2.57708 1.31888 0.659233 32
-2.70221 0.82044 0.746366 49
-2.57907 1.31934 0.45227 33
-2.70879 0.827534 0.543317 47
-1.43046 0.731076 0.137488 4
-2.71617 0.833363 0.344096 90
-1.40876 0.720275 0.0270076 4
-0.622699 0.317643 -0.0349193 58
-1.3807 0.706803 -0.185891 4
-0.636618 0.199886 -0.0552335 53
-1.22366 0.627036 -0.259987 3
-2.00359 0.616835 -0.326917 12
-0.952917 0.488771 -0.277403 4
-2.55068 1.32225 0.654179 33
-2.69571 0.833397 0.74572 49
-2.55459 1.32373 0.449148 33
-2.7116 0.843409 0.544747 47
-1.42674 0.738307 0.137488 4
-2.71414 0.848309 0.3444 49
-1.4051 0.727396 0.0270076 4
-0.616597 0.318598 -0.0346568 58
-1.37698 0.714022 -0.185891 4
-0.633185 0.202475 -0.055016 53
-1.99562 0.62585 -0.326134 12
-0.946147 0.491356 -0.276109 4
-2.52677 1.31544 0.648564 33
-2.69656 0.838814 0.746366 50
-2.53037 1.31678 0.445246 32
-2.70764 0.847884 0.544271 45
-1.43208 0.744247 0.138142 4
-2.71502 0.853786 0.344704 49
-1.39705 0.726627 0.0268767 4
-0.620467 0.321983 -0.0349193 56
-1.37793 0.717573 -0.186195 4
-0.630455 0.202834 -0.0547986 53
-1.98746 0.627119 -0.324959 14
-0.949481 0.495412 -0.277403 4
-2.50453 1.32113 0.644633 33
-2.69198 0.853392 0.746366 50
-2.50356 1.32007 0.441734 33
-2.71252 0.865016 0.546177 47
-2.708 0.86771 0.3444 45
-1.39102 0.732764 0.0268331 4
-0.616565 0.324061 -0.034788 56
-1.37403 0.725017 -0.186195 4
-0.627012 0.205374 -0.0545811 49
-1.97944 0.636017 -0.324176 12
-0.94474 0.499245 -0.276756 4
