# .PCD v0.7 - Point Cloud Data file format
VERSION 0.7
FIELDS x y z intensity
SIZE 4 4 4 4
TYPE F F F F
COUNT 1 1 1 1
WIDTH 1537
HEIGHT 1
VIEWPOINT 0 0 0 1 0 0 0
POINTS 1537
DATA ascii
-2.41979 -1.9446 -0.821862 8
-1.1675 -1.33895 -0.401492 9
-6.68231 -5.32859 1.96198 9
-6.65248 -5.30669 1.33925 11
-4.77647 -5.45069 1.40071 8
-4.77144 -5.42968 0.881993 9
-2.7117 -2.16417 0.059949 32
-0.709735 -0.567535 -0.0459465 33
-1.40814 -1.59392 -0.0365192 14
-2.71305 -2.16216 -0.421069 35
-1.40535 -1.12006 -0.341887 12
-1.36741 -1.54974 -0.322219 14
-1.16005 -1.31633 -0.396438 4
-6.71356 -5.33627 1.96871 11
-3.31235 -3.77757 1.33506 2
-6.71006 -5.33348 1.34901 9
-4.78436 -5.44051 1.40023 8
-4.81863 -5.46417 0.88899 4
-2.72917 -2.17032 0.0602544 29
-0.710725 -0.566296 -0.0459465 33
-1.41919 -1.60083 -0.0367373 14
-2.73043 -2.16822 -0.423198 35
-1.37338 -1.55106 -0.323002 14
-1.14625 -1.29601 -0.390823 3
-3.30008 -3.72399 1.32213 1
-6.75925 -5.31506 1.3533 9
-4.83884 -5.44475 1.40786 4
-4.89337 -5.49077 0.897509 4
-2.75229 -2.16527 0.0605162 20
-0.711717 -0.561024 -0.0458152 32
-1.43088 -1.59711 -0.0368246 14
-2.76127 -2.16921 -0.426241 32
-1.14331 -1.27907 -0.387454 4
-6.97504 -5.46502 2.03441 9
-3.27612 -3.68391 1.30986 1
-6.92893 -5.43084 1.38569 8
-4.93648 -5.53526 1.4336 8
-0.659864 -0.518788 0.0703783 26
-4.95818 -5.54601 0.907853 11
-2.76197 -2.16508 0.0606471 14
-0.712695 -0.559781 -0.0458152 33
-1.437 -1.59834 -0.0369118 14
-2.77249 -2.17099 -0.427458 17
-1.13397 -1.26454 -0.383523 3
-3.29795 -3.67088 1.31115 4
-5.00055 -5.55034 1.44408 11
-0.662481 -0.515441 0.0703783 26
-5.00045 -5.53471 0.910287 11
-2.77289 -2.15108 0.0606471 11
-0.709695 -0.551455 -0.0454214 33
-1.4501 -1.59661 -0.0370427 14
-1.14221 -1.2604 -0.384085 4
-3.28335 -3.64178 1.30275 4
-5.02271 -5.55347 1.44742 12
-0.66338 -0.514284 0.0703783 23
-5.02176 -5.53885 0.912417 11
-0.70868 -0.54869 -0.0452901 33
-1.45624 -1.59777 -0.03713 14
-1.13951 -1.25298 -0.3824 4
-3.28188 -3.60073 1.29435 4
-5.05834 -5.53435 1.44932 11
-5.06338 -5.52441 0.914546 9
-0.711543 -0.544972 -0.0452901 33
-1.47162 -1.59724 -0.0373045 14
-1.1512 -1.25219 -0.384085 3
-2.84769 -2.16877 0.817022 9
-3.28328 -3.58965 1.29241 8
-5.08954 -5.54904 1.45552 11
-5.08884 -5.53473 0.917589 9
-0.710506 -0.542218 -0.0451588 33
-1.47441 -1.59467 -0.0373045 14
-1.14493 -1.24141 -0.381277 4
-2.86484 -2.15823 0.818707 9
-5.12923 -5.53582 1.45885 9
-5.13631 -5.52802 0.920935 9
-0.713336 -0.53849 -0.0451588 33
-1.48927 -1.59451 -0.037479 14
-1.15473 -1.23897 -0.3824 12
-2.8764 -2.15907 0.820953 8
-5.15989 -5.54754 1.46457 8
-5.15948 -5.53357 0.923369 9
-0.714274 -0.537245 -0.0451588 35
-1.49546 -1.59556 -0.0375663 14
-1.14859 -1.22803 -0.379592 14
-2.90761 -2.15799 0.826568 2
-5.19894 -5.53118 1.46743 8
-5.21826 -5.53629 0.928541 1
-0.707051 -0.526062 -0.0445024 35
-1.50407 -1.58745 -0.0375663 14
-1.15355 -1.22002 -0.379031 14
-2.87965 -2.13025 0.817584 2
-5.18503 -5.49709 1.46076 1
-5.19213 -5.48929 0.922152 11
-0.713992 -0.529278 -0.0448963 35
-1.51371 -1.59208 -0.0377408 14
-0.871221 -0.643374 -0.280636 45
-1.14899 -1.21092 -0.376785 14
-2.91043 -2.12952 0.823199 2
-5.22801 -5.48677 1.46505 8
-5.20272 -5.44499 0.91911 8
-0.7086 -0.519764 -0.0443712 35
-1.52175 -1.5844 -0.0377408 14
-0.867057 -0.63492 -0.127477 41
-0.864021 -0.632248 -0.200942 41
-0.872514 -0.637534 -0.279989 42
-1.15343 -1.20332 -0.376223 14
-0.711524 -0.519996 -0.0445024 35
-1.52625 -1.58354 -0.0377845 14
-0.864151 -0.630485 -0.126868 41
-0.865123 -0.630738 -0.200942 42
-0.863854 -0.628916 -0.276756 39
-1.15384 -1.19955 -0.375662 14
-0.710186 -0.513345 -0.0442399 33
-1.53974 -1.58091 -0.0379153 14
-0.86744 -0.625952 -0.126868 41
-0.860444 -0.620469 -0.199037 41
-0.867136 -0.624385 -0.276756 42
-1.15164 -1.18473 -0.372854 14
-0.709052 -0.510649 -0.0441086 35
-1.54249 -1.57822 -0.0379153 14
-0.864498 -0.621545 -0.12626 42
-0.861526 -0.618966 -0.199037 42
-0.86626 -0.621465 -0.276109 41
-1.1571 -1.18622 -0.373977 14
-3.20652 -3.26068 0.556455 3
-0.703573 -0.501148 -0.0435835 35
-1.55775 -1.57726 -0.0380899 14
-0.865716 -0.615575 -0.125955 41
-1.517 -1.53633 -0.185489 15
-0.864755 -0.614447 -0.199037 41
-0.867531 -0.615526 -0.275463 41
-1.15648 -1.17318 -0.371731 14
-3.0943 -2.19099 0.865875 2
-3.20325 -3.26634 1.21486 2
-3.19853 -3.25022 0.87884 1
-3.21569 -3.25862 0.557064 9
-0.704447 -0.49992 -0.0435835 35
-1.56225 -1.57631 -0.0381335 14
-0.858683 -0.608336 -0.124739 39
-1.52667 -1.54078 -0.186359 15
-0.857806 -0.607275 -0.197133 41
-1.53036 -1.54609 -0.339445 14
-0.864656 -0.611228 -0.274169 42
-1.15852 -1.17116 -0.371731 14
-3.10411 -2.17282 0.865314 4
-3.2305 -3.25983 1.21874 1
-3.18785 -3.20555 0.871214 1
-0.621578 -0.436763 0.0634058 21
-3.24671 -3.25581 0.559498 8
-0.707141 -0.496101 -0.0435835 35
-1.57578 -1.57342 -0.0382644 14
-0.86389 -0.605253 -0.125043 42
-1.53674 -1.53426 -0.186576 15
-0.860974 -0.602775 -0.197133 41
-1.54017 -1.53981 -0.339837 14
-0.867845 -0.606693 -0.274169 42
-1.16292 -1.16335 -0.37117 14
-3.08591 -2.15208 0.859137 9
-3.23789 -3.2559 1.21939 4
-0.612126 -0.428555 0.0623164 20
-2.16572 -2.15895 0.158447 2
-0.703909 -0.492012 -0.043321 35
-1.58383 -1.57597 -0.0383953 14
-0.860872 -0.600909 -0.124434 41
-1.54118 -1.53333 -0.186794 15
-0.85598 -0.597067 -0.195704 42
-1.54635 -1.54061 -0.34062 14
-0.863057 -0.600894 -0.27223 42
-1.15979 -1.15615 -0.369485 14
-3.09951 -2.13673 0.859698 8
-0.610334 -0.42241 0.0618806 23
-2.18624 -2.15598 0.159101 2
-0.708532 -0.489736 -0.0434522 35
-0.861963 -0.594986 -0.12413 42
-1.55627 -1.53225 -0.187663 15
-0.857176 -0.591037 -0.195228 41
-1.56141 -1.53944 -0.342186 14
-0.870173 -0.5991 -0.273523 42
-1.1641 -1.14834 -0.368923 14
-3.12697 -2.14841 0.866437 2
-0.604839 -0.41722 0.0612269 21
-5.48908 -5.41379 0.941015 12
-2.19496 -2.1578 0.159494 2
-0.707327 -0.487086 -0.043321 38
-0.854814 -0.587868 -0.122913 41
-1.55868 -1.5298 -0.187663 15
-0.856078 -0.588302 -0.194752 42
-1.57113 -1.54365 -0.343752 14
-0.867127 -0.595005 -0.27223 42
-1.16264 -1.14288 -0.3678 14
-3.13377 -2.12981 0.865314 2
-5.53948 -5.40848 0.94497 12
-2.213 -2.15364 0.160017 2
-0.711849 -0.484902 -0.0434522 38
-0.859832 -0.584926 -0.123217 42
-1.57201 -1.52684 -0.188316 15
-0.863108 -0.586716 -0.195704 42
-1.57362 -1.5305 -0.342577 12
-0.866127 -0.587902 -0.270936 42
-1.17189 -1.14039 -0.368923 14
-3.14959 -2.13253 0.868683 2
-5.53307 -5.41721 2.06269 11
-5.63068 -5.47846 0.958965 14
-2.22391 -2.15674 0.160541 2
-0.702354 -0.476666 -0.0427959 38
-0.854684 -0.579257 -0.122305 41
-1.57825 -1.52756 -0.188751 15
-0.855995 -0.579715 -0.193799 42
-1.57275 -1.52431 -0.341794 11
-0.861247 -0.582189 -0.268996 42
-1.17039 -1.13494 -0.3678 15
-3.16716 -2.11952 0.870367 3
-5.67325 -5.49479 2.10404 8
-5.67025 -5.4728 1.52367 12
-5.67453 -5.46169 0.961399 14
-0.647415 -0.434746 0.013002 15
-2.24454 -2.15333 0.161195 2
-0.70484 -0.472982 -0.0427959 38
-0.855742 -0.573246 -0.122 41
-1.58981 -1.52273 -0.189186 15
-0.857078 -0.573713 -0.193323 41
-1.5703 -1.5055 -0.339445 11
-0.862274 -0.576332 -0.26835 42
-1.18352 -1.13536 -0.370046 15
-3.18265 -2.12265 0.873736 3
-5.69499 -5.49663 2.10857 11
-5.68687 -5.4697 1.52558 12
-5.67689 -5.4449 0.960182 14
-0.648173 -0.433616 0.013002 17
-0.701509 -0.468983 -0.0425333 38
-0.854675 -0.570377 -0.121696 41
-1.59786 -1.52512 -0.189838 15
-0.856034 -0.570857 -0.192847 42
-1.56224 -1.4925 -0.337096 11
-0.859254 -0.572155 -0.267057 42
-1.18199 -1.12992 -0.368923 15
-3.19002 -2.10272 0.872613 4
-5.73591 -5.47842 2.11309 11
-5.71721 -5.44155 1.52605 12
-0.591943 -0.391826 0.059048 23
-5.71072 -5.42023 0.961095 12
-0.64626 -0.427466 0.0129148 17
-0.70604 -0.466676 -0.0426646 38
-2.30833 -2.18241 -0.0548442 36
-0.859723 -0.567258 -0.122 42
-1.60944 -1.52017 -0.190273 15
-0.850808 -0.560974 -0.190942 42
-1.56108 -1.4758 -0.335139 11
-0.86022 -0.566323 -0.26641 42
-1.18436 -1.12035 -0.3678 15
-5.74896 -5.47173 2.11438 11
-5.73203 -5.43663 1.52748 12
-0.588462 -0.388058 0.0586122 23
-5.7508 -5.43926 0.966267 11
-0.644915 -0.424965 0.0128711 17
-0.700591 -0.461335 -0.0422708 38
-2.3194 -2.18524 -0.0550187 35
-0.850334 -0.558955 -0.120479 41
-1.61752 -1.52249 -0.190925 15
-0.853839 -0.560833 -0.191419 42
-1.56007 -1.46968 -0.334356 11
-0.863228 -0.566142 -0.267057 42
-1.18985 -1.12164 -0.368923 15
-5.77578 -5.4399 2.11374 9
-5.76221 -5.40822 1.52796 11
-5.74661 -5.37853 0.960791 9
-0.636647 -0.414779 0.012653 18
-0.700982 -0.456179 -0.0421395 38
-2.33994 -2.1816 -0.0552369 36
-0.853249 -0.554495 -0.120479 41
-1.64029 -1.52732 -0.192665 14
-0.852644 -0.553687 -0.190466 42
-1.57135 -1.46487 -0.335139 11
-0.864152 -0.560303 -0.26641 42
-1.19748 -1.11706 -0.369485 15
-5.7923 -5.43642 2.11632 9
-5.77796 -5.40218 1.52939 9
-5.81765 -5.42608 0.971135 8
-0.635343 -0.4122 0.0126094 20
-0.703874 -0.45631 -0.0422708 39
-2.35472 -2.18774 -0.0554986 36
-0.852131 -0.55166 -0.120175 41
-1.64477 -1.52615 -0.192882 14
-0.853609 -0.552198 -0.190466 42
-1.57029 -1.45875 -0.334356 11
-0.857104 -0.553415 -0.263823 44
-1.19943 -1.11497 -0.369485 15
-5.86585 -5.44611 2.13248 8
-5.91059 -5.46859 1.55703 11
-5.89614 -5.43998 0.979349 11
-0.631173 -0.404831 0.0124785 20
-0.706254 -0.452618 -0.0422708 38
-2.37203 -2.18005 -0.0556295 36
-0.848827 -0.543038 -0.119262 41
-1.67105 -1.5344 -0.195057 11
-0.856584 -0.547572 -0.190466 42
-1.57609 -1.44883 -0.333964 11
-0.857952 -0.547623 -0.263177 44
-1.20545 -1.10846 -0.369485 15
-5.9657 -5.51957 2.16543 12
-5.91291 -5.4516 1.55513 11
-5.91198 -5.43744 0.980566 11
-0.631879 -0.403728 0.0124785 18
-0.70283 -0.448705 -0.0420082 38
-2.3832 -2.18267 -0.0558041 36
-0.855962 -0.545697 -0.120175 41
-1.65722 -1.51632 -0.1931 4
-0.855466 -0.54476 -0.18999 42
-1.57862 -1.44608 -0.333964 11
-0.852788 -0.542246 -0.261237 42
-1.20898 -1.10822 -0.370046 14
-6.01492 -5.50889 2.17319 12
-5.94043 -5.4216 1.55513 9
-5.92936 -5.39638 0.978741 9
-0.629683 -0.397863 0.0123912 18
-0.70517 -0.445018 -0.0420082 38
-2.40161 -2.17731 -0.0559786 35
-0.848301 -0.534608 -0.118654 41
-0.854055 -0.537814 -0.189038 41
-1.58434 -1.43613 -0.333573 11
-0.86166 -0.54177 -0.263177 42
-1.21656 -1.10351 -0.370608 14
-6.04949 -5.52119 2.18223 12
-5.94901 -5.40854 1.55465 9
-5.92959 -5.37768 0.97722 8
-0.626209 -0.393999 0.0123039 20
-0.70383 -0.442462 -0.0418769 38
-2.41837 -2.18486 -0.056284 35
-0.851337 -0.534443 -0.118958 41
-0.850831 -0.53372 -0.188085 41
-1.58502 -1.43171 -0.333181 11
-0.856553 -0.536279 -0.261237 42
-1.2257 -1.10794 -0.372854 14
-6.08106 -5.49 2.18288 11
-7.32009 -4.53499 1.35525 42
-5.98454 -5.38388 1.55656 9
-7.40497 -4.58933 0.759127 24
-0.628264 -0.390714 0.0123039 18
-0.706137 -0.438771 -0.0418769 38
-2.4376 -2.17842 -0.0564585 35
-0.849995 -0.527219 -0.118349 41
-0.851618 -0.527819 -0.187609 41
-1.59642 -1.42641 -0.333964 11
-0.859349 -0.531787 -0.261237 42
-1.22986 -1.09967 -0.372293 14
-7.31061 -4.51149 1.97208 41
-6.11217 -5.49877 2.19063 9
-7.31749 -4.51572 1.3533 44
-7.39602 -4.56594 0.757383 29
-0.704776 -0.436227 -0.0417456 39
-2.447 -2.17916 -0.0565894 35
-0.844575 -0.52183 -0.117437 41
-0.848358 -0.523759 -0.186657 42
-1.60074 -1.42527 -0.334356 11
-0.852046 -0.525229 -0.25865 42
-1.23359 -1.09914 -0.372854 14
-7.31957 -4.46428 1.96815 39
-6.16696 -5.49187 2.20033 11
-7.31284 -4.46191 1.34822 39
-7.4084 -4.52196 0.756294 32
-2.46736 -2.17502 -0.0568076 35
-0.849325 -0.518839 -0.117741 41
-0.855191 -0.52201 -0.187609 42
-1.60239 -1.41224 -0.333181 11
-0.854693 -0.52091 -0.25865 42
-1.24096 -1.0945 -0.373416 14
-7.31069 -4.44138 1.96366 36
-6.20542 -5.50676 2.21067 11
-7.30162 -4.4376 1.34471 36
-6.47603 -5.72507 1.67189 2
-7.40139 -4.49997 0.754769 32
-6.58447 -5.80676 1.07214 1
-2.4824 -2.18063 -0.0570694 35
-0.852351 -0.518643 -0.118045 41
-0.851904 -0.517972 -0.186657 42
-1.60115 -1.40617 -0.332398 11
-0.857758 -0.520518 -0.259297 42
-1.24835 -1.09718 -0.3751 14
-7.30746 -4.38547 1.95636 33
-6.2569 -5.49224 2.21842 9
-7.30435 -4.38533 1.34081 32
-6.52623 -5.70886 1.67713 3
-7.40854 -4.4496 0.753026 32
-6.60832 -5.76453 1.07093 1
-0.703631 -0.423731 -0.0413518 42
-2.50547 -2.17702 -0.0573311 35
-0.844502 -0.507647 -0.116524 41
-0.850482 -0.510834 -0.185705 41
-1.60291 -1.3929 -0.331223 12
-0.856326 -0.513541 -0.258004 42
-1.25243 -1.0888 -0.374539 14
-7.2997 -4.36523 1.95243 30
-6.28828 -5.5004 2.22618 9
-7.29852 -4.36624 1.33847 32
-6.54173 -5.70231 1.67856 3
-7.39492 -4.42388 0.750847 30
-6.58742 -5.72807 1.06606 1
-0.706512 -0.423783 -0.0414831 41
-2.51682 -2.1792 -0.0575057 35
-0.847429 -0.507592 -0.116828 41
-2.48859 -2.15543 -0.284431 26
-0.851372 -0.509349 -0.185705 41
-1.59603 -1.38199 -0.329266 12
-0.855146 -0.510811 -0.257357 42
-1.26148 -1.09324 -0.376785 14
-7.30148 -4.31456 1.94682 32
-6.33793 -5.48749 2.23393 9
-7.30002 -4.3154 1.33457 32
-6.58722 -5.68356 1.68285 4
-7.40436 -4.37879 0.749539 32
-0.608267 -0.361051 0.0117367 20
-0.702272 -0.41627 -0.0410893 42
-2.53919 -2.17621 -0.0577675 36
-0.847937 -0.501887 -0.116524 41
-2.53573 -2.17322 -0.288562 30
-0.849711 -0.50254 -0.184752 41
-1.59763 -1.36879 -0.328091 12
-0.855639 -0.505251 -0.256711 42
-1.26535 -1.08503 -0.376223 14
-7.2838 -4.28699 1.94008 30
-6.37674 -5.50168 2.24427 9
-7.2969 -4.29639 1.33262 33
-6.60557 -5.67731 1.68476 4
-7.39267 -4.35449 0.747578 32
-0.611113 -0.36115 0.0117804 18
-0.705149 -0.416309 -0.0412205 44
-2.55627 -2.18315 -0.0580729 35
-0.842394 -0.496635 -0.115611 41
-2.55087 -2.17851 -0.289867 33
-0.850587 -0.501056 -0.184752 41
-1.59064 -1.35796 -0.326134 12
-0.856608 -0.503607 -0.256711 42
-1.27832 -1.09234 -0.379592 14
-7.29004 -4.23773 1.93558 29
-6.43029 -5.48749 2.25267 9
-7.29869 -4.24444 1.32871 33
-6.61091 -5.62196 1.67856 3
-7.3989 -4.30441 0.745835 33
-0.703002 -0.410103 -0.040958 44
-2.57377 -2.17414 -0.0582038 35
-0.840776 -0.489578 -0.115003 41
-2.56984 -2.17156 -0.290737 30
-0.844793 -0.491522 -0.182848 41
-1.59773 -1.34961 -0.326134 12
-0.855053 -0.496695 -0.255417 42
-1.29164 -1.09172 -0.381839 14
-7.28404 -4.21895 1.93222 29
-6.46192 -5.49504 2.26042 9
-7.29039 -4.22431 1.32598 32
-6.58141 -5.57707 1.66856 2
-7.39563 -4.28525 0.744746 33
-0.705878 -0.410126 -0.0410893 44
-2.58138 -2.17287 -0.058291 35
-0.845841 -0.490741 -0.115611 41
-2.58504 -2.17672 -0.292042 23
-0.8499 -0.492502 -0.1838 41
-1.59066 -1.33885 -0.324176 12
-0.855919 -0.495202 -0.255417 42
-1.29521 -1.09127 -0.3824 14
-7.28911 -4.17107 1.92772 29
-6.52105 -5.48872 2.27141 9
-7.29098 -4.17381 1.32208 30
-6.58888 -5.52633 1.66331 2
-7.39777 -4.23663 0.742785 32
-3.22101 -1.84479 0.0641812 17
-0.703681 -0.403946 -0.0408267 42
-2.60385 -2.16939 -0.0585528 35
-0.844089 -0.483844 -0.115003 41
-2.60596 -2.17113 -0.293129 27
-0.852382 -0.488194 -0.1838 41
-1.59575 -1.32892 -0.323785 12
-0.85212 -0.487276 -0.253477 42
-1.30277 -1.08604 -0.382962 14
-7.28368 -4.15111 1.92435 27
-6.54911 -5.49286 2.27787 9
-7.28538 -4.15375 1.31974 32
-6.66348 -5.5672 1.67952 9
-7.39434 -4.21754 0.741695 32
-3.18762 -1.81757 0.0634395 26
-0.702216 -0.401482 -0.0406954 44
-2.623 -2.17764 -0.0589019 33
-0.849246 -0.484824 -0.115611 39
-2.61932 -2.17455 -0.294216 27
-0.846832 -0.483067 -0.182372 41
-1.58859 -1.31822 -0.321827 12
-0.855154 -0.486831 -0.254124 44
-1.30654 -1.08532 -0.383523 14
-7.27631 -4.09492 1.91649 24
-6.60846 -5.48204 2.28821 9
-7.28838 -4.10337 1.31623 33
-6.71901 -5.55414 1.68619 14
-7.39534 -4.16525 0.739516 33
-3.17313 -1.78737 0.0629596 30
-2.64632 -2.17295 -0.0591637 33
-0.845367 -0.476576 -0.114699 39
-2.64797 -2.17506 -0.296173 33
-0.840873 -0.473672 -0.180467 41
-1.59737 -1.31146 -0.322219 12
-0.851372 -0.478805 -0.252184 44
-1.32366 -1.08755 -0.386892 12
-7.26998 -4.07634 1.91312 21
-6.64034 -5.48897 2.29596 9
-7.28189 -4.08467 1.31388 33
-6.65296 -5.47995 1.66713 12
-7.38957 -4.14503 0.738209 33
-0.656464 -0.533776 0.0994866 24
-3.16753 -1.77694 0.062785 33
-2.65784 -2.17467 -0.0593382 33
-0.85261 -0.478884 -0.115611 42
-2.65753 -2.17517 -0.296826 33
-0.843841 -0.473401 -0.180943 41
-1.59203 -1.3024 -0.320653 12
-0.854315 -0.478495 -0.252831 44
-1.331 -1.09012 -0.388577 12
-7.26565 -4.02406 1.90639 18
-6.69233 -5.47519 2.30437 8
-7.28374 -4.03572 1.31037 33
-6.65969 -5.42914 1.66188 11
-7.38867 -4.0955 0.73603 32
-0.65925 -0.530332 0.0994866 24
-3.16117 -1.75241 0.0624796 33
-0.696146 -0.386829 -0.0400391 45
-2.68046 -2.17064 -0.0596 32
-0.848591 -0.470811 -0.114699 42
-2.68049 -2.17065 -0.29813 33
-0.846226 -0.469124 -0.180943 42
-1.59308 -1.28937 -0.319478 12
-0.848267 -0.4695 -0.250244 44
-1.34614 -1.09083 -0.391385 12
-7.25133 -3.99961 1.90077 17
-6.7262 -5.48335 2.31277 8
-7.28212 -4.01823 1.30881 33
-6.63964 -5.39158 1.65426 12
-7.38054 -4.07418 0.734505 33
-0.654393 -0.524491 0.0985738 23
-3.16453 -1.74634 0.0624796 33
-0.701193 -0.388023 -0.0403016 45
-2.69007 -2.17068 -0.0597309 32
-0.847238 -0.468132 -0.114394 42
-2.69395 -2.1738 -0.299218 33
-0.840593 -0.464097 -0.179515 41
-1.59341 -1.28503 -0.319086 12
-0.855517 -0.471357 -0.252184 44
-1.34804 -1.08848 -0.391385 12
-7.24719 -3.94634 1.89403 15
-6.78959 -5.47418 2.3244 8
-7.28857 -3.9705 1.30608 32
-6.65057 -5.34289 1.64997 11
-7.38498 -4.02466 0.732762 32
-0.653349 -0.517838 0.0979654 21
-3.15607 -1.72018 0.0621306 33
-0.701023 -0.383153 -0.0401703 45
-2.71739 -2.16858 -0.0600799 33
-0.847578 -0.462356 -0.11409 42
-2.71891 -2.17056 -0.30074 32
-0.840935 -0.458371 -0.179038 42
-1.60011 -1.27667 -0.319086 12
-0.855851 -0.46572 -0.251538 44
-1.35961 -1.08574 -0.393069 12
-7.2234 -3.91869 1.88617 14
-6.82736 -5.48503 2.33409 8
-7.27961 -3.9508 1.30335 32
-6.66754 -5.33742 1.65188 9
-7.38543 -4.0082 0.732108 32
-0.652224 -0.515262 0.0976611 21
-3.15467 -1.71229 0.0620433 33
-0.695106 -0.378359 -0.0397765 45
-2.72703 -2.16851 -0.0602108 33
-0.848303 -0.461024 -0.11409 44
-2.72853 -2.17047 -0.301392 21
-0.850368 -0.461573 -0.180943 44
-0.850288 -0.460783 -0.249598 44
-1.36701 -1.08817 -0.394754 12
-7.22019 -3.86817 1.87999 14
-6.87582 -5.46694 2.3412 8
-7.28713 -3.90564 1.30101 35
-6.72716 -5.32953 1.65998 9
-7.38587 -3.96018 0.730147 30
-0.649074 -0.507222 0.0967484 23
-3.1633 -1.6963 0.0620433 35
-0.69261 -0.372479 -0.039514 47
-2.75171 -2.16552 -0.0605162 35
-0.841953 -0.451895 -0.112873 42
-2.75121 -2.16589 -0.302697 14
-0.848365 -0.45495 -0.179991 42
-0.848348 -0.4542 -0.248304 42
-1.38224 -1.08856 -0.397561 12
-7.18972 -3.83733 1.87045 14
-6.90806 -5.47294 2.34895 8
-7.28522 -3.88826 1.29945 35
-6.77111 -5.34517 1.66856 11
-7.37739 -3.93907 0.728622 32
-0.644111 -0.50148 0.0958357 23
-3.15964 -1.68724 0.0619124 35
-0.693259 -0.37127 -0.039514 47
-2.75941 -2.16381 -0.0606035 33
-0.844931 -0.451591 -0.113177 42
-2.76282 -2.16725 -0.303567 11
-0.849157 -0.453469 -0.179991 44
-0.853404 -0.454985 -0.249598 44
-7.17373 -3.77907 1.8609 14
-6.96322 -5.45757 2.358 8
-7.27708 -3.8351 1.29437 33
-7.38028 -3.8911 0.726879 32
-0.6389 -0.491998 0.0946187 20
-3.15958 -1.66602 0.0617379 35
-0.690839 -0.365188 -0.0392514 47
-2.78846 -2.16314 -0.0609962 33
-0.845087 -0.446006 -0.112873 42
-0.847175 -0.446733 -0.179038 42
-0.853637 -0.449388 -0.248951 44
-7.15443 -3.75297 1.85416 15
-7.27502 -3.81781 1.29281 33
-7.38486 -3.87706 0.726661 33
-3.16056 -1.65879 0.0616943 35
-0.695898 -0.366299 -0.039514 47
-2.80211 -2.16593 -0.0612143 32
-0.845865 -0.44453 -0.112873 42
-0.847953 -0.445254 -0.179038 42
-0.856638 -0.448866 -0.249598 44
-7.16814 -3.71085 1.85248 18
-7.28241 -3.77158 1.29047 33
-7.38582 -3.82674 0.7247 33
-3.15588 -1.63532 0.0614325 35
-0.697807 -0.362651 -0.039514 47
-2.82172 -2.15682 -0.0613888 35
-0.841644 -0.43653 -0.11196 42
-0.87038 -0.661348 -0.0924182 39
-0.843808 -0.437281 -0.17761 42
-0.856854 -0.651885 -0.16522 27
-0.848244 -0.438842 -0.246365 44
-7.1523 -3.68842 1.84686 18
-7.27735 -3.75448 1.28852 33
-2.85905 -2.18852 0.692491 3
-7.38142 -3.80813 0.723611 33
-3.15873 -1.62981 0.0614325 36
-0.698438 -0.361432 -0.039514 47
-2.83542 -2.15948 -0.061607 30
-0.844535 -0.436343 -0.112265 44
-0.869554 -0.658316 -0.0922008 44
-0.840205 -0.433564 -0.176658 42
-0.859951 -0.651889 -0.165612 33
-0.849009 -0.437361 -0.246365 44
-7.15632 -3.64319 1.84293 21
-2.86722 -2.17967 0.954444 8
-7.28151 -3.70848 1.28579 32
-2.87986 -2.18145 0.694874 3
-7.38063 -3.76055 0.72165 33
-3.16026 -1.6104 0.0613016 36
-0.693584 -0.354496 -0.0391201 47
-2.85229 -2.14962 -0.0617379 14
-0.844596 -0.430791 -0.11196 44
-0.848953 -0.432639 -0.178086 44
-0.842596 -0.428691 -0.243778 44
-7.14465 -3.62313 1.83844 23
-2.8691 -2.1732 0.953798 9
-7.27695 -3.69018 1.28384 33
-2.86606 -2.16309 0.690585 9
-7.37608 -3.74203 0.72056 33
-3.15415 -1.60036 0.061127 36
-0.691974 -0.352156 -0.0389889 49
-2.85205 -2.14163 -0.0616506 2
-0.843132 -0.428195 -0.111656 44
-0.845327 -0.428942 -0.177134 42
-0.84981 -0.430484 -0.245718 44
-7.14734 -3.57446 1.83395 23
-2.88081 -2.15764 0.953798 4
-7.28135 -3.64303 1.28111 33
-2.88558 -2.15343 0.692491 8
-7.38062 -3.69427 0.719035 33
-3.15829 -1.58103 0.0610398 36
-0.665263 -0.489726 0.0414762 15
-0.68717 -0.345058 -0.038595 49
-2.87763 -2.13662 -0.061956 2
-0.845437 -0.423627 -0.111656 44
-0.875534 -0.646155 -0.0919833 47
-0.852027 -0.426553 -0.178086 44
-0.853997 -0.631 -0.162871 45
-0.852127 -0.42588 -0.245718 44
-0.854168 -0.632232 -0.236965 41
-7.15077 -3.56214 1.83339 26
-2.87684 -2.14682 0.951213 3
-7.26717 -3.62167 1.27759 32
-2.87162 -2.13519 0.688202 2
-7.37368 -3.67472 0.717728 33
-3.15433 -1.57218 0.0609089 36
-0.654006 -0.479749 0.0406912 15
-0.690007 -0.344971 -0.0387263 49
-2.93756 -2.17329 -0.0631777 1
-0.846101 -0.422299 -0.111656 44
-0.870661 -0.640174 -0.091331 47
-0.846176 -0.42179 -0.176658 44
-0.855097 -0.629509 -0.162871 47
-0.852869 -0.424392 -0.245718 44
-0.857114 -0.632345 -0.237526 39
-7.15402 -3.51713 1.82946 26
-2.87991 -2.12649 0.948628 2
-7.27717 -3.57922 1.27603 35
-2.88239 -2.12063 0.688202 2
-7.38102 -3.63185 0.716638 33
-0.652485 -0.473362 0.0404295 15
-0.694044 -0.342454 -0.0388576 49
-0.848301 -0.417863 -0.111656 44
-0.871993 -0.634133 -0.0911135 47
-0.841689 -0.41426 -0.175229 44
-0.858381 -0.625023 -0.162871 47
-0.844161 -0.414761 -0.242485 44
-0.854529 -0.623513 -0.235841 41
-7.1492 -3.49929 1.82665 24
-2.87584 -2.11572 0.946044 2
-7.26567 -3.55783 1.27291 35
-7.36945 -3.6102 0.714895 32
-0.605181 -0.437622 0.087317 15
-0.65331 -0.472223 0.0404295 15
-0.68567 -0.336855 -0.0383325 49
-0.846799 -0.415292 -0.111352 44
-0.873098 -0.63261 -0.0911135 49
-0.842411 -0.412791 -0.175229 42
-0.855487 -0.620606 -0.162088 47
-0.844956 -0.41314 -0.242485 42
-0.853652 -0.62058 -0.23528 39
-7.15267 -3.45314 1.82272 26
-7.27591 -3.51417 1.27135 35
-7.38215 -3.56703 0.714241 33
-0.60754 -0.434341 0.087317 15
-0.647765 -0.462827 0.0399062 15
-0.682927 -0.33109 -0.0380699 49
-0.842328 -0.407473 -0.110439 44
-0.874381 -0.62657 -0.090896 47
-0.842421 -0.407162 -0.174753 44
-0.856725 -0.61467 -0.161697 45
-0.838401 -0.404526 -0.239898 42
-0.855025 -0.614521 -0.234718 39
-7.14052 -3.43346 1.81823 26
-7.26585 -3.49524 1.26862 33
-7.37041 -3.54551 0.712498 33
-0.598164 -0.426121 0.0857958 15
-0.640392 -0.455967 0.0393828 14
-0.690255 -0.333141 -0.0384638 49
-0.845204 -0.407223 -0.110743 44
-0.875473 -0.625043 -0.090896 49
-0.840917 -0.40463 -0.174277 44
-0.857796 -0.613173 -0.161697 47
-0.843463 -0.405146 -0.241192 42
-0.852042 -0.610321 -0.233595 41
-7.1496 -3.39185 1.81598 26
-7.2662 -3.44868 1.2655 33
-7.37701 -3.50282 0.711409 35
-0.600387 -0.422983 0.0857958 15
-0.638705 -0.449708 0.0391211 14
-0.689677 -0.328573 -0.0383325 49
-0.845082 -0.40173 -0.110439 44
-0.872542 -0.616266 -0.0902437 49
-0.840736 -0.399319 -0.173801 44
-0.856976 -0.605804 -0.160914 47
-0.838951 -0.397778 -0.239252 42
-0.853245 -0.604434 -0.233034 41
-7.1417 -3.37438 1.81261 26
-7.25881 -3.42967 1.26316 33
-7.36735 -3.48249 0.709884 33
-0.593038 -0.41618 0.0845788 15
-0.635419 -0.4457 0.0388594 14
-0.687991 -0.326304 -0.0382012 47
-0.848026 -0.401313 -0.110743 44
-0.871586 -0.6133 -0.0900262 49
-0.839211 -0.396806 -0.173324 42
-0.856019 -0.602877 -0.160522 47
-0.835273 -0.394258 -0.237958 42
-0.852315 -0.60153 -0.232472 41
-7.14881 -3.33054 1.8098 26
-3.08342 -2.1788 1.00097 2
-7.26995 -3.38849 1.26199 33
-3.09659 -2.1801 0.728712 3
-7.37871 -3.44071 0.70923 35
-0.59115 -0.410212 0.0839703 15
-0.631617 -0.438061 0.0384669 14
-0.687483 -0.321523 -0.0380699 49
-0.845616 -0.394774 -0.110135 44
-0.870815 -0.605712 -0.0895913 50
-0.841278 -0.392406 -0.173324 44
-0.855125 -0.595545 -0.159739 47
-0.839517 -0.390896 -0.238605 42
-0.853461 -0.595656 -0.231911 41
-7.14798 -3.31499 1.80812 26
-3.0813 -2.16924 0.999032 2
-7.2557 -3.36644 1.25847 33
-3.09073 -2.16709 0.72633 9
-7.35985 -3.4163 0.706833 32
-0.587802 -0.40633 0.0833618 15
-0.62829 -0.434094 0.0382052 14
-0.683513 -0.318223 -0.0378074 47
-0.729523 -0.504607 -0.0148782 39
-0.839548 -0.39017 -0.109222 44
-0.86983 -0.602764 -0.0893739 50
-0.835278 -0.387847 -0.171896 44
-0.854141 -0.592635 -0.159347 47
-0.831495 -0.385236 -0.236019 42
-0.846525 -0.588565 -0.229665 42
-7.15473 -3.2712 1.80531 23
-3.09101 -2.15116 0.998386 9
-7.26482 -3.32303 1.25691 33
-3.10002 -2.14948 0.725853 9
-7.37143 -3.37332 0.706179 33
-0.585913 -0.400317 0.0827534 17
-0.626524 -0.427846 0.0379436 14
-0.687441 -0.315678 -0.0379387 47
-0.721963 -0.493543 -0.01466 39
-0.846161 -0.387683 -0.109831 44
-0.868878 -0.595367 -0.088939 50
-0.839598 -0.38434 -0.172372 44
-0.855203 -0.586748 -0.158956 47
-0.831303 -0.379877 -0.235372 42
-0.847696 -0.582587 -0.229103 42
-7.18425 -3.27106 1.81149 20
-3.11657 -2.16092 1.00549 8
-7.26104 -3.30752 1.25535 35
-3.11385 -2.15105 0.728236 8
-7.36598 -3.35529 0.70509 32
-0.5845 -0.397986 0.0824491 17
-0.62103 -0.422608 0.037551 14
-0.681173 -0.311376 -0.0375448 47
-0.718707 -0.489446 -0.0145728 32
-0.84451 -0.385327 -0.109526 44
-0.871967 -0.595263 -0.0891564 49
-0.838032 -0.38186 -0.171896 44
-0.854194 -0.583852 -0.158564 49
-0.836364 -0.380418 -0.236665 44
-0.846607 -0.579868 -0.228542 41
-7.24351 -3.25235 1.82216 14
-3.11951 -2.13965 1.00291 4
-7.26249 -3.26238 1.25262 35
-3.12268 -2.13388 0.727759 2
-7.36696 -3.31082 0.703565 33
-0.580429 -0.39072 0.0815364 15
-0.621172 -0.417944 0.0374202 14
-0.682794 -0.307806 -0.0375448 49
-0.708783 -0.477354 -0.014311 29
-0.848781 -0.381914 -0.109831 44
-0.868898 -0.586481 -0.088504 50
-0.837715 -0.37661 -0.17142 44
-0.8552 -0.577979 -0.158173 49
-0.838279 -0.37618 -0.236665 42
-0.847621 -0.574052 -0.22798 42
-7.30478 -3.26454 1.83619 12
-3.11726 -2.1301 1.00097 2
-7.25916 -3.24567 1.25106 35
-3.1369 -2.1348 0.730142 2
-7.35909 -3.29186 0.702257 32
-0.611576 -0.409843 0.036766 15
-0.68789 -0.308649 -0.0378074 47
-0.709615 -0.476117 -0.014311 27
-0.84718 -0.379421 -0.109526 45
-0.865799 -0.582165 -0.0880691 52
-0.840612 -0.376147 -0.171896 44
-0.854165 -0.575097 -0.157781 49
-0.836793 -0.373589 -0.236019 42
-0.852647 -0.575316 -0.229103 41
-7.26883 -3.20142 1.82272 30
-3.15474 -2.13081 1.00937 2
-7.26305 -3.20037 1.24872 35
-3.14804 -2.11834 0.730142 3
-7.36767 -3.24797 0.701386 35
-2.10855 -0.930177 0.039617 4
-0.611712 -0.405136 0.0366352 15
-0.684926 -0.303031 -0.0375448 45
-0.708029 -0.469484 -0.0142237 27
-0.844677 -0.372835 -0.108918 44
-0.868836 -0.577624 -0.0880691 50
-0.840388 -0.370606 -0.17142 44
-0.857165 -0.570617 -0.157781 49
-0.836525 -0.368233 -0.235372 42
-0.849686 -0.566611 -0.227419 42
-7.26269 -3.1851 1.81991 32
-3.14244 -2.1145 1.0042 2
-7.25902 -3.18499 1.24716 35
-3.15988 -2.11832 0.732049 3
-7.35509 -3.22711 0.699643 35
-0.583816 -0.38564 0.0815364 12
-2.12162 -0.931513 0.0398351 4
-0.612348 -0.404175 0.0366352 15
-0.685454 -0.301835 -0.0375448 49
-0.704692 -0.465469 -0.0141364 23
-0.845262 -0.371508 -0.108918 45
-0.863632 -0.571953 -0.0874168 52
-0.841034 -0.369139 -0.17142 44
-0.852006 -0.564997 -0.156607 49
-0.837167 -0.366772 -0.235372 44
-0.846531 -0.562559 -0.226295 44
-7.25914 -3.13834 1.81486 33
-3.18926 -2.1227 1.01583 3
-7.2552 -3.13812 1.24364 33
-3.19304 -2.11725 0.737291 3
-7.35304 -3.18193 0.6979 33
-0.581691 -0.379836 0.0809279 9
-2.1286 -0.921755 0.0398787 4
-0.610292 -0.398207 0.0363735 15
-0.680149 -0.295273 -0.037151 47
-0.842638 -0.365111 -0.10831 45
-0.87077 -0.570171 -0.0878517 50
-0.838384 -0.362934 -0.170467 44
-0.861128 -0.564619 -0.157781 47
-0.836794 -0.361576 -0.234725 42
-0.851494 -0.559467 -0.226857 44
-7.2579 -3.12277 1.81317 35
-3.18893 -2.11445 1.01454 2
-7.25386 -3.12253 1.24247 35
-3.18891 -2.10569 0.735385 3
-7.35401 -3.16712 0.697464 33
-2.12807 -0.916679 0.0398351 4
-0.680664 -0.294085 -0.037151 47
-0.845554 -0.364619 -0.108614 45
-0.867604 -0.565909 -0.0874168 52
-0.839016 -0.36147 -0.170467 44
-0.851807 -0.556316 -0.155824 47
-0.844147 -0.362819 -0.236665 44
-0.844342 -0.552604 -0.224611 45
-7.25898 -3.07681 1.80924 33
-7.25246 -3.07553 1.23935 33
-7.35728 -3.12145 0.696157 33
-2.13744 -0.907475 0.0399224 4
-0.677597 -0.288569 -0.0368885 49
-0.840659 -0.357138 -0.107701 44
-0.870556 -0.561359 -0.0874168 52
-0.840959 -0.356926 -0.170467 44
-0.856777 -0.553197 -0.156215 47
-0.83491 -0.353702 -0.233432 42
-0.853436 -0.552026 -0.226295 44
-7.25258 -3.06067 1.80643 33
-7.25273 -3.06221 1.23857 35
-7.35583 -3.1057 0.695503 35
-0.6827 -0.289326 -0.037151 49
-0.845793 -0.357743 -0.10831 45
-0.867355 -0.557127 -0.0869819 52
-0.846106 -0.35736 -0.17142 45
-0.8536 -0.54901 -0.155432 47
-0.833299 -0.351309 -0.232785 42
-0.844096 -0.544037 -0.223488 42
-7.25726 -3.01798 1.80363 33
-7.24587 -3.01471 1.23467 33
-7.35996 -3.06365 0.694413 35
-0.679545 -0.28395 -0.0368885 49
-0.675548 -0.427685 -0.0133511 15
-0.845362 -0.352359 -0.108005 45
-0.865972 -0.55004 -0.086547 52
-0.838835 -0.349313 -0.169515 45
-0.856463 -0.544533 -0.155432 45
-0.835067 -0.347087 -0.232785 42
-0.844885 -0.538291 -0.222926 44
-7.25074 -3.00192 1.80082 33
-7.24427 -2.99923 1.2335 35
-7.35839 -3.04794 0.69376 35
-0.684654 -0.284672 -0.037151 49
-0.672081 -0.423814 -0.0132638 15
-0.841389 -0.348988 -0.107397 45
-0.862734 -0.545845 -0.086112 52
-0.839444 -0.347849 -0.169515 45
-0.851173 -0.539044 -0.154258 45
-0.831205 -0.34379 -0.231492 42
-0.843773 -0.5355 -0.222365 44
-7.25334 -2.95713 1.79745 33
-7.25073 -2.95753 1.23194 35
-7.35119 -2.99996 0.691581 33
-0.681511 -0.279199 -0.0368885 49
-0.676404 -0.421624 -0.0133075 15
-0.843205 -0.344578 -0.107397 45
-0.867686 -0.54265 -0.0863295 52
-0.83898 -0.342524 -0.169039 44
-0.85607 -0.5359 -0.154649 47
-0.830756 -0.338525 -0.230846 42
-0.846565 -0.531075 -0.222365 44
-7.25797 -2.94573 1.79745 33
-7.25131 -2.94301 1.23116 35
-7.34718 -2.98338 0.690709 32
-0.684311 -0.278948 -0.0370197 49
-0.677139 -0.420442 -0.0133075 15
-0.841505 -0.342175 -0.107093 45
-0.862308 -0.537155 -0.0856771 52
-0.841851 -0.34198 -0.169515 45
-0.852827 -0.531772 -0.153866 45
-0.838064 -0.339787 -0.232785 44
-0.841312 -0.525693 -0.22068 42
-7.25169 -2.89612 1.79183 32
-7.24419 -2.89458 1.22726 35
-7.34471 -2.93619 0.688966 32
-0.683492 -0.274316 -0.0368885 49
-0.841039 -0.336698 -0.106788 45
-0.863087 -0.531166 -0.0854597 52
-0.839129 -0.335604 -0.168563 45
-0.849312 -0.523383 -0.152692 47
-0.833157 -0.332572 -0.230846 42
-0.844144 -0.521134 -0.22068 42
-7.24717 -2.88112 1.78959 32
-7.24873 -2.88319 1.22726 35
-7.30886 -4.54543 1.66474 44
-7.34057 -2.91969 0.688095 33
-7.41638 -4.59987 1.06575 38
-0.686289 -0.274044 -0.0370197 49
-0.841566 -0.335377 -0.106788 45
-0.861896 -0.528347 -0.0852422 52
-0.839714 -0.334139 -0.168563 45
-0.852322 -0.523202 -0.153083 45
-0.840474 -0.333781 -0.232785 42
-0.840824 -0.517234 -0.219557 42
-7.25535 -2.84047 1.7879 32
-7.32891 -4.52421 2.29532 38
-7.24073 -2.8362 1.22335 29
-7.31923 -4.50066 1.66188 36
-7.34598 -2.87887 0.687223 33
-7.41499 -4.5454 1.0621 35
-7.40366 -4.53136 0.453099 17
-0.676043 -0.266018 -0.0363633 50
-0.841 -0.330063 -0.106484 47
-0.860311 -0.521376 -0.0848073 53
-0.832249 -0.326315 -0.166658 44
-0.85505 -0.518732 -0.153083 45
-0.828651 -0.324264 -0.228906 42
-0.847672 -0.515376 -0.22068 41
-7.31828 -4.50002 2.2895 36
-7.30825 -4.47633 1.65759 36
-7.3975 -4.51692 1.05845 35
-7.39238 -4.50672 0.451921 27
-0.681159 -0.266649 -0.0366259 50
-0.668005 -0.401836 -0.013002 14
-0.8462 -0.330392 -0.107093 45
-0.852716 -0.514685 -0.0839375 52
-0.839681 -0.327527 -0.168087 45
-0.849633 -0.513377 -0.151909 45
-0.835971 -0.325435 -0.230846 42
-0.838182 -0.507535 -0.217873 42
-7.32524 -4.45159 2.28433 36
-7.3106 -4.42529 1.65283 33
-7.40619 -4.46914 1.05632 33
-7.40091 -4.45893 0.451005 27
-0.682592 -0.26296 -0.0366259 50
-0.665819 -0.395752 -0.0129148 14
-0.843283 -0.324183 -0.106484 45
-0.857621 -0.511349 -0.084155 52
-0.839092 -0.32225 -0.16761 45
-0.848081 -0.506369 -0.151126 44
-0.835407 -0.320192 -0.230199 42
-0.838744 -0.501878 -0.217311 41
-7.32061 -4.43129 2.28046 36
-7.28756 -4.39222 1.64568 39
-3.0942 -1.18243 0.286742 11
-7.39697 -4.44597 1.05389 35
-7.31238 -4.38814 0.445117 1
-0.68305 -0.261768 -0.0366259 50
-0.65365 -0.38687 -0.012653 14
-0.83921 -0.320945 -0.105876 45
-0.847836 -0.503442 -0.0830677 50
-0.837359 -0.319913 -0.167134 44
-0.848964 -0.504888 -0.151126 45
-0.826988 -0.315162 -0.227612 42
-0.837532 -0.499156 -0.21675 41
-7.32376 -4.37921 2.27399 36
-7.21561 -4.29744 1.62423 24
-3.14252 -1.18142 0.290664 11
-7.39958 -4.39321 1.05085 33
-7.3124 -4.3345 0.443678 1
-0.682074 -0.257311 -0.0364946 50
-0.653584 -0.382052 -0.0126094 14
-0.845582 -0.318141 -0.106484 45
-0.856886 -0.502808 -0.0837201 52
-0.83448 -0.313658 -0.166182 45
-0.843105 -0.495391 -0.14956 44
-0.833152 -0.312517 -0.228906 42
-0.838127 -0.493371 -0.216188 42
-7.3065 -4.35158 2.26624 33
-7.21466 -4.27983 1.62233 20
-3.12125 -1.16722 0.288485 3
-7.3894 -4.37146 1.04841 33
-7.30846 -4.31665 0.443024 1
-0.675505 -0.253502 -0.0361008 50
-0.645641 -0.375826 -0.0124348 14
-0.843755 -0.315946 -0.10618 45
-0.853474 -0.498778 -0.0832851 52
-0.835026 -0.312201 -0.166182 45
-0.841844 -0.492661 -0.149168 44
-0.833696 -0.311063 -0.228906 42
-0.840996 -0.493296 -0.21675 41
-7.31179 -4.30473 2.26107 30
-7.23834 -4.2445 1.6228 18
-3.14815 -1.15915 0.290447 2
-7.40362 -4.3277 1.04719 35
-7.31587 -4.26951 0.442108 1
-0.68151 -0.251683 -0.0363633 50
-0.647535 -0.372553 -0.0124348 14
-0.847727 -0.312378 -0.106484 45
-0.853923 -0.493046 -0.0830677 52
-0.836596 -0.30797 -0.166182 44
-0.846543 -0.489493 -0.14956 44
-0.837528 -0.307668 -0.229552 44
-0.841466 -0.487654 -0.216188 41
-7.23377 -4.22316 1.61994 15
-3.11977 -1.14253 0.287614 2
-7.38758 -4.30102 1.04385 36
-7.31036 -4.2492 0.441323 1
-0.681948 -0.250493 -0.0363633 50
-0.63738 -0.365139 -0.0122167 14
-0.838947 -0.307496 -0.105267 45
-0.85263 -0.490303 -0.0828502 52
-0.83252 -0.304829 -0.16523 45
-0.843129 -0.485529 -0.148777 44
-0.831308 -0.303585 -0.227612 42
-0.840212 -0.484956 -0.215626 42
-7.25578 -4.18523 1.61994 15
-3.14699 -1.13322 0.289575 2
-7.40429 -4.25727 1.04294 35
-1.7049 -0.614266 0.0310216 50
-7.33325 -4.20958 0.441323 1
-0.678551 -0.245231 -0.0361008 50
-0.641514 -0.36293 -0.0122603 14
-0.84527 -0.304628 -0.105876 45
-0.853026 -0.484591 -0.0826328 53
-0.836468 -0.301148 -0.165706 44
-0.8478 -0.482339 -0.149168 47
-0.828338 -0.297603 -0.226319 42
-0.836492 -0.476753 -0.213942 42
-5.78972 -3.33839 1.779 9
-7.23755 -4.15787 1.61422 14
-3.11614 -1.11598 0.286525 2
-7.38944 -4.23329 1.03989 35
-1.70597 -0.611289 0.0310216 50
-7.33552 -4.19558 0.441061 1
-0.681329 -0.244886 -0.0362321 50
-0.836399 -0.299964 -0.104659 45
-0.849547 -0.480628 -0.0821979 52
-0.830056 -0.297217 -0.164277 44
-0.84864 -0.480859 -0.149168 47
-0.828857 -0.296156 -0.226319 42
-0.839353 -0.476652 -0.214503 42
-5.82123 -3.31743 1.78352 9
-7.2457 -4.11391 1.61136 12
-3.11 -1.09606 0.285435 2
-7.40071 -4.18843 1.03837 35
-1.70668 -0.601817 0.030978 50
-7.35738 -4.15711 0.441061 1
-0.680205 -0.240606 -0.0361008 50
-0.835616 -0.294759 -0.104354 45
-0.847633 -0.47387 -0.081763 52
-0.833866 -0.293824 -0.164753 45
-0.846849 -0.473976 -0.148385 47
-0.834904 -0.293552 -0.227612 44
-0.839718 -0.471048 -0.213942 42
-5.82071 -3.30368 1.78159 9
-7.24219 -4.09521 1.60898 12
-3.10485 -1.08816 0.284781 3
-7.38208 -4.16087 1.03472 35
-1.70065 -0.596362 0.0308471 50
-7.3581 -4.14059 0.440669 1
-0.680624 -0.239419 -0.0361008 50
-0.831444 -0.291664 -0.103746 45
-0.852799 -0.474834 -0.0821979 52
-0.834378 -0.292368 -0.164753 45
-0.841223 -0.468858 -0.14721 45
-0.830853 -0.290508 -0.226319 44
-0.840539 -0.469581 -0.213942 44
-7.25496 -4.05244 1.60708 11
-7.39293 -4.11612 1.0332 35
-1.70375 -0.587449 0.0308471 50
-7.38405 -4.10443 0.44093 15
-0.68659 -0.237475 -0.0363633 50
-0.830613 -0.286502 -0.103442 47
-0.850921 -0.467941 -0.081763 52
-0.831254 -0.286404 -0.163801 45
-0.843666 -0.464447 -0.14721 49
-0.832363 -0.286153 -0.226319 44
-0.840859 -0.463986 -0.21338 42
-7.23844 -4.02664 1.60183 12
-7.38275 -4.09357 1.03077 35
-1.70241 -0.583665 0.0308035 50
-7.38465 -4.08791 0.440538 15
-0.682279 -0.234661 -0.0361008 50
-0.835808 -0.286654 -0.10405 45
-0.849558 -0.465248 -0.0815455 52
-0.838721 -0.287327 -0.16523 44
-0.840157 -0.460578 -0.146427 45
-0.832861 -0.2847 -0.226319 44
-0.835281 -0.458966 -0.211696 42
-7.29384 -4.02415 2.21971 35
-7.24653 -3.98158 1.59897 12
-7.38885 -4.04651 1.02864 35
-1.70544 -0.574744 0.0308035 50
-7.39719 -4.04439 0.440015 15
-0.683498 -0.231086 -0.0361008 50
-0.827887 -0.279118 -0.102833 47
-0.851982 -0.460793 -0.0815455 53
-0.837887 -0.282152 -0.164753 45
-0.842557 -0.456173 -0.146427 45
-0.827469 -0.278039 -0.224379 44
-0.835537 -0.453413 -0.211134 42
-7.29451 -4.00792 2.21777 35
-7.23625 -3.9595 1.59516 12
-7.38501 -4.02766 1.02712 35
-1.69696 -0.568597 0.030629 50
-7.39328 -4.0255 0.43936 14
-0.679164 -0.228311 -0.0358382 50
-3.20894 -1.74268 -0.0631341 14
-0.828373 -0.277672 -0.102833 47
-0.850598 -0.458114 -0.081328 53
-0.831393 -0.278363 -0.163325 45
-0.839017 -0.452336 -0.145644 45
-0.82337 -0.275072 -0.223086 44
-0.838464 -0.453123 -0.211696 42
-7.30054 -3.9616 2.21325 35
-7.2504 -3.91805 1.59373 12
-7.38416 -3.97716 1.02407 35
-1.69991 -0.559704 0.030629 52
-7.39447 -3.97608 0.438183 14
-0.678017 -0.223855 -0.035707 52
-3.19601 -1.71401 -0.0626978 20
-0.829816 -0.273331 -0.102833 47
-0.848678 -0.451145 -0.0808931 53
-0.832839 -0.274006 -0.163325 47
-0.841374 -0.447937 -0.145644 45
-0.82939 -0.272256 -0.224379 44
-0.838682 -0.447569 -0.211134 42
-7.29257 -3.94081 2.20873 35
-7.24063 -3.89481 1.58992 12
-7.38671 -3.96191 1.02346 35
-1.69623 -0.554889 0.0305417 52
-7.3948 -3.95963 0.43779 12
-0.676034 -0.221897 -0.0355757 50
-3.16815 -1.6919 -0.0620869 29
-0.830292 -0.271883 -0.102833 47
-0.851659 -0.450839 -0.0811106 53
-0.83565 -0.273311 -0.163801 47
-0.837803 -0.444133 -0.144861 45
-0.829911 -0.270663 -0.224379 45
-0.839462 -0.446105 -0.211134 42
-7.29675 -3.89219 2.20356 33
-7.25225 -3.85224 1.58801 12
-7.34192 -2.35586 0.671535 20
-7.38831 -3.91143 1.02073 35
-1.70149 -0.546763 0.0305853 52
-7.40287 -3.91255 0.437005 9
-0.674809 -0.217593 -0.0354444 50
-3.15295 -1.66188 -0.061607 33
-0.827023 -0.265875 -0.102225 45
-0.851807 -0.445209 -0.0808931 53
-0.834778 -0.26804 -0.163325 47
-0.842299 -0.440896 -0.145253 49
-0.831317 -0.266314 -0.224379 45
-0.835409 -0.438129 -0.20945 42
-7.29713 -3.87605 2.20162 35
-6.95224 -2.21754 1.14765 1
-7.25029 -3.83498 1.58611 12
-7.3128 -2.33245 0.668485 20
-7.38567 -3.89518 1.01951 35
-1.69292 -0.540757 0.0304108 52
-7.40018 -3.89626 0.436482 8
-0.672808 -0.215657 -0.0353131 52
-3.15142 -1.65405 -0.0615197 33
-0.825075 -0.263824 -0.10192 47
-0.854786 -0.444883 -0.0811106 52
-0.825888 -0.263612 -0.16142 45
-0.8387 -0.437121 -0.14447 45
-0.827176 -0.263404 -0.223086 45
-0.840403 -0.439094 -0.210573 42
-7.29528 -3.82783 2.19516 35
-7.24419 -2.26888 1.19409 32
-7.25656 -3.7914 1.58325 12
-7.32927 -2.2969 0.66892 18
-7.38176 -3.84384 1.01616 35
-1.69086 -0.530688 0.0303236 53
-7.39833 -3.84593 0.435173 11
-0.673891 -0.212249 -0.0353131 52
-3.15088 -1.63346 -0.0613452 35
-0.828814 -0.26024 -0.102225 49
-0.852608 -0.438251 -0.0806757 52
-0.831898 -0.26089 -0.162373 47
-0.840977 -0.432723 -0.14447 45
-0.830804 -0.259932 -0.223733 44
-0.838372 -0.432432 -0.20945 42
-7.23942 -2.25353 1.73961 38
-7.28483 -3.80613 2.18999 35
-7.16797 -2.23129 1.18082 32
-7.25446 -3.7742 1.58134 12
-7.29759 -2.273 0.665652 15
-7.37745 -3.82523 1.01464 36
-1.69417 -0.528479 0.0303672 53
-7.38952 -3.82497 0.434258 11
-0.676645 -0.211814 -0.0354444 52
-3.15151 -1.62681 -0.0613016 35
-0.829267 -0.258793 -0.102225 47
-0.853372 -0.436762 -0.0806757 53
-0.830008 -0.258711 -0.161896 45
-0.837348 -0.428981 -0.143687 45
-0.82895 -0.257768 -0.223086 45
-0.839125 -0.430968 -0.20945 42
-7.22859 -2.20596 1.734 32
-7.29459 -3.76112 2.18676 35
-7.24134 -2.21122 1.19096 26
-7.2595 -3.72704 1.578 12
-7.32169 -2.23712 0.666741 15
-7.37816 -3.77508 1.0119 35
-1.69701 -0.519305 0.0303672 53
-7.40344 -3.78153 0.433865 11
-0.677781 -0.20815 -0.0354444 52
-3.14691 -1.60291 -0.0610398 35
-0.830655 -0.254302 -0.102225 49
-0.84907 -0.428738 -0.0800233 53
-0.833743 -0.25493 -0.162373 45
-0.835187 -0.422339 -0.142904 45
-0.82571 -0.251877 -0.221793 45
-0.834943 -0.423084 -0.207765 42
-7.22272 -2.19177 1.73175 32
-7.28825 -3.74176 2.18288 35
-7.23772 -2.19769 1.18979 26
-7.25944 -3.71101 1.57657 12
-7.30891 -2.21928 0.665216 15
-7.3664 -3.75446 1.00947 35
-1.69074 -0.514166 0.0302363 53
-7.38712 -3.75856 0.432557 9
-0.673365 -0.205518 -0.0351819 50
-3.1497 -1.59742 -0.0610398 35
-0.819178 -0.249403 -0.100704 49
-0.854256 -0.429515 -0.0804582 53
-0.827139 -0.251346 -0.160944 49
-0.840322 -0.423125 -0.143687 45
-0.819212 -0.248346 -0.219853 45
-0.835606 -0.421772 -0.207765 42
-7.2341 -2.15393 1.73175 33
-7.28987 -3.69608 2.17771 35
-7.25149 -2.16047 1.19018 26
-7.26499 -3.66757 1.57371 11
-7.30811 -2.1787 0.664127 15
-7.37709 -3.71137 1.00825 35
-1.69092 -0.504889 0.0301927 52
-7.39332 -3.7131 0.431772 9
-0.679182 -0.203531 -0.0354444 50
-0.82523 -0.246523 -0.101312 49
-0.851968 -0.422948 -0.0800233 52
-0.830753 -0.247854 -0.16142 49
-0.831499 -0.413168 -0.141729 45
-0.82509 -0.245566 -0.221146 45
-0.837803 -0.417391 -0.207765 41
-7.22579 -2.1391 1.72894 32
-7.28769 -3.67899 2.17512 33
-7.24341 -2.1443 1.18823 26
-7.26261 -3.65047 1.57181 11
-7.30235 -2.16311 0.663255 14
-7.37025 -3.69181 1.00643 35
-1.6894 -0.501228 0.030149 53
-7.39532 -3.69795 0.43151 8
-0.672354 -0.200222 -0.0350506 50
-0.82328 -0.24438 -0.101008 49
-0.854932 -0.422575 -0.0802408 52
-0.824122 -0.244322 -0.159992 47
-0.836633 -0.413929 -0.142512 44
-0.818566 -0.242083 -0.219206 45
-0.83853 -0.415928 -0.207765 42
-7.23492 -2.0993 1.72838 33
-7.28524 -3.63 2.16866 33
-7.25691 -2.10704 1.18862 26
-7.27283 -3.60803 1.5699 11
-7.31358 -2.12485 0.663255 12
-7.37614 -3.64657 1.0046 35
-1.6896 -0.491679 0.0301054 55
-7.3922 -3.64812 0.430202 8
-0.675791 -0.197394 -0.0351819 49
-0.831699 -0.242135 -0.10192 49
-0.850434 -0.414784 -0.0795884 52
-0.830106 -0.241367 -0.160944 49
-0.829936 -0.405163 -0.140946 45
-0.826784 -0.2398 -0.221146 47
-0.838514 -0.41045 -0.207204 41
-7.22182 -2.08321 1.72445 33
-7.28292 -3.61298 2.16608 33
-7.24872 -2.09095 1.18667 26
-7.27472 -3.59315 1.56895 11
-7.31967 -2.11277 0.663473 12
-7.36914 -3.6271 1.00278 35
-1.68566 -0.487344 0.0300181 55
-7.39184 -3.6319 0.429809 8
-0.673735 -0.195523 -0.0350506 49
-0.820196 -0.237255 -0.100399 49
-0.851157 -0.413299 -0.0795884 52
-0.828167 -0.23924 -0.160468 47
-0.832857 -0.404805 -0.141338 45
-0.822558 -0.237027 -0.219853 45
-0.834861 -0.406828 -0.206081 42
-7.23064 -2.04344 1.72389 33
-7.28439 -3.56629 2.16091 35
-7.25719 -2.05229 1.18628 27
-7.28241 -3.54963 1.56656 11
-7.32583 -2.07306 0.663037 11
-7.36794 -3.5787 1.00004 35
-1.69059 -0.479191 0.0300618 53
-7.39728 -3.58661 0.429024 4
-0.677152 -0.192672 -0.0351819 50
-0.826204 -0.234304 -0.101008 49
-0.844347 -0.404487 -0.0787186 52
-0.827046 -0.234236 -0.159992 49
-0.832745 -0.399359 -0.140946 45
-0.830763 -0.234675 -0.221793 47
-0.836979 -0.402452 -0.206081 41
-7.22681 -2.03011 1.7222 33
-7.28192 -3.54933 2.15832 35
-7.25363 -2.03762 1.18511 26
-7.27755 -3.53155 1.56418 11
-7.36524 -3.56151 0.998821 35
-1.68661 -0.474889 0.0299745 53
-7.40128 -3.5726 0.428893 4
-0.67268 -0.190141 -0.0349193 49
-0.821832 -0.231523 -0.100399 49
-0.851779 -0.406263 -0.079371 52
-0.82509 -0.232131 -0.159516 49
-0.83344 -0.397905 -0.140946 47
-0.826519 -0.231927 -0.2205 47
-0.839872 -0.402054 -0.206642 44
-7.22594 -1.98775 1.7194 33
-7.28082 -3.50172 2.15251 35
-7.2642 -1.99962 1.18511 27
-7.28931 -3.49021 1.56275 9
-7.37036 -3.51648 0.996995 35
-1.69148 -0.466714 0.0300181 53
-7.3996 -3.52413 0.427716 4
-0.676074 -0.187278 -0.0350506 50
-0.825426 -0.227874 -0.100704 50
-0.842654 -0.396439 -0.0782837 52
-0.828661 -0.228456 -0.159992 49
-0.824371 -0.388217 -0.138989 45
-0.825392 -0.22696 -0.219853 47
-0.835374 -0.394495 -0.204957 42
-7.21495 -1.97254 1.71603 33
-7.27168 -3.4817 2.14798 33
-7.26053 -1.98498 1.18394 27
-7.27988 -3.47009 1.55942 9
-7.3608 -3.49615 0.994866 35
-1.68747 -0.462444 0.0299309 53
-0.676399 -0.186098 -0.0350506 50
-0.823428 -0.22578 -0.100399 50
-0.845595 -0.396035 -0.0785011 52
-0.829058 -0.227009 -0.159992 50
-0.825047 -0.386778 -0.138989 45
-0.823457 -0.224887 -0.219206 47
-0.831663 -0.39094 -0.203834 42
-7.21846 -1.93159 1.71434 33
-7.27453 -3.43635 2.14346 35
-7.27321 -1.94758 1.18433 27
-7.28685 -3.42669 1.55703 11
-7.37226 -3.4544 0.993953 35
-1.69229 -0.454248 0.0299745 55
-0.674985 -0.181791 -0.0349193 52
-0.824599 -0.221466 -0.100399 49
-0.84547 -0.390399 -0.0782837 52
-0.827864 -0.222034 -0.159516 49
-0.829297 -0.383501 -0.13938 49
-0.831625 -0.222433 -0.221146 47
-0.831494 -0.385544 -0.203273 41
-7.2124 -1.91649 1.7121 33
-7.27178 -3.41953 2.14088 33
-7.27898 -1.93551 1.18472 29
-7.28897 -3.41061 1.55608 9
-7.3513 -3.42892 0.990302 33
-1.68832 -0.449715 0.0298872 55
-0.675301 -0.180612 -0.0349193 52
-0.827383 -0.220662 -0.100704 50
-0.843892 -0.387871 -0.0780662 53
-0.821132 -0.218705 -0.158087 50
-0.82549 -0.379964 -0.138597 45
-0.825045 -0.218989 -0.219206 47
-0.832165 -0.384092 -0.203273 42
-7.21323 -1.87499 1.70985 33
-7.28141 -3.37607 2.13829 33
-7.27979 -1.89362 1.18316 30
-7.29114 -3.36519 1.55274 11
-7.36073 -3.38494 0.989085 33
-1.68824 -0.44024 0.0298436 56
-0.678654 -0.177702 -0.0350506 53
-0.823761 -0.214937 -0.100095 49
-0.845911 -0.383447 -0.0780662 53
-0.827056 -0.215489 -0.159039 49
-0.825225 -0.374604 -0.138206 45
-0.82618 -0.214666 -0.219206 47
-0.832019 -0.378563 -0.202711 42
-7.21145 -1.86244 1.70873 33
-7.26756 -3.35423 2.13248 33
-7.27558 -1.88033 1.18199 30
-7.29031 -3.34939 1.55131 12
-7.35251 -3.36717 0.98726 33
-1.68658 -0.436669 0.0298 55
-0.674128 -0.17527 -0.034788 53
-2.05445 -0.934049 -0.038788 4
-0.824098 -0.213643 -0.100095 50
-0.84205 -0.379898 -0.0776313 53
-0.82743 -0.214045 -0.159039 50
-0.828123 -0.374192 -0.138597 47
-0.824214 -0.212624 -0.21856 47
-0.825972 -0.374204 -0.201027 42
-7.21874 -1.82406 1.70817 33
-7.28005 -3.3154 2.13118 35
-7.28533 -1.84221 1.18199 30
-7.28929 -3.30433 1.5475 14
-7.35647 -3.32249 0.985434 35
-1.68635 -0.427514 0.0297564 55
-0.672586 -0.171245 -0.0346568 53
-2.06827 -0.92775 -0.0389625 4
-0.825205 -0.209325 -0.100095 50
-0.846232 -0.376656 -0.0778488 53
-0.828503 -0.209854 -0.159039 50
-0.832321 -0.370868 -0.138989 49
-0.822937 -0.207862 -0.217913 47
-0.82792 -0.369875 -0.201027 42
-7.20742 -1.80916 1.7048 33
-7.26823 -3.2947 2.12601 36
-7.28614 -1.82889 1.1816 30
-7.28387 -3.28655 1.54512 14
-7.32614 -1.84027 0.657808 11
-7.35547 -3.30659 0.984522 33
-1.68951 -0.425178 0.0298 56
-0.670462 -0.169464 -0.0345255 53
-2.07445 -0.926186 -0.0390498 4
-0.823162 -0.207282 -0.0997908 50
-0.844616 -0.374158 -0.0776313 53
-0.826487 -0.207813 -0.158563 50
-0.828463 -0.367389 -0.138206 49
-0.825642 -0.207009 -0.21856 47
-0.821902 -0.365424 -0.199342 42
-7.21474 -1.76956 1.70424 33
-7.27657 -3.25266 2.12343 35
-7.29082 -1.78954 1.18082 32
-7.28753 -3.24237 1.54226 23
-7.28972 -1.7906 0.653668 14
-7.35454 -3.25997 0.982088 33
-1.68929 -0.415731 0.0297564 56
-0.668944 -0.16524 -0.0343942 53
-2.07927 -0.915312 -0.0390498 4
-0.826646 -0.203559 -0.100095 50
-0.846628 -0.369582 -0.0776313 53
-0.822796 -0.202319 -0.157611 50
-0.828118 -0.362045 -0.137814 49
-0.822022 -0.201541 -0.217266 47
-0.819353 -0.359135 -0.198219 42
-7.21072 -1.75523 1.70255 33
-7.269 -3.23405 2.11955 35
