# .PCD v0.7 - Point Cloud Data file format
VERSION 0.7
FIELDS x y z intensity
SIZE 4 4 4 4
TYPE F F F F
COUNT 1 1 1 1
WIDTH 1513
HEIGHT 1
VIEWPOINT 0 0 0 1 0 0 0
POINTS 1513
DATA ascii
-1.69602 -0.578271 -0.0306726 52
-0.821397 -0.129155 -0.0976611 53
-0.83742 -0.282955 -0.074152 53
-0.820093 -0.128665 -0.154278 50
-0.823335 -0.27872 -0.132333 47
-0.821936 -0.128234 -0.213387 50
-0.817105 -0.277484 -0.190919 44
-7.22999 -1.0897 1.67728 29
-7.30843 -1.1028 1.16248 41
-7.28675 -1.10082 0.641684 27
-3.13637 -1.05836 0.401597 3
-1.69926 -0.569788 0.0921113 49
-0.663886 -0.10133 -0.0334753 56
-1.69912 -0.569086 -0.0306726 53
-0.824538 -0.125077 -0.0979654 53
-0.834172 -0.276971 -0.0737171 53
-0.828059 -0.125315 -0.155706 52
-0.822445 -0.273613 -0.131941 47
-0.822596 -0.123929 -0.213387 50
-0.818594 -0.273059 -0.190919 45
-7.14013 -1.0647 1.65594 14
-7.29794 -1.08949 1.16053 41
-7.02263 -1.04843 0.618152 1
-1.69542 -0.565525 0.0918496 49
-0.669001 -0.100906 -0.0337378 55
-1.69774 -0.565324 -0.030629 53
-0.824733 -0.123781 -0.0979654 53
-0.832293 -0.274721 -0.0734997 53
-0.823421 -0.123152 -0.154754 52
-0.822921 -0.272177 -0.131941 47
-0.8252 -0.122845 -0.214033 50
-0.812099 -0.269432 -0.189235 44
-7.07567 -1.01726 1.63966 26
-7.02002 -1.01051 1.11526 1
-7.00566 -1.00968 0.616191 1
-1.69836 -0.55664 0.0918496 49
-0.674462 -0.0981106 -0.0340004 55
-1.69346 -0.554372 -0.0304981 53
-0.822913 -0.11911 -0.0976611 53
-0.83372 -0.27036 -0.0734997 53
-0.826463 -0.119329 -0.15523 50
-0.821991 -0.267089 -0.13155 47
-0.821029 -0.117988 -0.21274 50
-0.81581 -0.265944 -0.189796 45
-7.06779 -1.00354 1.63741 26
-7.01933 -0.99791 1.11487 1
-7.00741 -0.997455 0.616191 1
-1.69458 -0.552116 0.0915879 49
-0.669689 -0.0962332 -0.0337378 55
-1.6968 -0.552195 -0.0305417 53
-0.82312 -0.117673 -0.0976611 53
-0.834191 -0.268904 -0.0734997 53
-0.816949 -0.116517 -0.153325 52
-0.824801 -0.266426 -0.131941 49
-0.816273 -0.26452 -0.189796 45
-7.06829 -0.964631 1.63629 26
-7.02462 -0.959917 1.11487 1
-7.01024 -0.959189 0.615973 1
-7.02272 -2.26729 0.900551 1
-1.69992 -0.543706 0.0917188 49
-0.66771 -0.0923883 -0.0336066 55
-1.69263 -0.540705 -0.0304108 52
-0.823745 -0.113218 -0.0976611 53
-0.833217 -0.263768 -0.0732822 53
-0.822432 -0.112754 -0.154278 50
-0.823881 -0.2612 -0.13155 47
-0.815375 -0.259348 -0.189235 44
-7.06497 -0.952877 1.63517 26
-7.02139 -0.946997 1.11409 1
-6.94672 -2.23998 1.41072 1
-7.0045 -0.945954 0.61532 1
-7.05265 -2.26339 0.903898 1
-3.11368 -0.420725 0.0542333 35
-1.69849 -0.539975 0.0915879 50
-0.662921 -0.0905572 -0.033344 53
-1.69119 -0.536988 -0.0303672 52
-0.821482 -0.111451 -0.0973569 53
-0.831305 -0.261553 -0.0730648 55
-0.820195 -0.110993 -0.153802 50
-0.819634 -0.258251 -0.130767 49
-0.812471 -0.109402 -0.210153 49
-0.811189 -0.256429 -0.188112 45
-7.06986 -0.915872 1.63517 26
-6.97037 -2.22207 1.94831 1
-7.0212 -0.910812 1.11331 1
-7.24099 -2.29468 1.46839 42
-7.0092 -0.910489 0.61532 1
-7.09241 -2.23664 0.907549 1
-3.11577 -0.404959 0.0542333 30
-1.70358 -0.532122 0.0917188 52
-0.66091 -0.0867651 -0.0332127 55
-1.69388 -0.528421 -0.0303672 52
-0.819574 -0.106975 -0.0970526 53
-0.835038 -0.257945 -0.0732822 53
-0.818312 -0.106528 -0.153325 52
-0.823286 -0.254843 -0.131158 47
-0.81541 -0.105595 -0.2108 49
-0.817122 -0.253792 -0.189235 45
-7.06903 -0.903223 1.63461 27
-6.98804 -2.21429 1.95218 1
-7.01788 -0.89793 1.11253 1
-7.23602 -2.27782 1.46648 38
-7.01325 -0.89857 0.615537 1
-7.32357 -2.29565 0.936756 32
-3.11407 -0.398661 0.0541897 18
-1.69975 -0.527655 0.0914571 50
-0.666014 -0.0862425 -0.0334753 55
-1.6948 -0.525464 -0.0303672 53
-0.824683 -0.106169 -0.0976611 55
-0.830734 -0.254999 -0.0728473 53
-0.820931 -0.105408 -0.153802 52
-0.823729 -0.253405 -0.131158 49
-0.815611 -0.104029 -0.2108 47
-0.812916 -0.250902 -0.188112 45
-7.06898 -0.864373 1.63348 26
-7.25124 -2.25477 2.02262 36
-7.02508 -0.860247 1.11292 1
-7.23144 -2.23482 1.46314 32
-7.00565 -0.859099 0.614448 1
-7.32165 -2.25161 0.93493 32
-3.11115 -0.381743 0.0541025 24
-1.70019 -0.517717 0.0913262 50
-0.663978 -0.0824516 -0.033344 55
-1.69762 -0.516286 -0.0303672 55
-0.822782 -0.101407 -0.0973569 53
-0.827296 -0.249183 -0.0724124 53
-0.816617 -0.100374 -0.152849 50
-0.817965 -0.246908 -0.129984 49
-0.823338 -0.100624 -0.21274 50
-0.811934 -0.245781 -0.18755 45
-7.07033 -0.853268 1.63348 27
-7.2344 -2.23568 2.0168 32
-7.02152 -0.848619 1.11214 1
-7.2236 -2.21859 1.46076 30
-6.99972 -0.845975 0.613794 1
-7.32044 -2.23865 0.934322 32
-3.10685 -0.375715 0.0540152 29
-1.69145 -0.512126 0.0908029 49
-0.664121 -0.0812926 -0.033344 56
-1.69374 -0.511863 -0.0302799 52
-0.820476 -0.0998185 -0.0970526 55
-0.822966 -0.246284 -0.0719775 52
-0.816791 -0.0989486 -0.152849 52
-0.820756 -0.246203 -0.130375 47
-0.816318 -0.0983325 -0.2108 50
-0.812319 -0.244505 -0.18755 47
-7.07228 -0.815957 1.63292 27
-7.241 -2.19763 2.01551 33
-7.01851 -0.810994 1.11097 1
-7.22299 -2.17845 1.45838 30
-7.00391 -0.810536 0.613794 1
-7.3178 -2.196 0.932496 32
-3.10871 -0.359985 0.0540152 30
-1.69411 -0.503263 0.0908029 50
-0.659577 -0.0772437 -0.0330815 56
-1.69391 -0.502567 -0.0302363 53
-0.816057 -0.0949559 -0.0964442 55
-0.824244 -0.241971 -0.0719775 52
-0.81972 -0.0950919 -0.153325 52
-0.822034 -0.241902 -0.130375 49
-0.819205 -0.094472 -0.211447 50
-0.808923 -0.238842 -0.186427 47
-7.07127 -0.803338 1.63236 26
-7.24252 -2.18429 2.01487 33
-7.01992 -0.798743 1.11097 1
-7.22011 -2.16246 1.45695 30
-7.00036 -0.797748 0.613359 1
-7.31925 -2.18252 0.932192 32
-3.10691 -0.353734 0.0539716 29
-1.69259 -0.499592 0.090672 50
-0.65723 -0.0758116 -0.0329502 56
-1.69239 -0.498896 -0.0301927 55
-0.818687 -0.0938097 -0.0967484 55
-0.824665 -0.240532 -0.0719775 52
-0.817445 -0.0933867 -0.152849 52
-0.822455 -0.240467 -0.130375 49
-0.816984 -0.0926312 -0.2108 50
-0.814006 -0.238828 -0.18755 45
-7.06825 -0.764283 1.63068 26
-7.24034 -2.14096 2.01099 33
-7.01186 -0.759423 1.10902 1
-7.23368 -2.12532 1.45742 33
-6.99963 -0.759324 0.612923 1
-7.32142 -2.14009 0.930975 32
-3.10872 -0.337462 0.0539716 26
-1.69767 -0.491127 0.0908029 50
-0.6601 -0.0726372 -0.0330815 58
-1.69507 -0.489732 -0.0301927 56
-0.814249 -0.0888489 -0.0961399 55
-0.818741 -0.234117 -0.0713251 52
-0.815498 -0.0887013 -0.152373 53
-0.821374 -0.23532 -0.129984 49
-0.81986 -0.0886075 -0.211447 50
-0.810612 -0.233047 -0.186427 47
-7.06459 -0.752664 1.62955 26
-7.23943 -2.12695 2.0097 33
-7.01318 -0.747184 1.10902 1
-7.22561 -2.10924 1.45504 33
-7.00094 -0.747107 0.612923 1
-7.31562 -2.12454 0.929758 32
-3.10433 -0.331507 0.0538843 21
-1.69612 -0.487467 0.090672 50
-0.662709 -0.0717485 -0.0332127 55
-1.69112 -0.485381 -0.0301054 56
-0.811935 -0.087167 -0.0958357 55
-0.819149 -0.232687 -0.0713251 52
-0.815652 -0.0872778 -0.152373 52
-0.824155 -0.234576 -0.130375 49
-0.817611 -0.0869253 -0.2108 50
-0.811017 -0.231632 -0.186427 47
-6.85042 -0.692426 1.57901 1
-7.23886 -2.08567 2.00647 33
-7.00716 -0.70946 1.10746 1
-7.23419 -2.0707 1.45457 35
-7.28475 -0.738782 0.637544 36
-7.31232 -2.08212 0.927933 32
-3.10851 -0.315499 0.0539279 17
-1.69145 -0.476529 0.0902795 52
-0.658107 -0.0677765 -0.0329502 56
-1.69364 -0.476519 -0.0301054 59
-0.817318 -0.08341 -0.0964442 55
-0.825147 -0.229758 -0.07176 53
-0.81854 -0.0832501 -0.152849 53
-0.820582 -0.229047 -0.129592 49
-0.818055 -0.0826431 -0.2108 50
-0.814561 -0.228053 -0.186989 47
-6.8515 -0.681664 1.57901 1
-7.23321 -2.07037 2.00388 33
-7.00827 -0.698452 1.10746 1
-7.22835 -2.05538 1.45266 33
-7.28355 -0.72582 0.637326 32
-7.31081 -2.06927 0.927324 32
-3.11155 -0.310321 0.0539716 14
-1.6922 -0.473872 0.0902795 50
-0.660709 -0.066874 -0.0330815 58
-1.69206 -0.472883 -0.0300618 76
-0.814979 -0.0818822 -0.0961399 55
-0.81596 -0.225608 -0.0708902 52
-0.816241 -0.0815814 -0.152373 52
-0.818605 -0.226941 -0.129201 49
-0.815794 -0.0809808 -0.210153 50
-0.810232 -0.22544 -0.185866 45
-6.85012 -0.645325 1.57789 1
-7.23895 -2.03242 2.00259 33
-6.99708 -0.660359 1.10512 1
-7.2363 -2.01811 1.45218 35
-7.27721 -0.688009 0.636455 36
-7.32154 -2.03097 0.927324 35
-3.09814 -0.293161 0.0537098 12
-1.69706 -0.465672 0.0904104 50
-0.656079 -0.0629472 -0.0328189 56
-1.70166 -0.466315 -0.0301927 90
-0.810455 -0.077152 -0.0955314 55
-0.82193 -0.222663 -0.0713251 52
-0.816644 -0.077449 -0.152373 52
-0.824541 -0.223973 -0.129984 49
-0.811385 -0.0764063 -0.20886 50
-0.813748 -0.221849 -0.186427 47
-6.93614 -0.6412 1.59755 1
-7.23783 -2.01848 2.0013 33
-6.99822 -0.648145 1.10512 1
-7.22597 -2.00028 1.44932 33
-7.2784 -0.675307 0.636455 36
-7.31073 -2.01422 0.925499 33
-3.10368 -0.287672 0.053797 11
-1.68584 -0.459395 0.0897562 53
-0.66116 -0.0622598 -0.0330815 58
-1.69765 -0.462018 -0.0301054 90
-0.818002 -0.0764173 -0.0964442 55
-0.815114 -0.219246 -0.0706728 50
-0.819222 -0.0762469 -0.152849 52
-0.815409 -0.219907 -0.128418 49
-0.81634 -0.0752836 -0.210153 50
-0.809438 -0.219128 -0.185304 45
-7.07542 -0.615457 1.62899 1
-7.23467 -1.97547 1.99742 33
-6.99917 -0.610058 1.10472 1
-7.22924 -1.96048 1.44789 35
-7.27699 -0.635485 0.636019 36
-7.31912 -1.97399 0.925195 35
-3.09518 -0.270551 0.0536225 11
-1.69312 -0.451567 0.0900178 52
-0.654015 -0.0581496 -0.0326876 56
-1.6953 -0.451526 -0.0300181 85
-0.813458 -0.0715638 -0.0958357 55
-0.811441 -0.213679 -0.0702379 50
-0.814732 -0.0713933 -0.151897 52
-0.816549 -0.215635 -0.128418 50
-0.819129 -0.0712133 -0.2108 50
-0.808261 -0.214107 -0.184742 45
-7.07153 -0.603929 1.62787 1
-7.23345 -1.96157 1.99613 33
-7.00258 -0.599273 1.10512 1
-7.22791 -1.94658 1.44694 35
-7.27809 -0.622784 0.636019 36
-7.31502 -1.96056 0.924282 33
-3.09565 -0.265149 0.0536225 11
-1.68659 -0.446968 0.0896253 49
-0.659091 -0.057431 -0.0329502 56
-1.69367 -0.447921 -0.0299745 79
-0.81357 -0.070286 -0.0958357 56
-0.811813 -0.212263 -0.0702379 50
-0.81241 -0.0697654 -0.151421 52
-0.816925 -0.21421 -0.128418 49
-0.819252 -0.0697835 -0.2108 50
-0.813301 -0.214105 -0.185866 47
-7.06245 -0.565924 1.62506 1
-7.23628 -1.92307 1.99419 32
-7.00069 -0.562205 1.10433 1
-7.23056 -1.90809 1.44551 35
-7.27618 -0.585539 0.635583 36
-7.31559 -1.9197 0.923065 33
-3.09446 -0.249277 0.0535789 11
-1.68891 -0.438131 0.0896253 52
-0.656894 -0.0537808 -0.0328189 56
-1.69108 -0.438076 -0.0298872 70
-0.813927 -0.0660252 -0.0958357 56
-0.810504 -0.207378 -0.0700204 50
-0.812752 -0.0656525 -0.151421 53
-0.825199 -0.211811 -0.129592 49
-0.81478 -0.0652587 -0.209507 50
-0.814411 -0.209844 -0.185866 47
-7.06585 -0.553787 1.62562 1
-7.23029 -1.90796 1.9916 33
-6.9992 -0.549793 1.10394 1
-7.22471 -1.89171 1.4436 35
-7.28216 -0.573229 0.636019 36
-7.30933 -1.90442 0.921848 33
-3.09992 -0.243725 0.0536661 11
-1.68967 -0.435183 0.0896253 52
-0.661965 -0.0530225 -0.0330815 56
-1.68458 -0.433236 -0.0297564 49
-0.811567 -0.0644124 -0.0955314 55
-0.803633 -0.204082 -0.069368 50
-0.810419 -0.0640448 -0.150945 53
-0.8184 -0.208501 -0.128418 49
-0.817312 -0.0638784 -0.210153 52
-0.810062 -0.207187 -0.184742 47
-7.07361 -0.515902 1.62674 1
-7.23115 -1.8664 1.98902 33
-6.99715 -0.511557 1.10316 1
-7.22501 -1.85142 1.4417 35
-7.2777 -0.533276 0.635365 36
-7.31471 -1.86362 0.921239 33
-3.1211 -0.228945 0.0540152 8
-1.68716 -0.424802 0.0893636 52
-0.654763 -0.0490124 -0.0326876 56
-1.66752 -0.419186 -0.0294073 15
-0.814378 -0.0601992 -0.0958357 55
-0.809518 -0.2011 -0.069803 50
-0.813201 -0.059835 -0.151421 53
-0.814731 -0.20285 -0.127635 49
-0.815226 -0.0594267 -0.209507 50
-0.813531 -0.203406 -0.185304 47
-7.07441 -0.50479 1.62674 1
-7.22036 -1.85017 1.98514 32
-6.99311 -0.498993 1.10238 1
-7.2211 -1.83698 1.44027 35
-7.27862 -0.520573 0.635365 35
-7.31315 -1.84963 0.920631 35
-1.68548 -0.421244 0.0892328 52
-0.659828 -0.0482231 -0.0329502 56
-0.814482 -0.0587778 -0.0958357 56
-0.812282 -0.200297 -0.0700204 50
-0.813305 -0.0584156 -0.151421 52
-0.819871 -0.20264 -0.128418 49
-0.815328 -0.0580038 -0.209507 52
-0.809163 -0.200785 -0.184181 47
-7.0746 -0.466347 1.62618 1
-7.21824 -1.80939 1.98191 32
-6.99316 -0.462208 1.10199 1
-7.22109 -1.79677 1.43836 33
-7.27131 -0.481799 0.634494 33
-7.3131 -1.80893 0.919414 33
-1.68524 -0.411814 0.089102 52
-0.660072 -0.0447676 -0.0329502 58
-0.809826 -0.0541895 -0.0952272 55
-0.808484 -0.194846 -0.0695855 49
-0.81115 -0.0539975 -0.150945 52
-0.820886 -0.198487 -0.128418 49
-0.820441 -0.0540431 -0.2108 52
-0.812567 -0.197134 -0.184742 49
-7.08262 -0.455702 1.62787 1
-7.2167 -1.79562 1.98062 33
-6.99388 -0.451223 1.10199 1
-7.21945 -1.78299 1.43741 35
-7.27462 -0.469267 0.634712 35
-7.3087 -1.79565 0.918501 33
-1.68831 -0.409762 0.0892328 53
-0.657658 -0.0434561 -0.0328189 58
-0.814863 -0.0532324 -0.0958357 56
-0.803986 -0.192249 -0.0691506 49
-0.816142 -0.0528908 -0.151897 53
-0.818834 -0.196464 -0.128026 49
-0.813303 -0.05216 -0.20886 50
-0.812876 -0.195857 -0.184742 49
-6.97061 -0.41188 1.60148 1
-7.22101 -1.75793 1.97932 33
-7.27716 -0.431194 1.14648 38
-7.21407 -1.74296 1.43455 33
-7.2769 -0.432441 0.634712 35
-7.31318 -1.7562 0.917893 33
-1.69043 -0.400917 0.0892328 52
-0.652892 -0.0397194 -0.0325564 58
-1.56376 -0.369935 -0.0274439 18
-0.815131 -0.0489651 -0.0958357 56
-0.800137 -0.186875 -0.0687157 47
-0.813949 -0.0486171 -0.151421 53
-0.81505 -0.19102 -0.127243 50
-0.815968 -0.048181 -0.209507 50
-0.81389 -0.191598 -0.184742 47
-6.86431 -0.3936 1.57677 1
-7.21702 -1.74361 1.97739 33
-7.28037 -0.418634 1.14687 38
-7.21263 -1.72796 1.4336 35
-7.28013 -0.419883 0.63493 33
-7.30899 -1.7417 0.91698 33
-1.68384 -0.39623 0.0888403 53
-0.65296 -0.0385798 -0.0325564 58
-1.5644 -0.367205 -0.0274439 20
-0.81026 -0.0472619 -0.0952272 56
-0.800462 -0.185478 -0.0687157 45
-0.814033 -0.0471965 -0.151421 53
-0.817784 -0.19017 -0.127635 49
-0.813648 -0.0464808 -0.20886 52
-0.811855 -0.189609 -0.184181 49
-6.8639 -0.356329 1.57621 1
-7.2193 -1.70287 1.97545 33
-7.2702 -0.378597 1.14492 38
-7.21441 -1.68848 1.43217 33
-7.28976 -0.380876 0.635583 32
-7.30864 -1.69988 0.915763 32
-1.68839 -0.387679 0.0889711 53
-0.653153 -0.0351604 -0.0325564 59
-1.55906 -0.35704 -0.027313 23
-0.810504 -0.0428773 -0.0952272 56
-0.786867 -0.177903 -0.0674109 44
-0.811825 -0.0426669 -0.150945 52
-0.816396 -0.185183 -0.127243 50
-0.818704 -0.0424618 -0.210153 50
-0.808124 -0.184104 -0.183058 47
-6.86689 -0.345668 1.57677 1
-7.21756 -1.68917 1.97416 35
-7.27578 -0.366155 1.1457 36
-7.21735 -1.67589 1.43217 35
-7.29041 -0.368152 0.635583 33
-7.08918 -1.63565 0.887773 1
-1.68177 -0.383048 0.0885786 55
-0.653213 -0.0340204 -0.0325564 59
-1.57186 -0.357123 -0.0275312 23
-0.810578 -0.0414626 -0.0952272 56
-0.782323 -0.175411 -0.066976 44
-0.809447 -0.0411296 -0.150468 53
-0.819124 -0.184313 -0.127635 50
-0.809128 -0.040566 -0.207567 47
-0.813191 -0.183795 -0.184181 49
-6.87347 -0.309927 1.57789 1
-7.22131 -1.65153 1.97286 33
-7.27014 -0.328991 1.14453 38
-7.21617 -1.63716 1.43026 35
-7.28472 -0.33091 0.63493 33
-7.3031 -1.64626 0.913633 33
-1.68612 -0.37508 0.0887094 55
-0.6459 -0.0302652 -0.0321625 59
-1.5956 -0.354101 -0.0279238 23
-0.810777 -0.0373594 -0.0952272 55
-0.778371 -0.170219 -0.0665411 42
-0.809645 -0.0370321 -0.150468 53
-0.815229 -0.179078 -0.126852 50
-0.809323 -0.0364701 -0.207567 50
-0.809359 -0.178599 -0.183058 47
-6.87643 -0.298035 1.57845 1
-7.22182 -1.63839 1.97222 33
-7.2781 -0.316622 1.1457 36
-7.20972 -1.62114 1.42835 35
-7.28777 -0.318304 0.635147 32
-7.08563 -1.5841 0.885948 1
-1.6819 -0.371047 0.0884478 55
-0.650941 -0.0293522 -0.0324251 59
-1.60841 -0.354038 -0.028142 27
-0.808362 -0.0358386 -0.094923 56
-0.773805 -0.167775 -0.0661062 42
-0.81216 -0.0357226 -0.150945 53
-0.810721 -0.176576 -0.126069 50
-0.811804 -0.0350161 -0.208214 49
-0.814423 -0.178256 -0.184181 49
-6.87551 -0.260734 1.57789 1
-7.22115 -1.5972 1.96963 33
-7.26737 -0.276772 1.14375 36
-7.21092 -1.58179 1.42692 35
-7.28939 -0.278868 0.635147 32
-7.07712 -1.54203 0.883818 1
-3.12469 -0.119786 0.0539716 9
-1.68632 -0.362473 0.0885786 55
-0.648591 -0.0258494 -0.0322938 59
-1.63961 -0.351705 -0.0286656 42
-0.806064 -0.0313722 -0.0946187 56
-0.767372 -0.162132 -0.0654539 41
-0.809889 -0.0312375 -0.150468 52
-0.809222 -0.171801 -0.125677 50
-0.81439 -0.0308523 -0.20886 50
-0.810616 -0.172803 -0.183058 47
-7.0658 -0.256798 1.62169 21
-7.21449 -1.58252 1.96705 35
-7.26533 -0.265267 1.14336 36
-7.20888 -1.56816 1.42597 35
-7.28987 -0.266146 0.635147 30
-7.07226 -1.52933 0.882905 1
-3.12239 -0.114242 0.0539279 9
-1.68689 -0.359824 0.0885786 55
-0.64614 -0.0246276 -0.0321625 59
-1.65977 -0.353058 -0.0290146 52
-0.811072 -0.0302827 -0.0952272 55
-0.767654 -0.160792 -0.0654539 41
-0.812395 -0.02991 -0.150945 52
-0.81676 -0.171957 -0.126852 50
-0.814443 -0.0294309 -0.20886 50
-0.808506 -0.171011 -0.182496 49
-7.06705 -0.219798 1.62169 21
-7.22005 -1.54548 1.9664 33
-7.27402 -0.227452 1.14453 36
-7.20952 -1.53011 1.42454 35
-7.29112 -0.229245 0.635147 29
-7.07046 -1.49023 0.881688 1
-3.12543 -0.0985147 0.0539716 11
-1.68142 -0.349442 0.0881861 55
-0.646256 -0.0213569 -0.0321625 59
-1.67132 -0.346711 -0.0291891 55
-0.806259 -0.0258848 -0.0946187 56
-0.763584 -0.155879 -0.065019 41
-0.812536 -0.0257977 -0.150945 52
-0.815234 -0.167168 -0.12646 50
-0.814581 -0.0253082 -0.20886 50
-0.807008 -0.16627 -0.181935 49
-6.86528 -0.202769 1.57508 1
-7.21801 -1.53187 1.96511 33
-7.27441 -0.214756 1.14453 38
-7.21698 -1.51854 1.42549 35
-7.28902 -0.216446 0.63493 30
-7.06819 -1.47687 0.88108 1
-3.1131 -0.0926933 0.0537534 11
-1.68447 -0.347018 0.0883169 55
-0.653779 -0.0204472 -0.0325564 61
-1.67437 -0.344304 -0.0292328 56
-0.806303 -0.0244776 -0.0946187 56
-0.81258 -0.0243795 -0.150945 53
-0.813107 -0.165239 -0.126069 50
-0.814624 -0.0238865 -0.20886 49
-0.80968 -0.165363 -0.182496 49
-6.85897 -0.165446 1.5734 1
-7.21884 -1.49258 1.96317 33
-7.2705 -0.176546 1.14375 36
-7.21041 -1.47777 1.42263 35
-7.29005 -0.178278 0.63493 29
-7.0734 -1.43934 0.880776 1
-3.10855 -0.0762715 0.0536661 12
-1.68382 -0.337695 0.0881861 55
-0.65388 -0.0169096 -0.0325564 61
-1.68105 -0.336527 -0.02932 61
-0.80642 -0.0202555 -0.0946187 58
-0.810243 -0.020068 -0.150468 52
-0.816381 -0.161472 -0.12646 49
-0.809909 -0.0195129 -0.207567 50
-0.805762 -0.160143 -0.181373 50
-6.8836 -0.154015 1.57901 1
-7.21434 -1.47852 1.96123 33
-7.27573 -0.163966 1.14453 35
-7.21083 -1.46343 1.42216 35
-7.28537 -0.165442 0.634494 30
-7.06617 -1.42503 0.879559 1
-3.10869 -0.0703034 0.0536661 15
-1.68196 -0.334263 0.0880552 56
-0.648917 -0.0156586 -0.0322938 59
-1.68163 -0.333593 -0.02932 62
-0.806454 -0.018848 -0.0946187 56
-0.807823 -0.0186016 -0.149992 53
-0.811821 -0.159069 -0.125677 50
-0.809945 -0.017958 -0.207567 50
-0.803653 -0.158251 -0.180812 50
-6.89164 -0.116891 1.5807 1
-7.22223 -1.43947 1.96123 33
-7.27157 -0.124515 1.14375 35
-7.21117 -1.42423 1.42073 35
-7.27869 -0.125894 0.63384 30
-7.06647 -1.38534 0.878646 1
-3.09652 -0.0538138 0.053448 29
-1.68374 -0.325157 0.0880552 58
-0.651486 -0.0123025 -0.0324251 59
-1.68096 -0.324009 -0.0292764 64
-0.804063 -0.0144441 -0.0943145 58
-0.810366 -0.0142696 -0.150468 52
-0.81022 -0.15434 -0.125285 49
-0.810028 -0.0137169 -0.207567 50
-0.811667 -0.155317 -0.182496 49
-6.92348 -0.106547 1.588 1
-7.21052 -1.42404 1.95735 33
-7.26682 -0.113017 1.14297 36
-7.20642 -1.41022 1.4193 33
-7.06621 -1.37376 0.878342 1
-3.10161 -0.0484852 0.0535353 35
-1.67935 -0.321559 0.0877936 56
-0.654003 -0.0112029 -0.0325564 59
-1.6668 -0.318221 -0.0290146 64
-0.804085 -0.0131811 -0.0943145 58
-0.810389 -0.0128552 -0.150468 53
-0.812912 -0.153398 -0.125677 50
-0.807636 -0.0122706 -0.20692 50
-0.807129 -0.153105 -0.181373 47
-7.21052 -1.38616 1.95542 33
-7.21347 -1.37373 1.4193 35
-7.06843 -1.33582 0.877733 1
-3.09431 -0.0327101 0.0534044 23
-1.67856 -0.312299 0.0876627 55
-0.646563 -0.00770518 -0.0321625 59
-1.67085 -0.310244 -0.0290583 64
-0.806624 -0.00899415 -0.0946187 58
-0.810444 -0.00875333 -0.150468 53
-0.81613 -0.149599 -0.126069 49
-0.807688 -0.00818269 -0.20692 50
-0.805526 -0.148421 -0.180812 49
-7.20581 -1.37221 1.95348 33
-7.21127 -1.35896 1.41834 35
-3.11058 -0.0279882 0.269093 8
-7.06587 -1.32256 0.877125 1
-3.09687 -0.0267899 0.053448 23
-1.6791 -0.309368 0.0876627 56
-0.649072 -0.00659675 -0.0322938 59
-1.66156 -0.305491 -0.0288837 56
-0.806639 -0.00758631 -0.0946187 58
-0.808004 -0.00732083 -0.149992 55
-0.809109 -0.146809 -0.124894 49
-0.812532 -0.00666321 -0.208214 52
-0.808178 -0.147467 -0.181373 49
-7.20838 -1.33232 1.95218 33
-3.10188 -0.0106012 0.484659 4
-7.20863 -1.31941 1.41644 35
-3.08329 -0.011072 0.266697 9
-7.0656 -1.28298 0.876212 1
-3.07447 -0.0105077 0.0530553 14
-1.67829 -0.299833 0.0875319 53
-0.646601 -0.00319117 -0.0321625 59
-1.67056 -0.297834 -0.0290146 47
-0.804187 -0.00321626 -0.0943145 58
-0.808032 -0.00294902 -0.149992 53
-0.809867 -0.142571 -0.124894 49
-0.810141 -0.00240579 -0.207567 52
-0.804172 -0.142215 -0.18025 49
-7.20357 -1.31843 1.95025 33
-3.09201 -0.00571498 0.483098 2
-7.20851 -1.30639 1.41596 35
-3.07583 -0.00568018 0.266043 1
-7.06028 -1.27055 0.875299 1
-3.08198 -0.00515087 0.0531862 1
-1.66893 -0.295428 0.0870085 39
-0.649102 -0.00206525 -0.0322938 59
-0.804191 -0.00195304 -0.0943145 59
-0.713966 -0.123339 -0.0602349 36
-0.808036 -0.00153874 -0.149992 55
-0.810114 -0.141157 -0.124894 50
-0.812559 -0.000990556 -0.208214 52
-0.804394 -0.140952 -0.18025 49
-7.2054 -1.2811 1.94895 35
-3.04261 0.0102851 0.475293 9
-7.20536 -1.26818 1.41405 35
-3.04843 0.0097876 0.263646 14
-7.06683 -1.23357 0.875299 1
-3.05448 0.0103429 0.0527063 20
-1.68275 -0.288832 0.0876627 39
-0.641615 0.00130208 -0.0319 59
-0.806671 0.00226896 -0.0946187 59
-0.702335 -0.117463 -0.0591477 36
-0.810487 0.00256309 -0.150468 56
-0.810842 -0.136913 -0.124894 49
-0.807723 0.00309519 -0.20692 50
-0.80752 -0.13716 -0.180812 47
-7.20287 -1.26768 1.94766 36
-3.04753 0.0156231 0.476074 9
-7.20295 -1.2535 1.4131 35
-3.0484 0.0151081 0.263646 15
-7.05675 -1.21911 0.873778 1
-3.04945 0.0161782 0.052619 23
-1.69064 -0.287169 0.0880552 14
-0.646604 0.00245154 -0.0321625 59
-0.799222 0.00363009 -0.093706 59
-0.69763 -0.115391 -0.0587128 36
-0.805573 0.0039451 -0.149516 55
-0.806214 -0.134656 -0.124111 50
-0.802886 0.00460966 -0.205627 52
-0.805358 -0.135332 -0.18025 49
-7.20486 -1.22788 1.94637 35
-3.04493 0.0320843 0.475683 9
-7.20457 -1.21495 1.41215 36
-3.04828 0.0316012 0.263646 14
-7.07059 -1.18215 0.874691 1
-3.04183 0.0320624 0.0524881 30
-0.646583 0.0058371 -0.0321625 59
-0.79671 0.00792521 -0.0934018 61
-0.703137 -0.112557 -0.0591477 38
-0.807994 0.00833315 -0.149992 55
-0.806908 -0.130432 -0.124111 50
-0.805266 0.00884424 -0.206274 52
-0.813285 -0.132188 -0.181935 49
-7.20223 -1.2145 1.94508 36
-3.05722 0.0370224 0.477634 8
-7.19942 -1.20116 1.41072 35
-3.05569 0.0370153 0.2643 14
-7.06264 -1.16941 0.873474 1
-3.04926 0.0374669 0.052619 23
-0.646572 0.00696559 -0.0321625 61
-0.796696 0.00917666 -0.0934018 61
-0.693504 -0.109706 -0.0582778 38
-0.807978 0.00974335 -0.149992 55
-0.804699 -0.12862 -0.123719 50
-0.805249 0.0102497 -0.206274 52
-0.803881 -0.129305 -0.179689 49
-7.20113 -1.17685 1.94314 36
-3.12859 0.0543042 0.488951 1
-6.96316 -1.12538 1.36306 1
-3.06791 0.0527005 0.265389 2
-7.05887 -1.13084 0.872257 1
-3.06403 0.053167 0.0528808 3
-0.649022 0.0103962 -0.0322938 61
-1.70601 -0.267809 -0.0295382 11
-0.80408 0.0134857 -0.0943145 67
-0.69161 -0.10568 -0.0580604 39
-0.805465 0.0137865 -0.149516 55
-0.802923 -0.124013 -0.123328 50
-0.805187 0.0143253 -0.206274 52
-0.804547 -0.125095 -0.179689 50
-7.19602 -1.16312 1.9412 35
-6.96046 -1.11123 1.36211 1
-3.08027 0.0582962 0.266479 11
-7.06083 -1.11852 0.872257 1
-3.07142 0.0591973 0.0530117 14
-0.644011 0.0114296 -0.0320313 62
-1.71635 -0.266392 -0.0297127 15
-0.801575 0.0148389 -0.0940102 67
-0.689333 -0.104084 -0.0578429 39
-0.807893 0.0152428 -0.149992 55
-0.803138 -0.122612 -0.123328 50
-0.802744 0.0158192 -0.205627 52
-0.804764 -0.12369 -0.179689 49
-7.19506 -1.12305 1.93926 35
-6.96376 -1.0744 1.36163 1
-7.06433 -1.07992 0.871953 1
-3.09855 0.0759645 0.0534916 14
-0.646438 0.0148642 -0.0321625 65
-0.796521 0.0190482 -0.0934018 70
-0.689868 -0.100473 -0.0578429 42
-0.802892 0.0194861 -0.14904 58
-0.803769 -0.118405 -0.123328 50
-0.80265 0.0200222 -0.205627 52
-0.807829 -0.119706 -0.18025 49
-7.16053 0.189846 1.64303 44
-7.19223 -1.10975 1.93797 35
-7.26518 0.191385 1.14297 38
-6.96563 -1.06224 1.36163 1
-7.04884 -1.06621 0.869823 1
-3.09092 0.0811722 0.0533607 12
-0.651402 0.0161267 -0.0324251 71
-0.79401 0.0202318 -0.0930975 70
-0.685117 -0.0985258 -0.057408 44
-0.80531 0.0209554 -0.149516 55
-0.806416 -0.117372 -0.123719 50
-0.805028 0.0214917 -0.206274 52
-0.803199 -0.117701 -0.179127 49
-7.14969 0.227025 1.64078 33
-7.19298 -1.07262 1.93668 33
-7.25914 0.229266 1.14219 36
-7.19669 -1.06039 1.40595 35
-7.27121 0.228391 0.633404 27
-7.05924 -1.03001 0.870431 1
-3.09047 0.0968156 0.0533607 11
-0.651313 0.0194235 -0.0324251 74
-0.798853 0.02455 -0.093706 70
-0.683143 -0.0946978 -0.0571906 44
-0.802741 0.0249507 -0.14904 58
-0.802133 -0.112433 -0.122936 50
-0.802495 0.0254851 -0.205627 52
-0.801395 -0.113139 -0.178566 49
-7.1542 0.238419 1.64191 33
-7.19006 -1.05935 1.93538 33
-7.25873 0.241935 1.14219 36
-6.95813 -1.01267 1.35877 1
-7.27329 0.241164 0.633622 29
-7.0512 -1.01627 0.869214 1
-3.13027 0.103549 0.0540588 11
-0.653773 0.0206443 -0.0325564 74
-0.798809 0.0259443 -0.093706 71
-0.678377 -0.0927957 -0.0567557 45
-0.810054 0.0266061 -0.150468 58
-0.804772 -0.111386 -0.123328 50
-0.802449 0.0268857 -0.205627 53
-0.804002 -0.112091 -0.179127 49
-7.15037 0.277028 1.64134 33
-7.19312 -1.02135 1.93474 33
-7.25736 0.279938 1.14219 36
-6.9609 -0.975883 1.35829 1
-7.27939 0.279532 0.634276 29
-7.0466 -0.977963 0.867997 1
-3.12719 0.119841 0.0540152 3
-0.65615 0.0241643 -0.0326876 82
-0.796183 0.0300286 -0.0934018 73
-0.666519 -0.0875331 -0.0556684 45
-0.807452 0.0307495 -0.149992 58
-0.802898 -0.106831 -0.122936 50
-0.80471 0.0311847 -0.206274 52
-0.80699 -0.108218 -0.179689 49
-7.14993 0.288259 1.64134 33
-7.19489 -1.0088 1.93474 33
-7.25933 0.292704 1.14258 35
-6.95287 -0.96238 1.35639 1
-7.26894 0.291835 0.633404 30
-7.04092 -0.964647 0.867085 1
-3.06251 -0.414684 0.160148 9
-0.658602 0.0254109 -0.0328189 85
-0.791171 0.0312138 -0.0927933 76
-0.669138 -0.0867072 -0.0558859 47
-0.804945 0.0320568 -0.149516 58
-0.803084 -0.105429 -0.122936 50
-0.802242 0.0324872 -0.205627 52
-0.804764 -0.106475 -0.179127 49
-7.15313 0.327163 1.64247 36
-7.1905 -0.969813 1.93215 32
-7.26017 0.330823 1.14297 33
-6.95538 -0.925636 1.35591 1
-7.28722 0.330798 0.635147 27
-7.04095 -0.927117 0.866476 1
-3.04732 -0.396362 0.159232 9
-0.658455 0.0289739 -0.0328189 89
-0.790996 0.0353559 -0.0927933 79
-0.669597 -0.0830856 -0.0558859 47
-0.807217 0.0363858 -0.149992 58
-0.806073 -0.101546 -0.123328 50
-0.799649 0.0365726 -0.20498 53
-0.805311 -0.10226 -0.179127 49
-7.14525 0.339299 1.64078 33
-7.1874 -0.956621 1.93086 32
-7.26204 0.343611 1.14336 33
-6.94985 -0.911319 1.35448 1
-7.28912 0.343634 0.635365 27
-7.04256 -0.914827 0.866476 1
-3.05048 -0.391364 0.159363 9
-0.655909 0.0300037 -0.0326876 90
-0.793412 0.0368559 -0.0930975 79
-0.662332 -0.0809571 -0.0552335 47
-0.80225 0.0375565 -0.14904 58
-0.8038 -0.0998201 -0.122936 50
-0.804401 0.0383462 -0.206274 52
-0.805488 -0.100855 -0.179127 50
-6.88544 0.364259 1.58126 1
-7.19007 -0.917412 1.93021 32
-7.25761 0.382766 1.14297 36
-6.94722 -0.873993 1.35305 1
-7.28715 0.383067 0.635365 27
-7.27147 -0.904737 0.894162 33
-3.05255 -0.374854 0.159363 9
-0.658236 0.0335701 -0.0328189 90
-0.790723 0.0410152 -0.0927933 79
-0.66769 -0.078102 -0.0556684 47
-0.806936 0.0421611 -0.149992 58
-0.804312 -0.0956101 -0.122936 50
-0.799366 0.0422938 -0.20498 53
-0.801188 -0.0958869 -0.178004 50
-7.14027 0.389041 1.64022 33
-7.18687 -0.904256 1.92892 32
-7.2644 0.394569 1.14414 38
-6.95117 -0.862171 1.35353 1
-7.28647 0.395785 0.635365 29
-7.04139 -0.864726 0.865564 1
-3.05066 -0.369754 0.159232 9
-0.655684 0.0345821 -0.0326876 90
-0.790658 0.0422572 -0.0927933 80
-0.665353 -0.0766339 -0.0554509 49
-0.806862 0.0435694 -0.149992 58
-0.804477 -0.0942062 -0.122936 50
-0.799291 0.0436889 -0.20498 53
-0.803755 -0.0949285 -0.178566 50
-7.143 0.426713 1.64134 33
-7.19135 -0.867868 1.92892 32
-7.2573 0.432305 1.14336 38
-6.95057 -0.826394 1.35257 1
-7.2794 0.432363 0.63493 30
-7.27253 -0.854639 0.893554 33
-3.05503 -0.354067 0.159363 11
-0.653002 0.0378649 -0.0325564 90
-0.787949 0.0462467 -0.092489 82
-0.663271 -0.0728593 -0.0552335 49
-0.804181 0.0475038 -0.149516 58
-0.797603 -0.0891259 -0.121762 50
-0.79665 0.0475856 -0.204334 53
-0.799403 -0.0901436 -0.177443 50
-7.14711 0.43948 1.64247 33
-7.18806 -0.854742 1.92763 32
-7.25654 0.444971 1.14336 36
-6.95215 -0.813048 1.35257 1
-7.27366 0.444763 0.634494 32
-7.03986 -0.814686 0.864651 1
-3.05069 -0.348161 0.159101 11
-0.655427 0.0391588 -0.0326876 90
-0.787867 0.0476219 -0.092489 83
-0.660923 -0.0714162 -0.055016 52
-0.801647 0.048754 -0.14904 59
-0.80021 -0.0880183 -0.122153 52
-0.79472 -0.0881814 -0.17632 50
-7.14219 0.477979 1.64191 33
-7.18778 -0.815291 1.92634 32
-7.25156 0.484061 1.14297 38
-6.94899 -0.775814 1.35114 1
-7.26867 0.483944 0.634276 32
-7.26613 -0.801208 0.892032 33
-3.05253 -0.33165 0.159101 11
-0.655212 0.04259 -0.0326876 90
-0.790073 0.0520514 -0.0927933 85
-0.663764 -0.0682271 -0.0552335 52
-0.808718 0.0535901 -0.150468 58
-0.800675 -0.0836875 -0.122153 50
-0.800028 -0.0844209 -0.177443 50
-7.14387 0.489365 1.64247 33
-7.18439 -0.802205 1.92504 32
-7.25071 0.496717 1.14297 38
-6.94546 -0.763145 1.35019 1
-7.26284 0.496289 0.63384 33
-7.26505 -0.788256 0.891728 32
-3.05062 -0.326053 0.15897 11
-0.655137 0.0437335 -0.0326876 95
-0.789981 0.0534303 -0.0927933 85
-0.668834 -0.0676047 -0.0556684 50
-0.803726 0.05466 -0.149516 58
-0.803274 -0.082557 -0.122545 52
-0.803421 0.0551839 -0.206274 52
-0.797752 -0.0827584 -0.176881 50
-7.13382 0.527469 1.64078 33
-7.1861 -0.76432 1.9244 32
-7.25047 0.534856 1.14336 38
-6.94203 -0.725997 1.34876 1
-7.25766 0.534127 0.633622 35
-7.27401 -0.750718 0.892337 33
-3.04732 -0.309563 0.158709 11
-0.654899 0.0471632 -0.0326876 98
-0.789691 0.0575659 -0.0927933 88
-0.664224 -0.0635915 -0.0552335 50
-0.803429 0.0588675 -0.149516 58
-0.801226 -0.0782356 -0.122153 50
-0.798305 0.0590252 -0.20498 53
-0.800597 -0.0788336 -0.177443 50
-7.1427 0.53941 1.64303 36
-7.18502 -0.751524 1.92375 32
-7.24469 0.545873 1.14258 38
-6.94329 -0.71388 1.34876 1
-7.25423 0.546606 0.633404 35
-7.27518 -0.739291 0.892337 35
-3.05028 -0.305028 0.15884 11
-0.654816 0.0483061 -0.0326876 101
-0.787125 0.0586176 -0.092489 88
-0.664334 -0.0624321 -0.0552335 50
-0.798431 0.0598939 -0.148564 58
-0.793992 -0.0760859 -0.120979 50
-0.803017 0.0607915 -0.206274 53
-0.795874 -0.0770768 -0.17632 50
-7.14464 0.577195 1.64415 36
-7.18392 -0.714667 1.92246 30
-7.25158 0.584594 1.14414 38
-6.94437 -0.678488 1.34828 1
-7.24641 0.582915 0.632969 33
-7.27649 -0.700949 0.892032 33
-3.04687 -0.288574 0.158578 11
-0.662019 0.0523399 -0.0330815 105
-0.791754 0.0631413 -0.0930975 88
-0.662172 -0.058715 -0.055016 50
-0.798118 0.0639344 -0.148564 58
-0.799295 -0.0724026 -0.121762 52
-0.796266 -0.0729086 -0.17632 52
-6.87656 0.567566 1.58238 1
-7.18035 -0.701654 1.92117 30
-7.24563 0.596843 1.14336 38
-6.94566 -0.665154 1.34828 1
-7.24786 0.595766 0.633186 33
-7.26782 -0.687307 0.890815 33
-3.05731 -0.284196 0.159101 11
-0.661927 0.0534953 -0.0330815 109
-0.784224 0.0639054 -0.0921848 89
-0.659794 -0.0573257 -0.0547986 52
-0.798005 0.0653272 -0.148564 58
-0.794504 -0.070541 -0.120979 52
-0.801242 -0.071984 -0.177443 50
-7.14275 0.628519 1.64471 36
-7.17923 -0.662348 1.91987 29
-7.24475 0.636253 1.14375 38
-6.94661 -0.628555 1.34781 1
-7.24453 0.634972 0.633186 35
-7.27637 -0.648418 0.891424 33
-3.0588 -0.26765 0.159101 12
-0.659151 0.056741 -0.0329502 109
-0.78881 0.0685861 -0.0927933 88
-0.665047 -0.0543113 -0.0552335 53
-0.795195 0.0694261 -0.148088 58
-0.792403 -0.0661597 -0.120587 50
-0.794342 -0.0669893 -0.175758 50
-7.11992 0.637778 1.63966 26
-7.18519 -0.650255 1.92117 32
-7.23145 0.646531 1.1418 33
-6.94036 -0.615774 1.34638 1
-7.24589 0.647837 0.633404 33
-7.27491 -0.63677 0.89112 33
-3.05424 -0.26241 0.15884 12
-0.656564 0.0576677 -0.0328189 115
-0.78623 0.0696019 -0.092489 90
-0.665141 -0.0531505 -0.0552335 52
-0.797517 0.0710359 -0.148564 58
-0.797436 -0.0652087 -0.12137 50
-0.80209 0.0719974 -0.206274 52
-0.794446 -0.0657415 -0.175758 50
-7.17876 -0.613051 1.91858 30
-6.9385 -0.580226 1.34543 1
-7.27567 -0.598465 0.890815 33
-3.05558 -0.246414 0.15884 12
-0.658738 0.0613414 -0.0329502 122
-0.790795 0.0741898 -0.0930975 90
-0.662928 -0.0494639 -0.055016 53
-0.79959 0.075306 -0.14904 55
-0.795306 -0.0608293 -0.120979 52
-0.796907 0.0755916 -0.20498 53
-0.794779 -0.0615809 -0.175758 50
-7.17742 -0.600318 1.91794 30
-6.9396 -0.566904 1.34543 1
-7.27176 -0.585364 0.890207 33
-3.05849 -0.241281 0.15897 12
-0.656145 0.06225 -0.0328189 126
-0.790664 0.0755699 -0.0930975 90
-0.660531 -0.048108 -0.0547986 53
-0.8019 0.07694 -0.149516 58
-0.795411 -0.0594411 -0.120979 50
-0.796761 0.0771214 -0.20498 53
-0.797313 -0.0603924 -0.17632 50
-2.86069 0.291179 0.654741 47
-7.16611 -0.560336 1.91406 29
-6.93758 -0.530183 1.34447 1
-7.27482 -0.546012 0.890207 33
-3.05477 -0.224356 0.158709 12
-0.658294 0.0659387 -0.0329502 131
-0.795181 0.0803542 -0.093706 90
-0.660773 -0.0446488 -0.0547986 55
-0.801472 0.0812776 -0.149516 58
-0.795711 -0.0552755 -0.120979 52
-0.796346 0.0812922 -0.20498 53
-0.800057 -0.0562633 -0.176881 50
-2.86023 0.295672 0.654741 47
-7.16226 -0.547457 1.91277 29
-6.9336 -0.517705 1.34352 1
-7.27072 -0.534217 0.889599 33
-3.05014 -0.219192 0.158447 12
-0.653212 0.0665708 -0.0326876 134
-0.792586 0.0813455 -0.0934018 90
-0.663334 -0.043677 -0.055016 55
-0.801329 0.0826763 -0.149516 58
-0.793344 -0.053705 -0.120587 52
-0.796203 0.0826819 -0.20498 53
-0.795286 -0.0546429 -0.175758 50
-2.85622 0.31038 0.654179 47
-7.16013 -0.510851 1.91147 29
-6.93858 -0.482777 1.344 1
-7.27342 -0.49614 0.889599 33
-3.05374 -0.203388 0.158578 12
-0.65783 0.070418 -0.0329502 135
-0.792149 0.0854944 -0.0934018 90
-0.658577 -0.0399811 -0.0545811 55
-0.798461 0.0864626 -0.14904 58
-0.793615 -0.0495503 -0.120587 52
-0.795774 0.0867108 -0.20498 53
-0.797992 -0.0506471 -0.17632 50
-2.85573 0.314866 0.654179 49
-7.15137 -0.497677 1.90889 27
-6.93696 -0.470498 1.34352 1
-7.26932 -0.483113 0.88899 33
-3.05409 -0.198058 0.158578 14
-0.660187 0.0718413 -0.0330815 140
-0.789532 0.0866019 -0.0930975 90
-0.661131 -0.0389962 -0.0547986 55
-0.800748 0.0881288 -0.149516 58
-0.791236 -0.0480006 -0.120196 52
-0.795622 0.0880996 -0.20498 53
-0.790787 -0.0487598 -0.174635 52
-2.84914 0.32975 0.653056 49
-7.16111 -0.460695 1.91083 27
-2.86552 0.331158 0.450319 55
-6.94178 -0.434325 1.344 1
-2.8799 0.332331 0.250573 74
-7.27175 -0.445044 0.88899 33
-3.05259 -0.181912 0.158447 14
-0.659802 0.075297 -0.0330815 146
-0.791533 0.0910225 -0.0934018 90
-0.65884 -0.0353824 -0.0545811 55
-0.797838 0.0920348 -0.14904 58
-0.796406 -0.0441603 -0.120979 52
-0.797548 0.0925468 -0.205627 52
-0.793463 -0.0447707 -0.175197 50
-2.85104 0.33451 0.653618 50
-7.15949 -0.448044 1.91018 24
-2.86003 0.335581 0.449538 55
-6.92783 -0.421304 1.34114 1
-2.87932 0.337356 0.250573 90
-7.27004 -0.432203 0.888686 32
-3.0554 -0.176732 0.158578 14
-0.657191 0.0761559 -0.0329502 148
-0.791373 0.0924038 -0.0934018 90
-0.663873 -0.034527 -0.055016 55
-0.795239 0.0931374 -0.148564 58
-0.789087 -0.0423283 -0.119804 52
-0.797385 0.0939386 -0.205627 53
-0.79354 -0.0433857 -0.175197 52
-2.84671 0.350129 0.653056 50
-6.98581 -0.399122 1.86301 1
-2.85327 0.350446 0.448758 55
-6.93246 -0.383953 1.34161 1
-2.87745 0.35293 0.250573 98
-7.26731 -0.392591 0.888077 33
-3.05381 -0.160064 0.158447 14
-0.661724 0.0803225 -0.0332127 146
-0.790861 0.0966842 -0.0934018 90
-0.661563 -0.0308008 -0.0547986 55
-0.797159 0.0977416 -0.14904 58
-0.786833 -0.0380617 -0.119413 50
-0.799262 0.0985513 -0.206274 53
-0.791331 -0.038957 -0.174635 50
-2.84616 0.3546 0.653056 50
-6.98167 -0.386658 1.86172 1
-2.85762 0.35554 0.449538 55
-6.93067 -0.371719 1.34114 1
-2.87436 0.357643 0.250355 95
-7.27288 -0.381438 0.888686 32
-3.05905 -0.155528 0.158709 14
-0.656629 0.0808567 -0.0329502 142
-0.788246 0.0976171 -0.0930975 90
-0.664103 -0.0297756 -0.055016 55
-0.801857 0.0997471 -0.149992 56
-0.789363 -0.0368185 -0.119804 52
-0.791901 0.0990343 -0.204334 53
-0.793823 -0.0378448 -0.175197 50
-2.84668 0.369813 0.653618 50
-6.97148 -0.350701 1.85848 1
-2.85327 0.370178 0.449148 55
-6.93001 -0.336515 1.34066 1
-2.87498 0.372508 0.250573 79
-7.26734 -0.342997 0.887773 33
-3.05483 -0.139273 0.158447 14
-0.658672 0.0846169 -0.0330815 134
-0.785264 0.101421 -0.0927933 90
-0.661762 -0.0261815 -0.0547986 55
-0.792012 -0.0328021 -0.120196 50
-0.79139 0.103041 -0.204334 52
-0.794011 -0.0336878 -0.175197 50
-2.84361 0.374461 0.653056 50
-6.98414 -0.339127 1.86172 1
-2.85996 0.376127 0.450319 56
-6.92084 -0.322745 1.33875 1
-2.86692 0.376549 0.249919 59
-7.27041 -0.330427 0.888077 33
-3.05507 -0.133941 0.158447 14
-0.656048 0.0854388 -0.0329502 124
-0.782626 0.102465 -0.092489 88
-0.661807 -0.0250265 -0.0547986 56
-0.794534 -0.0315326 -0.120587 50
-0.79119 0.10456 -0.204334 53
-0.791635 -0.0321881 -0.174635 50
-2.83913 0.389509 0.652495 50
-6.97381 -0.300805 1.85848 1
-2.85544 0.391259 0.449929 53
-6.92488 -0.286607 1.33923 1
-2.86237 0.391716 0.249701 55
-7.26961 -0.290984 0.887773 32
-3.05326 -0.11731 0.158316 15
-0.653119 0.0885321 -0.0328189 115
-0.78206 0.106698 -0.092489 88
-0.65944 -0.0214618 -0.0545811 56
-0.797161 -0.0273328 -0.120979 50
-0.793024 0.109035 -0.20498 53
-0.791797 -0.0279045 -0.174635 50
-2.84334 0.39464 0.653618 49
-6.97674 -0.288735 1.85913 1
-2.84986 0.395561 0.449148 52
-7.16813 -0.284313 1.38641 36
-2.86168 0.396711 0.249701 53
-7.2701 -0.278296 0.887773 33
-3.05595 -0.112077 0.158447 15
-0.652963 0.0896719 -0.0328189 110
-0.786787 0.10875 -0.0930975 86
-0.659477 -0.0203109 -0.0545811 56
-0.797956 0.110592 -0.149516 58
-0.787338 -0.0255606 -0.119413 50
-0.792832 0.110419 -0.20498 53
-0.784542 -0.026233 -0.17295 50
-2.83634 0.40932 0.652495 49
-6.97574 -0.252112 1.85848 1
-2.8502 0.410831 0.449538 49
-7.17443 -0.246949 1.38737 35
-2.85464 0.410977 0.249265 50
-7.26402 -0.239976 0.88686 33
-3.04901 -0.0958271 0.158055 15
-0.652485 0.0930896 -0.0328189 106
-0.781296 0.112155 -0.092489 82
-0.664553 -0.017021 -0.055016 56
-0.792508 0.114061 -0.148564 55
-0.787457 -0.0215752 -0.119413 52
-0.789854 0.114219 -0.204334 52
-0.789538 -0.0222923 -0.174073 50
-2.83811 0.414128 0.653056 49
-6.97617 -0.239937 1.85848 1
-2.84466 0.414593 0.448758 49
-7.16749 -0.234182 1.38594 36
-2.85392 0.415959 0.249265 50
-7.27679 -0.228963 0.888382 33
-3.04916 -0.0910376 0.158055 17
-0.652321 0.0942282 -0.0328189 103
-0.783574 0.113743 -0.0927933 80
-0.654624 -0.0155517 -0.0541462 56
-0.792308 0.115444 -0.148564 56
-0.785026 -0.0201224 -0.119021 50
-0.794431 0.116305 -0.205627 52
-0.792007 -0.021132 -0.174635 49
-2.83108 0.428251 0.651933 47
-6.97729 -0.204624 1.85848 1
-2.84001 0.429111 0.448368 49
-7.17104 -0.19797 1.38641 35
-2.84685 0.429652 0.24883 50
-7.26797 -0.190593 0.887165 33
-3.05458 -0.0752018 0.158316 17
-0.649351 0.0972674 -0.0326876 100
-0.778061 0.117097 -0.0921848 79
-0.657186 -0.0121882 -0.0543637 56
-0.796566 0.120193 -0.149516 58
-0.792525 -0.0162082 -0.120196 52
-0.793832 0.120324 -0.205627 52
-0.792107 -0.0169848 -0.174635 49
-2.82311 0.432082 0.650249 49
-6.97281 -0.19231 1.85719 1
-2.83437 0.433319 0.447587 49
-7.17877 -0.184397 1.38784 35
-2.8461 0.43462 0.24883 50
-7.27573 -0.178094 0.888077 33
-3.04972 -0.0697485 0.158055 15
-0.646712 0.0980212 -0.0325564 99
-0.777856 0.118454 -0.0921848 77
-0.654717 -0.0109812 -0.0541462 56
-0.793929 0.121209 -0.14904 55
-0.790084 -0.0147638 -0.119804 52
-0.7936 0.121848 -0.205627 52
-0.787265 -0.0154764 -0.173512 52
-2.82073 0.447351 0.650249 49
-6.97134 -0.154525 1.85655 1
-2.83199 0.448648 0.447587 49
-7.17227 -0.146651 1.38641 35
-2.84124 0.449622 0.248612 50
-7.27163 -0.138629 0.887469 32
-3.04756 -0.0531995 0.157924 17
-0.651121 0.102191 -0.0328189 97
-0.779654 0.123052 -0.092489 77
-0.654765 -0.00755298 -0.0541462 56
-0.793262 0.125503 -0.14904 58
-0.787682 -0.0105785 -0.119413 50
-0.790567 0.125619 -0.20498 52
-0.784901 -0.0111669 -0.17295 50
-2.82002 0.451781 0.650249 49
-6.97884 -0.142511 1.85848 1
-2.82884 0.452704 0.447197 50
-7.17006 -0.134085 1.38594 33
-2.84045 0.454581 0.248612 55
-7.24951 -0.126801 0.884731 27
-0.688737 0.109284 0.0115622 8
-3.04764 -0.0484123 0.157924 20
-0.648477 0.10293 -0.0326876 95
-0.77946 0.124277 -0.092489 77
-0.659758 -0.00649538 -0.0545811 56
-0.795465 0.127279 -0.149516 55
-0.790168 -0.00924766 -0.119804 53
-0.79273 0.127386 -0.205627 52
-0.784918 -0.00993401 -0.17295 50
-2.82242 0.467338 0.651372 50
-7.0012 -0.107535 1.8643 1
-2.82643 0.46751 0.447197 50
-2.8332 0.468137 0.248176 56
-0.683243 0.111951 0.011475 4
-3.04285 -0.0323933 0.157662 21
-0.645485 0.105802 -0.0325564 91
-0.781246 0.128764 -0.0927933 76
-0.657292 -0.00312598 -0.0543637 56
-0.79481 0.131303 -0.149516 55
-0.787736 -0.00507922 -0.119413 53
-0.794457 0.131796 -0.206274 50
-0.782523 -0.00579091 -0.172389 50
-2.81448 0.470562 0.649687 49
-2.82318 0.472034 0.446807 52
-2.83729 0.473904 0.248612 61
-0.692907 0.114797 0.0116495 4
-3.05289 -0.0271871 0.158185 23
-0.650224 0.107755 -0.0328189 90
-0.785914 0.130952 -0.0934018 73
-0.659787 -0.00200443 -0.0545811 58
-0.79216 0.132282 -0.14904 55
-0.790213 -0.00373107 -0.119804 53
-0.794225 0.133182 -0.206274 52
-0.784968 -0.00445406 -0.17295 50
-2.80949 0.485367 0.649126 49
-2.82067 0.486809 0.446807 52
-3.10965 -0.0179571 0.597172 9
-2.83723 0.489178 0.24883 82
-3.08677 -0.0135156 0.374216 8
-0.687371 0.117571 0.0115622 4
-3.0505 -0.0111888 0.158055 23
-0.642252 0.109992 -0.0324251 90
-0.780328 0.134215 -0.0927933 71
-0.657297 0.00157754 -0.0543637 56
-0.789038 0.136007 -0.148564 55
-0.785283 0.000434084 -0.119021 52
-0.788759 0.136507 -0.20498 52
-0.784981 -0.00034393 -0.17295 50
-2.80864 0.49027 0.649126 50
-2.82224 0.492157 0.447197 55
-3.10722 -0.0119737 0.596696 1
-2.83637 0.494129 0.24883 90
-3.04957 -0.00797226 0.369652 3
-0.692068 0.119752 0.0116495 4
-3.05051 -0.00586469 0.158055 17
-0.646977 0.111974 -0.0326876 90
-0.78498 0.136435 -0.0934018 71
-0.657293 0.00272474 -0.0543637 56
-0.791217 0.137809 -0.14904 55
-0.79022 0.0017857 -0.119804 52
-0.786118 0.1376 -0.204334 52
-0.78498 0.00102612 -0.17295 50
-2.80595 0.505459 0.649126 52
-2.81711 0.506981 0.446807 55
-3.06061 0.00430387 0.587641 8
-2.8312 0.509026 0.248612 90
-3.0446 0.00852145 0.369043 11
-0.691432 0.123374 0.0116495 8
-3.048 0.0106354 0.157924 18
-0.643925 0.114917 -0.0325564 90
-0.784231 0.14068 -0.0934018 71
-0.65478 0.00616105 -0.0541462 58
-0.795289 0.142965 -0.149992 56
-0.7902 0.00592324 -0.119804 53
-0.790138 0.142581 -0.205627 52
-0.789835 0.00527579 -0.174073 52
-2.80515 0.509866 0.649126 50
-2.82117 0.51229 0.447587 56
-3.06306 0.00964949 0.588117 4
-2.82786 0.513521 0.248394 73
-3.03962 0.01329 0.368435 11
-0.693674 0.125029 0.0116931 8
-3.04548 0.0154144 0.157793 24
-0.648635 0.116936 -0.0328189 90
-0.779127 0.14102 -0.0927933 68
-0.654768 0.00730384 -0.0541462 58
-0.790188 0.00730239 -0.119804 53
-0.789888 0.143959 -0.205627 52
-0.784954 0.00650625 -0.17295 50
-2.80005 0.524097 0.648564 52
-2.81359 0.526144 0.446807 52
-3.07278 0.0252179 0.590024 4
-2.82033 0.52691 0.247958 58
-3.03703 0.0291853 0.368131 11
-0.693032 0.128538 0.0116931 9
-3.05035 0.0314038 0.158055 26
-0.645561 0.11987 -0.0326876 90
-0.783255 0.146015 -0.0934018 62
-0.654721 0.0107321 -0.0541462 58
-0.790139 0.0114397 -0.119804 53
-0.789149 0.147955 -0.205627 53
-0.780037 0.0105804 -0.171827 52
-2.80152 0.529437 0.649126 52
-2.80782 0.530136 0.446026 44
-3.06291 0.0310332 0.588117 3
-2.8194 0.531832 0.247958 56
-3.04194 0.0345343 0.368739 11
-0.697696 0.130799 0.0117804 11
-3.0453 0.0366754 0.157793 23
-0.642897 0.120531 -0.0325564 90
-0.782999 0.147382 -0.0934018 62
-0.657191 0.0119017 -0.0543637 58
-0.786805 0.148384 -0.148564 55
-0.792587 0.0128437 -0.120196 53
-0.788864 0.14947 -0.205627 52
-0.784889 0.0119861 -0.17295 52
-2.79622 0.54412 0.648564 52
-2.80006 0.544375 0.445246 38
-3.0897 0.0474423 0.59336 3
-2.81649 0.547078 0.247958 55
-3.07644 0.0515197 0.372999 2
-3.05005 0.0532307 0.158055 23
-0.644708 0.124374 -0.0326876 90
-0.78219 0.151616 -0.0934018 61
-0.65463 0.0153026 -0.0541462 58
-0.790807 0.153583 -0.149516 53
-0.792509 0.0169935 -0.120196 55
-0.78807 0.153599 -0.205627 52
-0.784813 0.0162325 -0.17295 52
-2.79537 0.548512 0.648564 50
-2.80647 0.550201 0.446416 49
-2.81064 0.551032 0.247522 55
-3.04497 0.0579345 0.157793 23
-0.64204 0.125017 -0.0325564 90
-0.779517 0.152365 -0.0930975 61
-0.657092 0.0164895 -0.0543637 58
-0.790538 0.154963 -0.149516 53
-0.792478 0.0183767 -0.120196 55
-0.792538 0.155914 -0.20692 52
-0.779915 0.017387 -0.171827 52
-2.79007 0.562658 0.648003 49
-2.79629 0.563421 0.445246 50
-2.80781 0.565251 0.247522 55
-0.68627 0.137212 0.0116058 11
-3.04463 0.0738771 0.157793 21
-0.641399 0.128265 -0.0325564 89
-0.78114 0.156937 -0.0934018 61
-0.652021 0.0197012 -0.0539288 58
-0.787338 0.158473 -0.14904 53
-0.787434 0.0224155 -0.119413 55
-0.787007 0.158959 -0.205627 53
-0.779813 0.0214704 -0.171827 52
-2.78918 0.56704 0.648003 50
-2.80014 0.569287 0.446026 52
-7.15224 0.164648 1.3826 30
-2.81414 0.571642 0.248176 61
-7.24846 0.176888 0.884731 29
-0.690928 0.139408 0.0116931 9
-3.042 0.0791299 0.157662 23
-0.641175 0.129384 -0.0325564 83
-0.785727 0.159295 -0.0940102 59
-0.656965 0.0209617 -0.0543637 59
-0.789465 0.16034 -0.149516 53
-0.799735 0.0240871 -0.12137 56
-0.789093 0.160819 -0.206274 52
-0.777339 0.0227753 -0.171266 52
-2.78835 0.583109 0.648564 50
-6.89331 0.184198 1.83587 1
-2.79702 0.584429 0.446026 50
-7.16351 0.203684 1.38498 30
-2.81101 0.586859 0.248176 82
-7.25484 0.21632 0.885643 30
-0.685271 0.142119 0.0116058 8
-3.04652 0.0957364 0.157924 23
-0.642909 0.133363 -0.0326876 80
-0.784854 0.163543 -0.0940102 59
-0.651863 0.0243664 -0.0539288 59
-0.788586 0.164609 -0.149516 53
-0.79713 0.0282018 -0.120979 58
-0.788212 0.165086 -0.206274 52
-0.777204 0.0269808 -0.171266 52
-2.78267 0.586481 0.647441 50
-6.92919 0.197234 1.84556 1
-2.79368 0.588312 0.445636 55
-7.16069 0.216114 1.38451 30
-2.81973 0.593822 0.249048 99
-7.26193 0.227945 0.886556 30
-0.687467 0.143832 0.0116495 8
-3.04137 0.100365 0.157662 23
-0.63779 0.133452 -0.0324251 73
-0.784596 0.164776 -0.0940102 59
-0.656798 0.0256623 -0.0543637 62
-0.790698 0.166495 -0.149992 53
-0.79708 0.029593 -0.120979 56
-0.787923 0.166462 -0.206274 52
-0.779596 0.0282747 -0.171827 53
-2.78194 0.601559 0.648003 50
-6.92327 0.232144 1.84427 1
-2.78815 0.602409 0.445246 55
-7.1546 0.252185 1.38355 30
-2.80452 0.605453 0.247958 104
-7.26311 0.266054 0.88686 33
-0.684287 0.146781 0.0116058 3
-3.04579 0.116471 0.157924 24
-0.634642 0.136261 -0.0322938 67
-0.790997 0.170463 -0.094923 59
-0.651677 0.0289166 -0.0539288 64
-0.789845 0.170495 -0.149992 53
-0.801849 0.0339453 -0.121762 56
-0.78707 0.170447 -0.206274 52
-0.779437 0.0323562 -0.171827 52
-2.78088 0.606413 0.648003 52
-6.91803 0.24406 1.84298 1
-2.7871 0.607274 0.445246 39
-7.15901 0.266099 1.38451 30
-2.80832 0.611409 0.248394 101
-7.2552 0.278449 0.885948 33
-0.688888 0.149162 0.0116931 3
-3.04309 0.121691 0.157793 23
-0.629526 0.136301 -0.0320313 64
-0.788274 0.171312 -0.0946187 59
-0.654114 0.0301505 -0.0541462 67
-0.791944 0.172399 -0.150468 53
-0.796854 0.0351569 -0.120979 58
-0.786741 0.171958 -0.206274 52
-0.774511 0.0335363 -0.170704 53
-2.77043 0.619851 0.646318 50
-6.93109 0.282066 1.84685 1
-2.78136 0.621805 0.444856 53
-7.16242 0.303784 1.38546 33
-2.79525 0.624418 0.247522 83
-7.26102 0.31802 0.88686 33
-0.692976 0.15386 0.0117804 3
-3.04738 0.138372 0.158055 23
-0.626368 0.139049 -0.0319 61
-0.782494 0.174486 -0.0940102 59
-0.656435 0.0336845 -0.0543637 68
-0.783816 0.175064 -0.14904 53
-0.799126 0.0394355 -0.12137 58
-0.788186 0.176607 -0.20692 50
-0.784054 0.0381395 -0.17295 53
-2.77421 0.625276 0.647441 50
-6.93058 0.294162 1.84685 1
-2.78038 0.626173 0.444856 53
-7.15698 0.316072 1.38451 32
