# .PCD v0.7 - Point Cloud Data file format
VERSION 0.7
FIELDS x y z intensity
SIZE 4 4 4 4
TYPE F F F F
COUNT 1 1 1 1
WIDTH 1621
HEIGHT 1
VIEWPOINT 0 0 0 1 0 0 0
POINTS 1621
DATA ascii
-1.46339 0.659271 -0.249005 4
-0.919208 0.625797 -0.288395 3
-1.04211 0.469736 -0.255495 4
-1.89053 1.28938 0.519413 39
-2.77245 1.23857 0.803232 24
-1.89779 1.29386 0.357445 39
-2.74279 1.23163 0.577156 24
-1.89342 1.29041 0.197408 42
-2.72388 1.22714 0.362046 15
-1.43922 0.652054 0.0809899 4
-1.40652 0.637943 -0.0263531 4
-1.07277 0.732298 -0.245225 4
-1.46223 0.661824 -0.249005 4
-0.921989 0.630292 -0.289688 3
-1.04796 0.474541 -0.257179 4
-1.8695 1.28989 0.515482 39
-2.7459 1.24461 0.797417 56
-1.87857 1.29569 0.355104 39
-2.74524 1.25003 0.579062 53
-1.87617 1.29356 0.196318 42
-2.68558 1.22747 0.357787 14
-1.8786 1.29573 0.0392243 41
-1.43112 0.65776 0.0807282 4
-1.40987 0.648657 -0.026484 4
-1.0587 0.731108 -0.242845 4
-0.910737 0.629607 -0.287102 3
-1.04094 0.478189 -0.256056 4
-1.85946 1.28728 0.513236 39
-2.73712 1.24641 0.795478 44
-1.86435 1.2902 0.352763 39
-2.72519 1.24668 0.575249 32
-1.85753 1.28549 0.194575 41
-2.65431 1.21828 0.353831 14
-1.86401 1.29046 0.0389625 42
-1.43463 0.662086 0.0809899 4
-1.40192 0.647991 -0.0263531 4
-1.05944 0.734355 -0.243321 4
-0.913602 0.633954 -0.288395 3
-1.04019 0.479824 -0.256056 3
-1.84272 1.29 0.510428 39
-2.70225 1.24714 0.787077 26
-1.84544 1.29144 0.350421 39
-2.6921 1.24812 0.56953 26
-1.84692 1.29202 0.194139 41
-2.62763 1.22277 0.351093 14
-1.84517 1.29127 0.0387007 41
-1.42888 0.668537 0.0808591 4
-1.39862 0.655079 -0.0263531 4
-1.19936 0.839975 -0.175242 9
-1.04768 0.734066 -0.241416 4
-1.03324 0.483218 -0.254933 3
-1.83051 1.28621 0.507621 39
-2.67595 1.24072 0.779969 26
-1.83712 1.2904 0.349251 41
-2.66299 1.24089 0.563811 29
-1.83244 1.28664 0.192832 42
-2.5985 1.21479 0.347442 14
-1.83246 1.28762 0.0384826 42
-1.42318 0.66892 0.0805974 4
-1.402 0.659633 -0.0264404 4
-1.20601 0.847783 -0.176459 11
-1.05041 0.738721 -0.242368 4
-1.03239 0.485021 -0.254933 4
-1.81558 1.29044 0.505375 41
-2.66045 1.25108 0.777384 49
-1.81603 1.2903 0.346519 41
-2.65868 1.25586 0.564287 58
-1.81733 1.29076 0.191961 42
-2.5874 1.22671 0.346834 14
-1.81755 1.2914 0.038308 41
-1.42406 0.678745 0.0808591 4
-1.40067 0.668278 -0.026484 4
-1.0444 0.742969 -0.241892 4
-1.02755 0.489561 -0.254372 4
-1.79967 1.28338 0.501444 41
-2.66263 1.25778 0.778677 56
-1.80373 1.28629 0.344568 41
-2.66092 1.26259 0.565241 58
-1.80494 1.2867 0.190871 42
-2.55835 1.21847 0.343183 24
-1.80512 1.28731 0.0380899 41
-1.42964 0.684443 0.0812516 4
-1.3995 0.670722 -0.026484 4
-1.02229 0.489269 -0.253249 3
-1.78503 1.28709 0.499198 41
-2.65841 1.27228 0.779323 56
-1.78718 1.28818 0.342617 42
-2.65892 1.27816 0.566194 58
-1.78629 1.28708 0.189564 44
-2.56557 1.23785 0.345008 26
-1.78845 1.28911 0.0378717 41
-1.42165 0.689505 0.0809899 4
-1.39834 0.678882 -0.0265277 4
-1.0176 0.493384 -0.252687 4
-1.77511 1.28417 0.496952 41
-2.65837 1.27796 0.779969 56
-1.77693 1.2855 0.341056 42
-2.66111 1.28493 0.567147 59
-1.77799 1.28581 0.18891 44
-2.55894 1.24017 0.3444 26
-1.7781 1.28636 0.0376972 42
-1.4227 0.693072 0.0811207 4
-1.39041 0.678055 -0.0263968 4
-1.01674 0.495159 -0.252687 3
-1.75635 1.28512 0.493583 41
-2.65816 1.29502 0.781908 58
-1.75822 1.28603 0.338715 42
-2.65876 1.301 0.5681 62
-1.75917 1.28627 0.187603 44
-2.54795 1.25137 0.343792 27
-1.76529 1.29123 0.0375663 44
-1.42577 0.703807 0.0815132 4
-1.38684 0.685326 -0.0263968 4
-1.75976 1.28906 -0.263168 42
-1.00976 0.498339 -0.251564 3
-1.74822 1.28385 0.491898 41
-2.66241 1.30284 0.783846 65
-1.74603 1.28179 0.336764 42
-2.65846 1.30718 0.568577 68
-1.75291 1.28639 0.187167 44
-2.54131 1.25362 0.343183 29
-1.75274 1.28721 0.0373481 44
-1.42678 0.707396 0.0816441 4
-1.39237 0.691059 -0.0265277 4
-1.75151 1.28771 -0.262255 44
-1.01326 0.502245 -0.252687 4
-1.72561 1.28166 0.487406 41
-2.65965 1.31936 0.785139 74
-1.7351 1.28827 0.335983 42
-2.65378 1.32217 0.569053 77
-1.73193 1.28546 0.185642 42
-2.54337 1.27178 0.3444 32
-1.73595 1.28891 0.03713 42
-1.41847 0.712877 0.0813824 4
-1.38861 0.698582 -0.0265277 4
-1.73457 1.28976 -0.260734 44
-0.999621 0.502298 -0.24988 4
-1.71969 1.28146 0.486283 42
-2.65302 1.32185 0.783846 59
-1.72318 1.28361 0.334032 42
-2.65146 1.3268 0.569053 52
-1.7197 1.28103 0.184552 44
-2.54137 1.27577 0.3444 32
-1.72568 1.28596 0.0369555 42
-1.42181 0.71734 0.0816441 4
-1.39185 0.703245 -0.0266149 4
-1.72658 1.28803 -0.259821 45
-1.95437 0.983211 -0.341403 12
-1.00537 0.507131 -0.251564 4
-1.70128 1.28164 0.482913 42
-2.62256 1.32334 0.776738 33
-1.71249 1.28964 0.333252 41
-2.61404 1.32472 0.562381 32
-1.70524 1.28372 0.183681 42
-2.55237 1.29803 0.346834 14
-1.70917 1.28715 0.0367373 42
-1.41804 0.724774 0.0816441 4
-1.6947 1.27717 -0.109746 17
-1.37713 0.704623 -0.0263968 4
-1.70793 1.28808 -0.257996 47
-1.96241 1.00013 -0.343752 12
-0.998353 0.51019 -0.250441 4
-1.69516 1.28167 0.48179 42
-2.60084 1.31812 0.770922 30
-1.69252 1.27922 0.329739 42
-2.59398 1.32086 0.558568 30
-1.69108 1.27768 0.182373 42
-2.52577 1.29011 0.343487 14
-1.69673 1.28289 0.0365192 42
-1.41899 0.728382 0.0817749 4
-1.69048 1.27862 -0.109615 23
-1.3759 0.707025 -0.0263968 4
-1.97606 1.01139 -0.346493 12
-0.990944 0.508623 -0.248757 3
-1.68046 1.2849 0.479544 42
-2.57647 1.32337 0.765752 30
-1.67969 1.28385 0.328569 42
-2.5652 1.32321 0.553802 30
-1.68217 1.2853 0.182156 45
-2.4989 1.29352 0.340749 15
-1.68404 1.2872 0.0363883 44
-1.40616 0.731467 0.0812516 4
-1.6798 1.28442 -0.109353 27
-1.37206 0.714459 -0.0263968 4
-1.97934 1.0266 -0.348059 14
-0.999009 0.51955 -0.251564 3
-1.67072 1.2816 0.477298 42
-2.55697 1.31904 0.760583 30
-1.66961 1.28077 0.327008 42
-2.54326 1.31756 0.549513 32
-1.66807 1.27913 0.180848 45
-2.48562 1.29218 0.339228 15
-1.67188 1.28252 0.0361701 44
-1.4071 0.735069 0.0813824 4
-1.67162 1.28278 -0.108959 30
-1.37081 0.716852 -0.0263968 4
-1.96877 1.02551 -0.346493 14
-0.989444 0.516819 -0.249318 4
-1.65029 1.28016 0.473367 42
-2.52432 1.31903 0.752828 29
-1.65508 1.28343 0.325447 44
-2.51458 1.31949 0.544747 30
-1.65545 1.28327 0.180194 44
-2.47443 1.30287 0.338619 21
-1.65724 1.28512 0.0359956 45
-1.40765 0.744748 0.0816441 4
-1.65896 1.28692 -0.108565 35
-1.37367 0.727509 -0.0265277 4
-1.94388 1.02514 -0.342969 14
-0.993199 0.525382 -0.251003 4
-1.64251 1.27826 0.471683 42
-2.50917 1.31672 0.748951 30
-1.64332 1.27844 0.323496 42
-2.49271 1.31361 0.540458 30
-1.64338 1.2785 0.179105 44
-2.46359 1.30213 0.337402 26
-1.64908 1.28341 0.0358647 45
-1.40206 0.74463 0.0813824 4
-1.64293 1.27907 -0.107646 38
-1.37019 0.728739 -0.026484 4
-1.92461 1.01932 -0.339837 14
-1.63006 1.28232 0.469998 44
-2.48113 1.31811 0.742489 32
-1.63273 1.28397 0.322715 44
-2.47303 1.3193 0.537598 32
-1.62906 1.28064 0.178233 45
-2.44141 1.30684 0.335273 32
-1.63078 1.28246 0.0356029 45
-1.40255 0.754312 0.0816441 4
-1.63229 1.28457 -0.107383 39
-1.3753 0.740377 -0.0266585 4
-1.91271 1.0259 -0.338662 14
-1.62017 1.27912 0.467752 44
-2.46176 1.31338 0.737319 32
-1.6208 1.27917 0.320764 44
-2.45533 1.31596 0.534262 32
-1.6151 1.27422 0.176926 45
-2.43256 1.30759 0.33436 33
-1.62243 1.28093 0.035472 45
-1.40343 0.757939 0.0817749 4
-1.62417 1.28277 -0.10699 41
-1.363 0.736867 -0.0264404 4
-1.60586 1.2701 -0.390456 55
-1.89568 1.02107 -0.335922 14
-1.60371 1.28026 0.464945 44
-2.43335 1.31523 0.730857 32
-1.60421 1.28021 0.318813 42
-2.43114 1.31946 0.530449 32
-1.60234 1.27828 0.176272 45
-2.408 1.31127 0.331926 32
-1.60789 1.28317 0.0352975 45
-1.39492 0.763138 0.0815132 4
-1.60963 1.28502 -0.106465 44
-1.36118 0.745424 -0.026484 4
-1.58364 1.26649 -0.386647 55
-1.87946 1.0251 -0.333964 14
-1.5922 1.27515 0.462137 42
-2.42255 1.31489 0.728273 32
-1.59641 1.27809 0.317643 42
-2.4051 1.31083 0.525207 32
-1.59623 1.27796 0.175837 45
-2.39286 1.30793 0.330101 33
-1.5959 1.27815 0.0350793 45
-1.39591 0.766523 0.0816441 4
-1.5996 1.28158 -0.105939 45
-1.35988 0.747799 -0.026484 4
-1.86899 1.02365 -0.332398 14
-1.59144 1.2791 -0.537346 58
-1.58171 1.2804 0.461014 44
-2.3968 1.3167 0.722457 32
-1.58011 1.27866 0.315691 44
-2.38338 1.31471 0.521871 33
-1.58393 1.28132 0.175183 47
-2.3686 1.31086 0.327667 33
-1.58747 1.28464 0.0350357 45
-1.39188 0.773822 0.0816441 4
-1.58899 1.28679 -0.105677 44
-1.35827 0.755881 -0.0265277 4
-1.85064 1.02627 -0.330049 14
-1.57745 1.28105 -0.53476 58
-1.57192 1.27701 0.458768 44
-2.37968 1.31274 0.717933 33
-1.57213 1.27674 0.314521 44
-2.36796 1.31217 0.519011 33
-1.57203 1.27622 0.174094 47
-2.35111 1.30658 0.325537 33
-1.57143 1.27665 0.0347303 44
-1.39489 0.77867 0.0819058 4
-1.57706 1.28168 -0.105021 45
-1.35695 0.75825 -0.0265277 4
-1.57085 1.27844 -0.38617 52
-1.83588 1.02232 -0.3277 14
-1.56376 1.27491 -0.53088 59
-1.5537 1.27621 0.455399 44
-2.35144 1.31386 0.711471 33
-1.56138 1.28209 0.31374 44
-2.34392 1.31498 0.515198 35
-1.56125 1.28155 0.173658 45
-2.32452 1.30837 0.322799 35
-1.56086 1.28168 0.034643 47
-1.56261 1.28358 -0.104495 47
-1.34847 0.763132 -0.0264404 4
-1.55255 1.27756 -0.383314 52
-1.81543 1.02346 -0.324959 14
-1.5552 1.28154 -0.530233 58
-1.54605 1.274 0.453714 45
-2.33438 1.30971 0.706948 35
-1.54984 1.27669 0.311789 44
-2.3245 1.30946 0.511386 35
-1.54941 1.27635 0.172568 47
-2.30949 1.30472 0.320973 35
-1.55284 1.27963 0.0345121 44
-1.55459 1.28153 -0.104102 47
-1.35366 0.769169 -0.0265713 4
-1.54464 1.27557 -0.381885 52
-1.78997 1.01331 -0.320653 14
-1.54552 1.27809 -0.527647 59
-1.53375 1.2774 0.452029 45
-2.31091 1.312 0.701778 35
-1.53745 1.28004 0.310618 44
-2.3093 1.31636 0.509479 35
-1.53719 1.27939 0.171915 45
-2.28969 1.30942 0.319148 35
-1.53674 1.27947 0.034294 45
-1.53636 1.28006 -0.103314 45
-1.34758 0.774772 -0.0265277 4
-1.53252 1.27865 -0.380456 53
-1.77177 1.01533 -0.318303 14
-1.53163 1.2797 -0.52506 59
-1.52405 1.27382 0.449783 45
-2.29181 1.3065 0.696609 35
-1.52385 1.27321 0.308277 45
-2.28971 1.31107 0.505666 36
-1.5254 1.27408 0.170825 47
-2.27017 1.30356 0.316714 33
-1.52853 1.2776 0.0341631 45
-1.52838 1.27793 -0.10292 47
-1.34406 0.775879 -0.026484 4
-1.52464 1.27659 -0.379028 53
-1.74856 1.00616 -0.314388 14
-1.52177 1.27643 -0.522474 59
-1.50783 1.27418 0.446976 45
-2.27215 1.31166 0.692731 35
-1.51128 1.27666 0.307106 45
-2.26369 1.312 0.501377 35
-1.51088 1.27588 0.169954 47
-2.24805 1.30712 0.314584 33
-1.5161 1.28075 0.0340322 45
-1.51786 1.28269 -0.102658 45
-1.51005 1.27744 -0.23822 47
-1.5121 1.28006 -0.377599 53
-1.72387 1.00446 -0.310865 14
-1.50954 1.27969 -0.520534 59
-1.50397 1.27497 0.446414 45
-2.2573 1.30838 0.688854 35
-1.5034 1.2745 0.305936 44
-2.24441 1.30611 0.497564 35
-1.50295 1.27368 0.1693 49
-2.23075 1.30232 0.312455 33
-1.50814 1.27854 0.0339013 47
-1.5061 1.27726 -0.102001 47
-1.50215 1.27525 -0.237307 50
-1.50238 1.27634 -0.375695 53
-1.70077 0.99505 -0.306949 14
-1.49812 1.27449 -0.517301 59
-0.973551 0.570651 -0.252126 3
-1.48618 1.27331 0.443045 45
-2.23397 1.31004 0.683685 35
-1.49318 1.27888 0.305155 44
-2.22506 1.31 0.494705 35
-1.48514 1.27155 0.167993 47
-2.20487 1.30227 0.309717 35
-1.49216 1.27802 0.0336831 47
-1.49371 1.28025 -0.101607 47
-1.48815 1.27637 -0.23609 50
-1.49032 1.27913 -0.374266 53
-1.67869 0.993626 -0.303817 14
-1.48432 1.27575 -0.514714 59
-0.976952 0.579271 -0.25381 4
-1.48027 1.27272 0.441922 45
-2.21501 1.30417 0.678515 35
-1.48159 1.27342 0.303204 45
-2.20986 1.3068 0.491845 36
-1.47915 1.27089 0.167557 49
-2.18764 1.29728 0.307587 35
-1.48592 1.27762 0.0335959 47
-1.48391 1.27634 -0.101082 47
-1.48028 1.2741 -0.235178 50
-1.48251 1.27692 -0.372838 55
-1.65782 0.985249 -0.300294 14
-1.48004 1.27702 -0.514068 61
-0.982235 0.584687 -0.255495 4
-1.46417 1.27271 0.439114 45
-2.19338 1.30751 0.673991 35
-1.47095 1.27818 0.302424 47
-2.18401 1.30705 0.487556 35
-1.46473 1.27233 0.166685 49
-2.16994 1.30273 0.306066 35
-1.46978 1.27718 0.0333777 47
-1.47155 1.27917 -0.100688 47
-1.46027 1.27068 -0.233048 52
-1.46633 1.27686 -0.370457 55
-1.64628 0.990114 -0.299119 14
-1.46424 1.27681 -0.510835 61
-0.974874 0.587496 -0.254372 4
-1.45667 1.2702 0.43743 45
-2.17658 1.30268 0.669468 38
-1.46336 1.27562 0.301253 45
-2.16698 1.30204 0.48422 35
-1.45876 1.27161 0.16625 49
-2.15725 1.29976 0.304545 35
-1.4619 1.27481 0.0332468 47
-1.4618 1.27517 -0.100163 49
-1.4564 1.27134 -0.232744 52
-1.45486 1.27133 -0.368076 55
-1.63397 0.986631 -0.297161 15
-1.45475 1.273 -0.508248 61
-0.97813 0.59153 -0.255495 3
-1.44452 1.27298 0.435745 47
-2.15548 1.30495 0.664945 36
-1.44926 1.27673 0.299692 45
-2.14987 1.30664 0.481837 36
-1.4467 1.27404 0.165596 47
-2.13557 1.30202 0.302415 35
-1.44606 1.27392 0.0330287 45
-1.44762 1.27619 -0.0996382 47
-1.44415 1.27402 -0.231831 52
-1.45025 1.28031 -0.368552 56
-1.62245 0.991327 -0.295987 15
-1.43382 1.26754 -0.503075 61
-0.970852 0.594118 -0.254372 3
-1.43864 1.27227 0.434622 47
-2.13873 1.29996 0.660421 38
-1.43963 1.27271 0.298131 44
-2.13897 1.30566 0.47993 36
-1.43515 1.26831 0.164506 49
-2.12058 1.298 0.300589 35
-1.43987 1.27338 0.0329414 47
-2.11755 1.29816 0.128354 35
-1.43978 1.27375 -0.0992444 49
-1.43635 1.2716 -0.230918 52
-1.437 1.27306 -0.365695 56
-1.61861 0.992872 -0.295595 15
-1.42958 1.26869 -0.502428 59
-0.976057 0.599611 -0.256056 4
-1.4263 1.27516 0.432938 47
-2.11725 1.30268 0.655898 38
-1.4272 1.27554 0.296961 45
-2.11538 1.30656 0.476118 38
-1.4227 1.27107 0.163853 49
-2.09663 1.29903 0.298155 35
-1.42573 1.27423 0.0327669 49
-2.0935 1.2991 0.127307 35
-1.42565 1.27461 -0.0987193 49
-1.42021 1.27107 -0.229397 53
-1.42461 1.2759 -0.364267 56
-1.61128 1.00004 -0.295204 15
-1.41932 1.27293 -0.501135 59
-0.966576 0.60105 -0.254372 4
-1.41704 1.27088 0.430691 49
-2.1088 1.30258 0.653959 39
-1.41785 1.27118 0.2954 45
-2.09848 1.30122 0.472781 36
-1.41121 1.26524 0.162763 49
-2.08404 1.29579 0.296634 36
-1.41421 1.26837 0.0325487 47
-2.07661 1.29318 0.126391 35
-1.42157 1.27543 -0.098588 49
-1.41452 1.26998 -0.228789 53
-1.41691 1.27346 -0.362838 55
-1.61163 1.00415 -0.295595 15
-1.40813 1.26732 -0.497902 59
-0.963559 0.601287 -0.25381 3
-1.40315 1.27174 0.428445 47
-2.08578 1.30303 0.648789 38
-1.40569 1.27361 0.294229 45
-2.07937 1.30403 0.469922 36
-1.40479 1.27236 0.162763 49
-2.0625 1.29747 0.294505 38
-1.40592 1.27383 0.0325051 49
-2.06135 1.29873 0.125868 35
-1.40955 1.27757 -0.0981942 49
-1.40234 1.27236 -0.227876 53
-1.40681 1.27731 -0.361886 56
-1.61263 1.01651 -0.29677 15
-1.39813 1.27118 -0.496609 59
-0.966594 0.610199 -0.255495 4
-1.39575 1.26902 0.426761 49
-2.07326 1.30028 0.645558 38
-1.39798 1.27107 0.293058 47
-2.06254 1.29853 0.466586 38
-1.39704 1.26978 0.16211 50
-2.04343 1.2905 0.292071 36
-1.39815 1.27123 0.0323742 47
-2.04429 1.29301 0.124952 36
-1.40363 1.27667 -0.0979316 49
-1.39279 1.26812 -0.226659 53
-1.39733 1.27315 -0.359981 56
-1.38878 1.2671 -0.494022 61
-0.965527 0.611885 -0.255495 4
-1.3799 1.2683 0.423953 49
-2.05009 1.3008 0.640389 39
-1.38041 1.26834 0.290717 47
-2.04949 1.30537 0.465156 38
-1.38121 1.26865 0.16102 49
-2.03036 1.29718 0.291158 38
-1.38228 1.27008 0.0321561 47
-2.03117 1.29967 0.12456 39
-1.38384 1.27241 -0.0970127 49
-1.62217 1.0399 -0.0330287 15
-1.377 1.26699 -0.225138 53
-1.37982 1.27047 -0.357124 56
-1.3768 1.26944 -0.492082 59
-0.970536 0.622156 -0.257741 4
-1.3759 1.26905 0.423392 49
-2.03557 1.29661 0.636512 39
-1.37819 1.27075 0.290717 47
-2.02835 1.29744 0.460867 39
-1.37716 1.26937 0.160802 49
-2.01346 1.29138 0.289028 38
-1.37616 1.26933 0.0320688 49
-2.01628 1.29515 0.123775 39
-1.37978 1.27313 -0.0968814 49
-1.62035 1.04273 -0.0330287 14
-1.37479 1.26939 -0.225138 53
-1.37039 1.26621 -0.35522 56
-1.37259 1.27044 -0.491436 61
-0.967394 0.622539 -0.257179 4
-1.35477 1.26318 0.418899 49
-2.0204 1.30239 0.633927 38
-1.36227 1.26976 0.288766 47
-2.01534 1.30406 0.459437 39
-1.35935 1.26661 0.159495 49
-2.00227 1.29956 0.28842 38
-1.36036 1.26799 0.0318506 49
-2.00086 1.30061 0.123251 38
-1.36398 1.27181 -0.096225 49
-1.61888 1.0542 -0.0331159 14
-1.36065 1.27003 -0.223921 55
-1.35277 1.26354 -0.352363 58
-1.35534 1.2677 -0.487556 61
-0.964012 0.627764 -0.257179 4
-1.35456 1.26697 0.419461 49
-1.99782 1.29283 0.627465 39
-1.35667 1.26852 0.287985 47
-1.99658 1.29691 0.455624 39
-1.35168 1.26387 0.158841 49
-1.98566 1.29325 0.28629 38
-1.35815 1.27037 0.0318506 47
-1.97997 1.29151 0.122074 38
-1.35811 1.27078 -0.0959625 50
-1.35503 1.26877 -0.223312 55
-1.34698 1.26254 -0.35141 58
-1.35313 1.27006 -0.487556 61
-0.958935 0.62663 -0.256056 4
-1.3426 1.26902 0.417776 49
-1.98316 1.29766 0.62488 38
-1.34463 1.27052 0.286815 49
-1.97972 1.30028 0.453241 39
-1.34346 1.26898 0.158623 49
-1.96433 1.29411 0.28416 38
-1.34807 1.27379 0.0317634 49
-1.96484 1.29638 0.12155 38
-1.346 1.27272 -0.0955686 50
-1.34477 1.27244 -0.222704 55
-1.33879 1.26765 -0.350934 58
-1.96048 1.29258 -0.366852 39
-1.33793 1.26858 -0.484323 59
-0.955641 0.631642 -0.256056 4
-1.33332 1.26465 0.41553 50
-1.96876 1.29319 0.621003 39
-1.33525 1.26606 0.285254 47
-1.96491 1.296 0.450381 39
-1.33582 1.26618 0.15797 49
-1.94964 1.28934 0.282335 39
-1.33656 1.26777 0.0315452 49
-1.95424 1.29431 0.121027 38
-1.33835 1.26991 -0.0951748 50
-1.33356 1.26623 -0.221183 56
-1.32769 1.26153 -0.348553 58
-1.94791 1.28921 -0.364894 36
-1.33549 1.27115 -0.484323 61
-0.950465 0.630633 -0.254933 4
-1.31767 1.26341 0.412723 50
-1.94764 1.29449 0.616479 41
-1.3266 1.27156 0.284864 47
-1.94787 1.29948 0.447998 39
-1.32177 1.26649 0.157098 49
-1.93024 1.29162 0.28051 39
-1.32449 1.26955 0.0314143 49
-1.93267 1.29517 0.120111 38
-1.32808 1.27344 -0.0949123 52
-1.32132 1.26827 -0.22027 55
-1.31554 1.26359 -0.347125 58
-1.93703 1.29665 -0.364111 38
-1.31664 1.26639 -0.479797 59
-0.955153 0.641163 -0.257179 4
-1.31568 1.26548 0.412723 50
-1.93733 1.29254 0.613894 41
-1.31748 1.26679 0.283303 47
-1.93539 1.29607 0.445616 39
-1.31597 1.26534 0.156662 50
-1.91996 1.28913 0.279293 41
-1.31687 1.26666 0.0312834 49
-1.92233 1.29264 0.119588 39
-1.31687 1.2671 -0.0942559 52
-1.31397 1.26518 -0.219357 55
-1.21793 0.821711 -0.125254 12
-1.30803 1.26077 -0.345696 58
-1.9204 1.29042 -0.36137 39
-1.31269 1.26701 -0.47915 59
-0.952118 0.64131 -0.256618 4
-1.3038 1.26725 0.411038 50
-1.91873 1.29426 0.610017 41
-1.30552 1.2685 0.282132 47
-1.9166 1.29762 0.442756 41
-1.30419 1.26678 0.156009 49
-1.9029 1.29222 0.277771 41
-1.30865 1.27157 0.0312398 49
-1.90313 1.29429 0.118803 39
-1.30664 1.27049 -0.0939933 50
-1.30199 1.26684 -0.218445 56
-1.21773 0.830871 -0.125689 12
-1.29812 1.26395 -0.344744 59
-1.90339 1.29354 -0.359413 39
-1.29935 1.26689 -0.476563 59
-0.946728 0.644924 -0.256056 4
-1.29636 1.26442 0.409353 52
-1.90646 1.29085 0.606786 41
-1.29447 1.26215 0.280181 45
-1.908 1.29717 0.441326 41
-1.29663 1.26383 0.155355 49
-1.88627 1.28579 0.275642 41
-1.30085 1.26884 0.0311089 50
-1.89055 1.2906 0.118148 39
-1.29906 1.26753 -0.0935995 52
-1.88204 1.28577 -0.0391806 36
-1.298 1.26738 -0.21814 56
-1.23069 0.842799 -0.127211 11
-1.2889 1.25935 -0.342839 59
-1.2883 1.26093 -0.47333 59
-0.951651 0.650674 -0.257741 4
-1.28603 1.26799 0.40823 52
-1.88947 1.29435 0.603555 41
-1.28587 1.2674 0.279791 47
-1.88093 1.29328 0.43656 42
-1.28268 1.26383 0.154484 50
-1.8711 1.29036 0.274425 41
-1.28529 1.26685 0.0308908 50
-1.87736 1.29656 0.117756 39
-1.28885 1.27081 -0.093337 52
-1.86064 1.28602 -0.0388752 36
-1.28936 1.27264 -0.217836 56
-1.27858 1.26285 -0.341887 59
-1.28168 1.26766 -0.47333 59
-0.942089 0.651682 -0.256056 4
-1.27885 1.26487 0.406546 50
-1.87923 1.29219 0.60097 41
-1.27686 1.26247 0.27823 49
-1.86856 1.28962 0.434177 42
-1.27517 1.26081 0.15383 50
-1.85273 1.28203 0.271991 38
-1.27953 1.26557 0.0308035 50
-1.85888 1.28817 0.116709 39
-1.28131 1.26779 -0.0929431 52
-1.85222 1.285 -0.0387443 36
-1.27855 1.26593 -0.216315 56
-1.27463 1.26335 -0.341411 59
-1.2709 1.26138 -0.470097 61
-0.949093 0.658683 -0.258303 4
-1.2636 1.26293 0.403738 50
-1.85877 1.29206 0.596447 42
-1.27023 1.26914 0.27823 49
-1.85999 1.29766 0.433701 42
-1.26349 1.26197 0.153176 50
-1.84395 1.2903 0.271687 41
-1.26604 1.26496 0.030629 49
-1.83983 1.28932 0.115924 39
-1.26606 1.26542 -0.0922868 52
-1.83545 1.2872 -0.0385262 36
-1.26665 1.26733 -0.215402 56
-1.26475 1.26631 -0.340459 58
-1.25938 1.26266 -0.468157 59
-0.941631 0.660861 -0.257179 4
-1.25646 1.25973 0.402054 50
-1.84659 1.28842 0.593216 42
-1.26278 1.2661 0.277059 49
-1.84162 1.28967 0.429888 42
-1.25777 1.26064 0.15274 52
-1.83153 1.2864 0.270165 41
-1.25854 1.26186 0.0304981 49
-1.83349 1.28966 0.115662 41
-1.26385 1.26763 -0.0922868 52
-1.82092 1.2818 -0.0382644 38
-1.26094 1.26602 -0.214794 56
-1.25562 1.26155 -0.338554 59
-1.25378 1.26143 -0.466864 61
-0.946469 0.666687 -0.258864 4
-1.24598 1.26326 0.40093 50
-1.82971 1.29145 0.589985 44
-1.25072 1.26764 0.275889 49
-1.82459 1.29255 0.427505 42
-1.24393 1.26033 0.151869 50
-1.81644 1.29056 0.268948 41
-1.24994 1.26687 0.0304544 49
-1.81833 1.29379 0.115139 39
-1.24821 1.26556 -0.0916304 50
-1.80987 1.28874 -0.0381771 38
-1.24537 1.26398 -0.213272 58
-1.24533 1.26483 -0.337602 59
-1.24355 1.26475 -0.465571 61
-0.938868 0.668987 -0.257741 4
-1.24058 1.26174 0.399807 50
-1.81562 1.28629 0.586108 44
-1.2418 1.26256 0.274328 49
-1.81632 1.29148 0.426075 42
-1.23999 1.26072 0.151651 52
-1.80631 1.28767 0.267731 42
-1.24072 1.26191 0.0302799 49
-1.80409 1.28797 0.114354 39
-1.24076 1.26239 -0.0912366 52
-1.80355 1.289 -0.0380899 38
-1.2399 1.26239 -0.212664 58
-1.24141 1.26524 -0.337125 59
-1.22952 1.25483 -0.461044 59
-0.941792 0.673278 -0.258864 4
-1.22887 1.26297 0.398123 52
-1.79728 1.28705 0.58223 44
-1.22829 1.26196 0.272767 49
-1.79978 1.29351 0.423692 42
-1.22665 1.25984 0.150779 50
-1.79148 1.29132 0.266514 41
-1.23083 1.26459 0.0301927 49
-1.78313 1.2872 0.113438 38
-1.23239 1.26708 -0.0911053 52
-1.78483 1.28936 -0.0378281 38
-1.22809 1.26353 -0.211751 55
-1.22815 1.26446 -0.335221 59
-1.22483 1.26278 -0.461691 61
-0.940234 0.679619 -0.259426 4
-1.22327 1.26162 0.397 52
-1.78521 1.28316 0.578999 45
-1.22265 1.26055 0.271986 49
-1.78932 1.29124 0.421786 42
-1.22098 1.2584 0.150344 50
-1.77312 1.28285 0.264081 42
-1.22666 1.26515 0.030149 49
-1.77278 1.28447 0.112915 39
-1.22497 1.26384 -0.0907115 53
-1.77244 1.28516 -0.0376099 38
-1.22416 1.26388 -0.211447 58
-1.22083 1.26131 -0.333792 59
-1.21905 1.26165 -0.460398 59
-1.21306 1.2647 0.395877 52
-1.76846 1.28572 0.575768 45
-1.21411 1.26537 0.271596 50
-1.77062 1.29194 0.418926 42
-1.21071 1.26139 0.149908 52
-1.75612 1.28512 0.262559 42
-1.21311 1.26434 0.0299745 50
-1.75975 1.28962 0.112522 41
-1.21661 1.26844 -0.0905802 53
-1.75738 1.28883 -0.0374354 38
-1.21044 1.26332 -0.21023 56
-1.75934 1.28981 -0.187446 38
-1.2089 1.26258 -0.332364 59
-1.20076 1.25579 -0.455871 59
-1.20771 1.26308 0.394754 52
-1.7584 1.28313 0.573184 45
-1.207 1.26191 0.270425 49
-1.76043 1.28924 0.41702 44
-1.20678 1.2617 0.14969 52
-1.75009 1.28495 0.261951 44
-1.20227 1.25741 0.0297564 50
-1.74967 1.28649 0.111999 41
-1.20577 1.26153 -0.0899238 53
-1.74102 1.28156 -0.03713 39
-1.20675 1.26342 -0.209926 58
-1.74704 1.28552 -0.186359 38
-1.20331 1.26113 -0.331411 52
-1.1969 1.25613 -0.455225 56
-1.19773 1.26584 0.393631 52
-1.74409 1.2863 0.570599 45
-1.19868 1.26642 0.270035 49
-1.744 1.29086 0.414637 42
-1.19354 1.26056 0.148818 52
-1.73536 1.28819 0.260734 44
-1.19589 1.26348 0.0297564 50
-1.73086 1.28672 0.111214 41
-1.19594 1.26398 -0.0896612 53
-1.73049 1.28738 -0.0370427 39
-1.18819 1.25709 -0.207796 58
-1.73051 1.28693 -0.185271 39
-1.18681 1.25649 -0.328554 49
-1.18722 1.25866 -0.453932 56
-1.18906 1.26063 0.391385 53
-1.73796 1.28647 0.569306 45
-1.19139 1.26312 0.268864 49
-1.73188 1.28661 0.412254 44
-1.19134 1.26264 0.148818 52
-1.72115 1.28235 0.258908 45
-1.18854 1.26011 0.0296255 50
-1.71659 1.28081 0.110429 41
-1.1886 1.26062 -0.0892674 53
-1.71821 1.28294 -0.0368246 39
-1.1877 1.26097 -0.2081 58
-1.72026 1.28401 -0.184402 41
-1.17789 1.25141 -0.32665 45
-1.1718 1.24664 -0.448759 52
-1.17724 1.26169 0.3897 53
-1.71764 1.28546 0.564783 45
-1.17634 1.26031 0.266913 52
-1.71529 1.28831 0.409871 44
-1.17792 1.26157 0.147947 52
-1.70448 1.2839 0.257387 45
-1.17852 1.26266 0.0295382 52
-1.70387 1.28528 0.110036 42
-1.18176 1.26703 -0.0892674 53
-1.69948 1.28291 -0.0365628 41
-1.17601 1.26172 -0.207188 59
-1.17299 1.25935 -0.327126 45
-1.16525 1.25276 -0.448759 45
-1.17172 1.26018 0.388577 53
-1.70379 1.27978 0.560906 45
-1.17246 1.26055 0.266523 52
-1.70889 1.28865 0.408918 44
-1.17063 1.25815 0.147293 50
-1.69233 1.27942 0.255866 44
-1.16759 1.25576 0.02932 52
-1.69166 1.28074 0.109382 41
-1.17276 1.26177 -0.0887423 53
-1.69125 1.28136 -0.0364319 41
-1.17212 1.26195 -0.206883 59
-1.16412 1.2542 -0.325221 45
-1.15629 1.2479 -0.446172 45
-1.16159 1.26291 0.387454 53
-1.68721 1.28169 0.557675 47
-1.16061 1.26142 0.265352 50
-1.69039 1.28868 0.406058 44
-1.15875 1.25897 0.14664 52
-1.67551 1.28104 0.254345 45
-1.161 1.26185 0.02932 50
-1.67477 1.28231 0.108728 41
-1.16276 1.26422 -0.0884798 53
-1.67435 1.28291 -0.0362137 41
-1.16024 1.26279 -0.205971 59
-1.14902 1.25143 -0.32284 47
-1.14484 1.2486 -0.444232 47
-1.15467 1.25934 0.385769 53
-1.67727 1.2788 0.55509 45
-1.15529 1.2596 0.264572 50
-1.67642 1.28271 0.403199 45
-1.15319 1.25731 0.146204 52
-1.6656 1.27765 0.253128 47
-1.15542 1.26019 0.0292328 50
-1.66482 1.27887 0.108205 42
-1.15718 1.26256 -0.0882172 55
-1.66417 1.27975 -0.0360392 41
-1.1549 1.26095 -0.205362 59
-1.14849 1.25525 -0.323317 55
-1.13778 1.24524 -0.442292 47
-1.14152 1.25815 0.383523 53
-1.66119 1.27992 0.551859 47
-1.14205 1.25831 0.263011 53
-1.66213 1.28519 0.401292 45
-1.14346 1.25944 0.145768 52
-1.65103 1.28029 0.251911 47
-1.14231 1.25861 0.0290583 52
-1.65415 1.28452 0.107943 42
-1.14553 1.26305 -0.0878234 55
-1.64977 1.28204 -0.0358647 41
-1.14329 1.26146 -0.204449 59
-1.1339 1.25194 -0.320936 56
-1.13146 1.25098 -0.442292 49
-1.13769 1.25833 0.382962 55
-1.65513 1.27988 0.550566 47
-1.13985 1.2603 0.263011 52
-1.64995 1.28088 0.398909 45
-1.13625 1.25589 0.145114 52
-1.64683 1.28165 0.251607 47
-1.13822 1.25895 0.0290146 53
-1.64007 1.27823 0.107158 41
-1.14332 1.26505 -0.0878234 55
-1.6416 1.28032 -0.0357338 41
-1.14109 1.26345 -0.204449 59
-1.12514 1.24663 -0.319031 59
-1.12583 1.24956 -0.440999 58
-1.12924 1.26265 0.3824 55
-1.64056 1.28288 0.547982 47
-1.12808 1.26092 0.26184 52
-1.63742 1.28497 0.39748 45
-1.12612 1.25831 0.144679 52
-1.63401 1.28595 0.250694 47
-1.12994 1.26303 0.028971 52
-1.63313 1.28708 0.107158 44
-1.12837 1.2617 -0.087167 56
-1.63072 1.2861 -0.0356465 42
-1.12763 1.2622 -0.203232 61
-1.11348 1.2472 -0.317603 85
-1.12248 1.25905 -0.442292 90
-1.1224 1.25896 0.380715 55
-1.6288 1.27831 0.54475 47
-1.12446 1.26085 0.26145 52
-1.62551 1.28025 0.395097 45
-1.12227 1.25841 0.144461 52
-1.62029 1.27932 0.248869 47
-1.12109 1.25753 0.0287965 53
-1.61934 1.28038 0.106373 42
-1.12616 1.26367 -0.087167 58
-1.61669 1.27966 -0.0353848 42
-1.12235 1.26026 -0.202624 61
-1.11619 1.25465 -0.319031 97
-1.11548 1.25558 -0.440352 92
-1.11257 1.26116 0.379592 55
-1.61283 1.27905 0.54152 49
-1.11294 1.26116 0.26028 53
-1.61132 1.28237 0.39319 45
-1.11095 1.25847 0.143807 53
-1.59996 1.27698 0.246739 47
-1.11306 1.26131 0.0287528 53
-1.60284 1.28107 0.105719 42
-1.11458 1.26393 -0.0867732 56
-1.60237 1.2816 -0.0352102 41
-1.11082 1.26053 -0.201711 65
-1.10658 1.25659 -0.318079 90
-1.1107 1.26303 -0.440999 77
-1.10555 1.25761 0.377908 55
-1.60302 1.27587 0.538935 49
-1.10748 1.25939 0.259499 52
-1.60885 1.28546 0.39319 44
-1.10711 1.25854 0.143589 52
-1.59579 1.27822 0.246435 45
-1.10734 1.25969 0.0286656 53
-1.5928 1.27764 0.105195 42
-1.10908 1.26212 -0.0865106 56
-1.59427 1.27972 -0.0350793 41
-1.10534 1.25873 -0.201103 68
-1.0963 1.24929 -0.315698 68
-1.10191 1.25789 -0.438412 61
-1.09394 1.25806 0.376223 55
-1.58856 1.27849 0.53635 49
-1.09741 1.26163 0.258719 52
-1.58871 1.28311 0.389854 44
-1.09538 1.25887 0.142935 53
-1.57919 1.27905 0.244913 47
-1.09417 1.25792 0.0284911 53
-1.57809 1.27996 0.104672 42
-1.09918 1.26414 -0.0862481 55
-1.5776 1.28047 -0.0348612 41
-1.09689 1.26282 -0.200799 65
-1.08953 1.25521 -0.315698 61
-1.08899 1.25633 -0.435826 59
-1.09196 1.25977 0.376223 55
-1.58067 1.27672 0.534411 50
-1.08897 1.25589 0.257158 52
-1.58265 1.28279 0.388901 45
-1.08992 1.25701 0.1425 53
-1.56753 1.27373 0.243392 47
-1.08707 1.25416 0.0283602 53
-1.56832 1.27616 0.104149 42
-1.08718 1.25473 -0.0854604 56
-1.5676 1.27692 -0.0346867 41
-1.09491 1.26454 -0.200799 65
-1.07771 1.24596 -0.312841 65
-1.08364 1.25458 -0.434533 59
-1.56482 1.26981 -0.456522 45
-1.08059 1.25992 0.374539 55
-1.56669 1.27861 0.531826 52
-1.08238 1.26157 0.257158 52
-1.56472 1.28149 0.386041 45
-1.07706 1.25495 0.141628 53
-1.55316 1.27564 0.242175 49
-1.08071 1.25964 0.0283602 55
-1.55582 1.27961 0.103756 45
-1.08244 1.26211 -0.0855917 56
-1.55725 1.28168 -0.0345994 42
-1.08504 1.26649 -0.20019 64
-1.0698 1.24953 -0.312365 65
-1.07571 1.25821 -0.433886 59
-1.54683 1.26874 -0.453153 45
-1.07229 1.2542 0.372293 56
-1.55884 1.27677 0.529888 50
-1.07697 1.2597 0.256377 52
-1.55678 1.27955 0.384611 44
-1.07325 1.25493 0.14141 53
-1.54517 1.27363 0.241263 49
-1.07851 1.26153 0.0283602 53
-1.54587 1.27598 0.103233 42
-1.07699 1.2602 -0.0853292 56
-1.54535 1.27645 -0.0343812 44
-1.07317 1.25705 -0.198365 64
-1.06761 1.2514 -0.312365 65
-1.07039 1.2564 -0.432593 58
-1.54084 1.26835 -0.452029 45
-1.06077 1.2544 0.370608 56
-1.53909 1.27416 0.525364 52
-1.06717 1.26155 0.255597 53
-1.5406 1.27987 0.382228 45
-1.06185 1.25482 0.140757 53
-1.53275 1.27695 0.24035 49
-1.06543 1.25952 0.0281856 53
-1.52956 1.27608 0.102578 44
-1.06716 1.262 -0.0850666 56
-1.53096 1.27814 -0.0342067 44
-1.06338 1.25886 -0.197756 64
-1.50653 1.25741 -0.16831 18
-1.06105 1.25697 -0.312365 71
-1.05602 1.25275 -0.42936 59
-1.52855 1.27174 -0.450345 47
-1.0588 1.25607 0.370608 56
-1.53314 1.27377 0.524072 52
-1.0602 1.25774 0.254426 53
-1.5327 1.27786 0.380799 45
-1.05484 1.25096 0.140103 55
-1.52098 1.27168 0.238829 50
-1.06163 1.25946 0.028142 55
-1.51966 1.27236 0.102055 44
-1.06013 1.25813 -0.0846728 56
-1.52104 1.27441 -0.0340322 45
-1.05799 1.25691 -0.197148 67
-1.51772 1.2712 -0.169832 35
-1.05412 1.25318 -0.310936 71
-1.52072 1.27239 -0.308907 45
-1.05383 1.25459 -0.42936 58
-1.52071 1.26974 -0.44866 45
-1.0471 1.25634 0.368923 56
-1.51696 1.2743 0.520841 52
-1.04864 1.25777 0.253256 53
-1.51824 1.27982 0.378892 45
-1.04647 1.25473 0.139885 55
-1.50839 1.2751 0.237916 50
-1.05 1.25942 0.0280111 55
-1.50512 1.27413 0.101532 44
-1.04692 1.25617 -0.0841477 56
-1.50648 1.27617 -0.0338577 45
-1.04958 1.26071 -0.196843 67
-1.5013 1.27137 -0.168745 35
-1.04575 1.25698 -0.31046 70
-1.50837 1.27556 -0.307732 47
-1.0424 1.2547 -0.42742 59
-1.50449 1.27011 -0.445853 47
-1.04201 1.25424 0.3678 56
-1.50733 1.27074 0.518256 52
-1.04508 1.25751 0.252865 53
-1.5085 1.27615 0.376986 45
-1.04109 1.25273 0.139449 56
-1.50069 1.27267 0.237003 49
-1.04461 1.25741 0.0279238 55
-1.4993 1.27327 0.10127 44
-1.04473 1.258 -0.0841477 58
-1.50044 1.27557 -0.0337704 45
-1.04285 1.25662 -0.195931 68
-1.49908 1.27399 -0.168745 44
-1.04043 1.25502 -0.309508 71
-1.50048 1.27341 -0.306558 49
-1.03867 1.25466 -0.426773 58
-1.49318 1.26462 -0.443045 45
-1.02925 1.25214 0.365554 56
-1.4972 1.27523 0.516964 52
-1.03222 1.25533 0.251304 53
-1.49641 1.279 0.375556 45
-1.03316 1.25605 0.139231 55
-1.48457 1.27246 0.235482 50
-1.03506 1.25881 0.0278366 55
-1.48502 1.27462 0.100747 45
-1.03338 1.25766 -0.0837538 56
-1.48636 1.27665 -0.0335959 45
-1.03626 1.26207 -0.195931 67
-1.48292 1.27373 -0.167658 44
-1.03095 1.25647 -0.308555 64
-1.47877 1.26843 -0.303426 45
-1.03078 1.25803 -0.426127 59
-1.48283 1.26926 -0.441922 47
-1.02243 1.24828 0.36387 56
-1.48577 1.27002 0.513733 52
-1.03159 1.25904 0.251695 53
-1.48649 1.27549 0.37365 47
-1.02624 1.25207 0.138578 55
-1.4748 1.26859 0.234265 50
-1.02789 1.25499 0.0277057 55
-1.4771 1.27233 0.100354 45
-1.02802 1.2556 -0.0834913 58
-1.47844 1.27436 -0.033465 45
-1.02621 1.25426 -0.19441 71
-1.47691 1.27307 -0.167223 45
-1.02565 1.25447 -0.307603 65
-1.47467 1.2694 -0.303034 49
-1.02226 1.25252 -0.42354 59
-1.47505 1.2671 -0.440237 45
-1.01413 1.2519 0.363308 56
-1.47338 1.27331 0.511794 52
-1.0201 1.25885 0.250524 55
-1.4705 1.27524 0.371267 47
-1.01318 1.24986 0.137706 55
-1.46416 1.27331 0.233657 52
-1.01816 1.25647 0.0276184 56
-1.46454 1.2754 0.0999617 45
-1.01672 1.25514 -0.0830975 58
-1.46586 1.27743 -0.0333341 47
-1.01785 1.25787 -0.194105 70
-1.4627 1.27426 -0.166353 44
-1.01423 1.25427 -0.306175 62
-1.46592 1.27575 -0.302643 50
-1.01114 1.25221 -0.4216 59
-1.45896 1.2671 -0.43743 45
-1.01064 1.25159 0.362747 58
-1.46019 1.26642 0.507917 52
-1.01325 1.25486 0.249353 53
-1.4627 1.27299 0.369837 47
-1.00787 1.24775 0.13727 55
-1.45445 1.26935 0.23244 50
-1.0144 1.2563 0.0275748 55
-1.46231 1.27795 0.0999617 47
-1.01766 1.2608 -0.08336 58
-1.45608 1.27342 -0.0331596 45
-1.01565 1.25964 -0.194105 68
-1.45484 1.27191 -0.1657 44
-1.01204 1.25604 -0.306175 65
-1.45437 1.2702 -0.300685 49
-1.00744 1.25209 -0.420954 59
-1.44754 1.26167 -0.434622 45
-1.00081 1.25323 0.361624 56
-1.45354 1.27405 0.507917 52
-1.00359 1.25629 0.248573 55
-1.44863 1.27416 0.367931 47
-1.00288 1.25496 0.137488 55
-1.44405 1.27368 0.231831 50
-1.00157 1.25378 0.0274003 56
-1.44435 1.2757 0.0991766 45
-1.00482 1.2583 -0.0828349 58
-1.44376 1.27608 -0.0330287 47
-0.999766 1.25329 -0.19228 71
-1.44255 1.27458 -0.165048 44
-1.00392 1.2594 -0.305698 62
-1.43864 1.2694 -0.298728 49
-1.00087 1.25735 -0.420954 61
-1.44092 1.26923 -0.434622 47
-0.992782 1.24717 0.359377 58
-1.44041 1.26704 0.50404 53
-0.997007 1.25206 0.247402 55
-1.44272 1.27345 0.366977 47
-0.992936 1.24696 0.136399 56
-1.43832 1.27267 0.231223 50
-0.996275 1.25161 0.027313 56
-1.43672 1.27302 0.0987841 47
-1.00107 1.2581 -0.0827036 59
-1.43966 1.27694 -0.032985 45
-0.993168 1.24903 -0.191367 76
-1.43845 1.27545 -0.164831 44
-0.992569 1.24961 -0.302841 65
-1.43272 1.26865 -0.297945 50
-0.991183 1.24963 -0.41772 59
-1.4316 1.26506 -0.432376 47
-0.986238 1.25235 0.359377 58
-1.43036 1.27111 0.502747 53
-0.990437 1.25726 0.247402 55
-1.42891 1.27422 0.365071 49
-0.983532 1.24805 0.135963 56
-1.42422 1.27358 0.230006 50
-0.989927 1.25664 0.027313 56
-1.42258 1.27388 0.0982608 47
-0.992929 1.26136 -0.0825724 58
-1.42012 1.27257 -0.0326796 45
-0.986615 1.25422 -0.191367 73
-1.42246 1.27467 -0.163743 44
-0.987747 1.25655 -0.303318 65
-1.42237 1.27285 -0.297161 52
-0.984845 1.25463 -0.41772 59
-1.41586 1.26444 -0.429568 49
-0.981046 1.25024 0.358254 58
-1.42452 1.2704 0.501455 53
-0.985195 1.2551 0.246622 56
-1.42096 1.27207 0.363641 49
-0.981352 1.24977 0.135963 56
-1.41459 1.26945 0.228789 52
-0.98443 1.2546 0.0272258 56
-1.4185 1.2747 0.0981299 47
-0.98457 1.25523 -0.0820473 59
-1.41603 1.27338 -0.032636 45
-0.981366 1.25203 -0.190759 73
-1.41095 1.26885 -0.162656 45
-0.98404 1.25634 -0.302841 64
-1.41278 1.26875 -0.295595 52
-0.976492 1.2489 -0.415134 59
-1.41001 1.26367 -0.428445 47
-0.971284 1.25168 0.357131 58
-1.41403 1.27487 0.500162 53
-0.976878 1.25846 0.246231 56
-1.40881 1.27456 0.362212 49
-0.969999 1.24916 0.135309 58
-1.40218 1.2721 0.227876 52
-0.973254 1.25381 0.0270949 56
-1.40047 1.27231 0.0973449 45
-0.979513 1.26234 -0.0821785 58
-1.39614 1.26928 -0.0323306 45
-0.973059 1.25536 -0.190454 73
-1.39875 1.27121 -0.162004 45
-0.975727 1.2597 -0.302365 67
-1.39696 1.26786 -0.293638 50
-0.969939 1.254 -0.415134 59
-1.39772 1.26639 -0.426761 49
-0.967828 1.25127 0.35657 59
-1.40283 1.26925 0.496931 53
-0.971881 1.25609 0.245451 56
-1.40112 1.27208 0.360782 49
-0.966295 1.24888 0.135091 56
-1.39466 1.26931 0.226963 52
-0.971065 1.2555 0.0270949 58
-1.39477 1.27115 0.0970832 44
-0.969681 1.25417 -0.0815222 58
-1.39023 1.26836 -0.0322433 45
-0.968055 1.25295 -0.189846 74
-1.38915 1.26695 -0.161134 45
-0.967536 1.25363 -0.300461 68
-1.39108 1.26698 -0.292855 50
-0.961859 1.24803 -0.412547 59
-1.3867 1.26041 -0.423953 49
-0.955349 1.24858 0.354324 59
-1.38924 1.26984 0.494347 53
-0.960794 1.25527 0.24428 56
-1.38923 1.2742 0.359352 49
-0.958449 1.25177 0.134874 56
-1.38067 1.26989 0.225746 52
-0.960145 1.25444 0.026964 56
-1.38073 1.27169 0.0965598 42
-0.960071 1.25526 -0.0812596 59
-1.38195 1.27369 -0.0321997 45
-0.955461 1.25011 -0.188629 71
-1.37699 1.26916 -0.160482 45
-0.962667 1.26046 -0.300937 65
-1.37897 1.26924 -0.29168 50
-0.95553 1.25288 -0.412547 59
-1.37648 1.26437 -0.42283 49
-0.954643 1.25218 0.354885 58
-1.38524 1.27063 0.4937 53
-0.954114 1.25105 0.24311 56
-1.37954 1.27023 0.357446 49
-0.951736 1.2475 0.13422 58
-1.37114 1.26558 0.224529 52
-0.957735 1.25629 0.026964 58
-1.37116 1.26734 0.0960365 44
-0.956367 1.25494 -0.0811283 59
-1.37052 1.26764 -0.0319815 47
-0.953278 1.25178 -0.188629 76
-1.36927 1.2665 -0.159829 45
-0.957496 1.25823 -0.299984 67
-1.36948 1.26496 -0.290114 52
-0.944368 1.24317 -0.408668 59
-1.37068 1.26348 -0.421707 49
-0.944925 1.25344 0.353762 58
-1.37124 1.27156 0.491116 53
-0.945846 1.25422 0.242719 56
-1.36747 1.27244 0.356016 49
-0.941976 1.24865 0.133784 58
-1.36064 1.26961 0.223921 52
-0.943627 1.2513 0.0267458 56
-1.36245 1.27304 0.0959056 47
-0.94528 1.25395 -0.0807345 59
-1.35815 1.26993 -0.0318506 47
-0.945 1.25493 -0.188325 76
-1.35715 1.26857 -0.159177 44
-0.947727 1.25947 -0.299032 70
-1.36283 1.27212 -0.290114 50
-0.933499 1.2423 -0.406728 58
-1.35847 1.26591 -0.420022 50
-0.940032 1.25102 0.352639 59
-1.36371 1.26903 0.489177 53
-0.942393 1.25373 0.242329 56
-1.36165 1.27148 0.355063 49
-0.939796 1.25029 0.133784 56
-1.35501 1.26836 0.223312 52
-0.939942 1.25094 0.0267022 58
-1.35497 1.27007 0.0955131 47
-0.94309 1.2556 -0.0807345 59
-1.34863 1.26547 -0.0316761 49
-0.94154 1.25443 -0.18802 71
-1.34765 1.26414 -0.158307 45
-0.941116 1.25522 -0.297604 61
-1.35339 1.26776 -0.288548 50
-0.93133 1.24393 -0.406728 58
-1.35112 1.26306 -0.418338 50
-0.930565 1.25201 0.351516 59
-1.35021 1.26932 0.486592 55
-0.929929 1.25072 0.240768 58
-1.34803 1.27164 0.353156 49
-0.929002 1.24903 0.13313 56
-1.33932 1.26694 0.221791 53
-0.930619 1.25167 0.0266149 58
-1.34467 1.27372 0.0952514 49
-0.932042 1.2545 -0.0803407 59
-1.33675 1.26714 -0.0315452 49
-0.932004 1.25536 -0.187412 73
-1.33739 1.26776 -0.157872 47
-0.931829 1.25603 -0.296651 61
-1.34134 1.26975 -0.287374 50
-0.919279 1.24086 -0.404141 59
-1.33562 1.26178 -0.41553 50
-0.926931 1.25168 0.350955 59
-1.34623 1.27002 0.485946 53
-0.926277 1.25035 0.240378 58
-1.34023 1.26918 0.351726 49
-0.923858 1.24665 0.132695 56
-1.33169 1.26416 0.220878 55
-0.925243 1.24943 0.0265277 58
-1.33156 1.26578 0.0944664 49
-0.926884 1.25211 -0.0800781 59
-1.3309 1.26603 -0.031458 47
-0.926864 1.25299 -0.186804 76
-1.32613 1.26153 -0.156785 45
-0.928179 1.25568 -0.296175 61
-1.32835 1.26191 -0.285024 52
-0.918327 1.24457 -0.404788 59
-1.32455 1.25575 -0.412723 50
-0.915833 1.25077 0.34927 58
-1.32532 1.26399 0.480776 53
-0.918041 1.25335 0.239988 59
-1.32646 1.26941 0.34982 49
-0.914159 1.24761 0.132259 58
-1.31945 1.26621 0.219966 53
-0.914263 1.24821 0.0263968 58
-1.31928 1.26779 0.0940739 49
-0.920315 1.25695 -0.0800781 59
-1.31862 1.26803 -0.0313271 47
-0.918608 1.25598 -0.186499 77
-1.32311 1.2719 -0.15722 49
-0.919925 1.2587 -0.295699 61
-1.31994 1.26715 -0.284633 52
-0.908954 1.24545 -0.403495 58
-1.31245 1.25785 -0.411038 50
-0.909564 1.2463 0.347585 58
-1.32137 1.26463 0.48013 55
-0.911708 1.24881 0.238817 58
-1.31537 1.26324 0.347437 50
-0.911981 1.2492 0.132259 56
-1.31566 1.26656 0.219661 53
-0.912083 1.2498 0.0263968 58
-1.31368 1.2664 0.0938122 49
-0.913711 1.2525 -0.0796843 59
-1.30378 1.25821 -0.0310216 47
-0.912254 1.2514 -0.185587 77
-1.30831 1.26214 -0.155698 49
-0.914841 1.25633 -0.294747 62
-1.30703 1.2592 -0.282284 52
-0.906779 1.24704 -0.403495 58
-1.30695 1.25655 -0.409915 50
-0.901602 1.24907 0.347024 58
-1.30798 1.26461 0.477545 53
-0.902269 1.24956 0.238037 58
-1.30719 1.26818 0.346961 50
-0.902733 1.24976 0.131823 58
-1.30188 1.26653 0.218445 55
-0.902822 1.25035 0.0263095 58
-1.30165 1.26805 0.0934197 49
-0.905682 1.25524 -0.079553 61
-1.2938 1.26131 -0.0309344 49
-0.902791 1.25213 -0.184978 77
-1.29632 1.26377 -0.155045 47
-0.90847 1.26095 -0.294747 61
-1.30042 1.26602 -0.282284 53
-0.894821 1.24377 -0.400908 58
-1.29685 1.25999 -0.408792 50
-0.898 1.24866 0.346462 59
-1.3023 1.26354 0.476253 53
-0.897207 1.24712 0.237256 58
-1.30299 1.26898 0.346484 50
-0.897645 1.24729 0.131387 58
-1.29255 1.26189 0.217228 55
-0.901878 1.25411 0.0263531 58
-1.29049 1.26162 0.0927655 47
-0.900579 1.25276 -0.0792905 59
-1.28802 1.26008 -0.0308471 49
-0.900604 1.25371 -0.184978 79
-1.29233 1.26429 -0.154828 49
-0.90198 1.25654 -0.293318 61
-1.29112 1.26141 -0.280718 52
-0.892432 1.24548 -0.400908 58
-1.28765 1.25547 -0.406546 50
-0.885592 1.24556 0.344216 58
-1.29199 1.26719 0.47496 55
-0.884728 1.2439 0.235695 59
-1.29282 1.27235 0.345531 50
-0.885115 1.24401 0.130516 58
-1.28393 1.26712 0.216923 55
-0.885171 1.24454 0.0260477 58
-1.28186 1.26683 0.0926346 49
-0.888228 1.24931 -0.0787654 61
-1.27762 1.26353 -0.0307599 49
-0.888068 1.25047 -0.183761 79
-1.28214 1.26755 -0.154393 49
-0.890913 1.2554 -0.29189 61
-1.28076 1.26491 -0.279935 53
-0.88032 1.24225 -0.398322 59
-1.27736 1.259 -0.405423 50
-0.883634 1.24695 0.344216 59
-1.28287 1.26269 0.472376 55
-0.885408 1.24948 0.236476 59
-1.28009 1.26429 0.342671 50
-0.881504 1.24352 0.130298 58
-1.27465 1.2624 0.215706 53
-0.885884 1.25017 0.026135 58
-1.27076 1.2603 0.0919804 49
-0.886046 1.25086 -0.0787654 61
-1.27007 1.26049 -0.030629 50
-0.884452 1.24999 -0.183457 77
-1.2746 1.26454 -0.15374 50
-0.890135 1.25896 -0.292366 61
-1.27327 1.26195 -0.27876 52
-0.882324 1.24971 -0.400262 59
-1.27169 1.25781 -0.4043 50
-0.871508 1.24357 0.34197 59
-1.27818 1.27086 0.473022 55
-0.87341 1.24585 0.234915 59
-1.27368 1.27075 0.342671 50
-0.870915 1.24184 0.129644 56
-1.26472 1.26533 0.215098 55
-0.87238 1.2444 0.0259168 59
-1.26437 1.26672 0.0919804 49
-0.876623 1.25139 -0.0785028 61
-1.26191 1.26514 -0.0305853 50
-0.873851 1.24834 -0.182544 79
-1.26267 1.26592 -0.153088 49
-0.879537 1.25741 -0.290937 61
-1.26687 1.26838 -0.27876 53
-0.869082 1.24425 -0.397028 59
-1.26012 1.25908 -0.402615 50
-0.870729 1.24709 0.342532 59
-1.26567 1.26288 0.469145 56
-0.872646 1.2494 0.235305 58
-1.26602 1.268 0.341241 50
-0.87017 1.2454 0.129862 56
-1.25549 1.26052 0.213881 55
-0.871418 1.24812 0.0259605 59
-1.25686 1.26363 0.0915879 49
-0.870157 1.24677 -0.078109 62
-1.25263 1.26026 -0.0304108 50
-0.873088 1.2519 -0.182848 77
-1.25694 1.2646 -0.152653 52
-0.87594 1.25693 -0.290461 61
-1.25417 1.26011 -0.276411 55
-0.868069 1.2479 -0.397675 59
-1.25102 1.2544 -0.400369 50
-0.858441 1.24376 0.340286 59
-1.25541 1.26629 0.467852 56
-0.858868 1.24393 0.233354 59
-1.25591 1.27113 0.340288 52
-0.859179 1.24394 0.129208 56
-1.2469 1.26553 0.213577 55
-0.860616 1.24649 0.0258296 59
-1.25001 1.27041 0.0915879 49
-0.862201 1.24926 -0.0779777 62
-1.24052 1.26169 -0.0302799 50
-0.859269 1.24639 -0.181327 80
-1.24505 1.26585 -0.152001 50
-0.866345 1.2576 -0.289509 62
-1.24582 1.26491 -0.27602 53
-0.854689 1.24248 -0.394442 59
-1.2425 1.25942 -0.399807 52
-0.859244 1.24912 0.341409 59
-1.23958 1.25478 0.462683 56
-0.861106 1.25139 0.234525 59
-1.24333 1.26285 0.337429 52
-0.858416 1.24749 0.129426 58
-1.2362 1.25866 0.212055 55
-0.857025 1.24593 0.0257859 58
-1.23924 1.26348 0.0909337 50
-0.860019 1.25076 -0.0779777 62
-1.23481 1.26029 -0.0301927 50
-0.860117 1.25183 -0.181936 80
-1.24109 1.26624 -0.151783 52
-0.862762 1.25709 -0.289033 59
-1.23667 1.26005 -0.274453 56
-0.853883 1.24596 -0.395089 59
-1.23367 1.25444 -0.397561 52
-0.848587 1.24756 0.339724 59
-1.23152 1.25931 0.462036 56
-0.846219 1.24362 0.232183 59
-1.23692 1.26913 0.337429 52
-0.846493 1.24358 0.128555 59
-1.22959 1.26512 0.212055 55
-0.847899 1.24612 0.0256987 59
-1.23261 1.26995 0.0909337 50
-0.850873 1.25097 -0.0777152 64
-1.22841 1.26653 -0.0301927 52
-0.849373 1.25015 -0.181023 80
-1.23467 1.27251 -0.151783 52
-0.852259 1.25534 -0.287604 62
-1.22834 1.26474 -0.274062 56
-0.8408 1.24026 -0.391855 59
-1.22708 1.26088 -0.397561 52
-0.845261 1.24687 0.339162 61
-1.22256 1.25456 0.459451 55
-0.84128 1.24101 0.231403 59
-1.22613 1.26251 0.335046 52
-0.845717 1.24712 0.128773 58
-1.22219 1.26193 0.211143 56
-0.847124 1.24966 0.0257423 59
-1.21821 1.25957 0.0900178 50
-0.848688 1.25245 -0.0777152 64
-1.22272 1.26508 -0.0301054 52
-0.84719 1.25163 -0.181023 80
-1.22203 1.26395 -0.150479 50
-0.843201 1.24666 -0.285223 61
-1.21924 1.25981 -0.272496 56
-0.842683 1.24774 -0.393795 59
-1.21298 1.25081 -0.393631 52
-0.83444 1.24535 0.337478 61
-1.21093 1.25574 0.457513 55
-0.837516 1.2495 0.232183 59
-1.2178 1.26715 0.334569 52
-0.835021 1.24532 0.128119 59
-1.20867 1.26116 0.209926 56
-0.839179 1.25201 0.0256987 59
-1.20813 1.26234 0.0897562 50
-0.839344 1.25273 -0.0774526 61
-1.20568 1.26066 -0.0298436 50
-0.833733 1.24574 -0.179502 79
-1.21194 1.26674 -0.150044 50
-0.838024 1.2531 -0.285699 59
-1.20577 1.25906 -0.27093 56
-0.829442 1.24208 -0.390562 59
-1.20472 1.2554 -0.393069 50
-0.833834 1.24869 0.338039 61
-1.20538 1.25438 0.45622 56
-0.831226 1.24479 0.231013 58
-1.21047 1.26397 0.333139 52
-0.830083 1.24263 0.127683 59
-1.20647 1.26327 0.209926 56
-0.832834 1.24723 0.0255678 59
-1.20075 1.25904 0.0893636 50
-0.831619 1.24588 -0.0769275 65
-1.20002 1.25915 -0.0297564 52
-0.830183 1.24512 -0.179198 80
-1.20628 1.26526 -0.149609 50
-0.833118 1.25047 -0.284747 61
-1.19845 1.25582 -0.269755 55
-0.828609 1.24554 -0.391209 59
-1.19239 1.24696 -0.3897 47
-0.820366 1.24301 0.335232 59
-1.19379 1.25544 0.454282 58
-0.82198 1.245 0.230232 59
-1.19876 1.26496 0.33171 53
-0.826306 1.25112 0.128119 59
-1.18958 1.25878 0.2081 55
-0.824917 1.24948 0.0255241 59
-1.1907 1.26169 0.089102 50
-0.826239 1.25244 -0.0770588 70
-1.18997 1.26179 -0.0296691 52
-0.820925 1.24531 -0.178589 80
-1.19428 1.26634 -0.148956 52
-0.822515 1.24866 -0.283319 61
-1.18845 1.25849 -0.268972 55
-0.819425 1.24582 -0.389916 59
-1.17577 1.2426 -0.386331 42
-0.816859 1.2424 0.33467 61
-1.18827 1.25402 0.452989 56
-0.81845 1.24437 0.229842 59
-1.19126 1.26192 0.33028 52
-0.820021 1.24631 0.127465 59
-1.18397 1.25725 0.207492 55
-0.818403 1.2448 0.0253932 59
-1.18335 1.25832 0.0887094 52
-0.818575 1.24553 -0.0765337 68
-1.18433 1.26023 -0.0295818 53
-0.81739 1.24466 -0.178285 82
-1.18864 1.26481 -0.148522 52
-0.817645 1.24599 -0.282366 61
-1.18116 1.25518 -0.267798 55
-0.815711 1.24537 -0.389269 59
-1.1736 1.24465 -0.386331 41
-0.806149 1.24067 0.332986 61
-1.17981 1.25868 0.452343 58
-0.807674 1.24257 0.228671 59
-1.18296 1.26635 0.329803 52
-0.81191 1.24864 0.127247 58
-1.17206 1.2582 0.206579 55
-0.810513 1.24697 0.0253496 59
-1.17482 1.26288 0.0885786 50
-0.813401 1.2519 -0.076665 67
-1.16555 1.25384 -0.0292764 52
-0.811993 1.25115 -0.178589 80
-1.1735 1.26192 -0.147434 52
-0.808225 1.24627 -0.281414 61
-1.17289 1.25955 -0.267406 55
-0.806558 1.24557 -0.387976 61
-1.15852 1.2421 -0.383523 39
-0.801555 1.23784 0.331863 59
-1.1743 1.25721 0.451051 56
-0.804381 1.24176 0.228281 59
-1.17404 1.26124 0.327897 53
-0.805673 1.24378 0.126594 59
-1.1667 1.25642 0.205971 55
-0.804266 1.24208 0.0252187 61
-1.16602 1.25742 0.0880552 50
-0.804442 1.24283 -0.0760086 70
-1.15995 1.25221 -0.0291891 52
-0.807335 1.24825 -0.177981 82
-1.1645 1.25668 -0.146564 52
-0.806049 1.24768 -0.281414 61
-1.16732 1.25798 -0.266623 55
-0.800461 1.24089 -0.386036 59
-1.15656 1.24391 -0.383523 39
-0.795062 1.24202 0.331863 59
-1.1597 1.2543 0.44782 56
-0.796538 1.24388 0.227891 61
-1.16263 1.26177 0.326467 53
-0.796685 1.24365 0.126158 59
-1.15337 1.25522 0.204754 56
-0.797969 1.24614 0.0252187 61
-1.15434 1.258 0.0876627 50
-0.799267 1.24913 -0.0761399 68
-1.15699 1.26174 -0.0292764 55
-0.795449 1.2441 -0.176764 85
-1.15622 1.26092 -0.146347 52
-0.795765 1.24554 -0.279985 64
-1.15569 1.25864 -0.265449 56
-0.79417 1.24492 -0.386036 59
-1.14507 1.24459 -0.381839 39
-0.78897 1.23724 0.330178 59
-1.15423 1.25278 0.446527 58
-0.79304 1.24318 0.227501 59
-1.15355 1.25679 0.324561 53
