# .PCD v0.7 - Point Cloud Data file format
VERSION 0.7
FIELDS x y z intensity
SIZE 4 4 4 4
TYPE F F F F
COUNT 1 1 1 1
WIDTH 1538
HEIGHT 1
VIEWPOINT 0 0 0 1 0 0 0
POINTS 1538
DATA ascii
-0.70415 -0.451274 -0.0421395 42
-0.850824 -0.544521 -0.119566 41
-1.65091 -1.51583 -0.192665 14
-0.858558 -0.549041 -0.190942 42
-1.57791 -1.45051 -0.334356 11
-0.853782 -0.545179 -0.261884 42
-1.20525 -1.10867 -0.369485 15
-5.96474 -5.52061 2.16543 12
-5.9093 -5.44827 1.55417 9
-3.16086 -2.01456 0.324873 9
-5.9065 -5.4324 0.979654 11
-3.16673 -2.01674 0.064923 12
-0.709149 -0.452724 -0.042402 42
-0.851773 -0.543035 -0.119566 41
-1.65722 -1.51632 -0.1931 4
-0.853299 -0.543594 -0.189514 42
-1.57499 -1.44274 -0.333181 11
-0.854828 -0.543539 -0.261884 42
-1.20898 -1.10822 -0.370046 14
-6.01589 -5.50784 2.17319 12
-5.945 -5.42388 1.55608 9
-5.93214 -5.39702 0.979045 11
-3.17301 -1.99747 0.0648357 24
-0.707283 -0.446347 -0.0421395 42
-0.852597 -0.537099 -0.119262 41
-0.860386 -0.541578 -0.190466 42
-1.58252 -1.43447 -0.333181 11
-0.853569 -0.536491 -0.26059 42
-1.22035 -1.10658 -0.371731 14
-6.04867 -5.5185 2.18159 12
-5.95264 -5.41184 1.5556 9
-5.94245 -5.38936 0.979349 9
-3.16802 -1.98662 0.0646612 24
-0.708061 -0.445112 -0.0421395 44
-0.85344 -0.535759 -0.119262 41
-0.855086 -0.536173 -0.189038 42
-1.58319 -1.43005 -0.33279 11
-0.856553 -0.536279 -0.261237 42
-1.22209 -1.10467 -0.371731 14
-6.08011 -5.49106 2.18288 11
-7.3109 -4.53106 1.35369 41
-5.97266 -5.37507 1.5537 9
-7.41687 -4.59849 0.760434 36
-3.17166 -1.96661 0.0645303 26
-0.708183 -0.440208 -0.0420082 44
-0.852013 -0.528672 -0.118654 41
-0.849439 -0.526677 -0.187133 41
-1.58882 -1.42009 -0.332398 11
-0.851036 -0.526864 -0.25865 42
-1.22967 -1.09988 -0.372293 14
-7.31811 -4.51789 1.97433 35
-6.113 -5.50145 2.19128 9
-7.31039 -4.51311 1.35213 41
-7.4037 -4.57246 0.758255 33
-3.16233 -1.9532 0.0642685 27
-0.70895 -0.438972 -0.0420082 44
-0.848709 -0.524581 -0.118045 41
-0.848267 -0.523907 -0.186657 41
-1.59682 -1.42225 -0.333573 11
-0.854011 -0.526643 -0.259297 42
-1.23521 -1.10099 -0.373416 14
-7.31619 -4.46046 1.96703 33
-6.17333 -5.49562 2.20227 11
-7.31995 -4.46449 1.3494 39
-7.40919 -4.52066 0.756294 32
-6.54191 -5.78749 1.06667 2
-3.16858 -1.93346 0.0641812 27
-0.702787 -0.429932 -0.0414831 44
-0.549815 -0.479546 -0.0121294 11
-0.849415 -0.518691 -0.117741 41
-0.848992 -0.518034 -0.186181 42
-1.60424 -1.41387 -0.333573 11
-0.85272 -0.519507 -0.258004 42
-1.24115 -1.09429 -0.373416 14
-7.29612 -4.43253 1.95973 30
-6.20097 -5.50087 2.20873 11
-7.30585 -4.44017 1.34549 39
-7.39791 -4.49609 0.754333 32
-6.56959 -5.79363 1.06971 2
-3.16554 -1.92403 0.0640503 27
-0.703536 -0.428705 -0.0414831 44
-0.550651 -0.478586 -0.0121294 11
-0.852351 -0.518643 -0.118045 41
-0.854093 -0.519095 -0.187133 41
-1.603 -1.4078 -0.33279 12
-0.857758 -0.520518 -0.259297 42
-1.24287 -1.09234 -0.373416 14
-7.30878 -4.388 1.95692 35
-6.25412 -5.49174 2.21777 9
-7.30782 -4.38914 1.34159 33
-6.5197 -5.70515 1.67571 3
-7.4035 -4.44833 0.75259 32
-6.60171 -5.76078 1.07001 3
-3.16881 -1.90412 0.0639194 29
-0.705771 -0.425016 -0.0414831 45
-0.55495 -0.477435 -0.0121731 11
-0.846541 -0.50907 -0.116828 41
-0.850393 -0.510982 -0.185705 41
-1.60105 -1.39127 -0.330832 12
-0.860381 -0.51617 -0.259297 42
-1.25774 -1.09383 -0.376223 14
-7.28925 -4.35898 1.94962 30
-6.2855 -5.49991 2.22553 9
-7.29428 -4.36371 1.33769 32
-6.57317 -5.72974 1.68667 3
-7.3856 -4.42006 0.749975 30
-6.60988 -5.74762 1.06971 3
-3.16602 -1.89419 0.0637885 30
-0.706512 -0.423783 -0.0414831 45
-0.55767 -0.478105 -0.0122167 11
-0.845298 -0.50632 -0.116524 41
-2.49047 -2.15706 -0.284648 26
-0.851284 -0.509497 -0.185705 41
-1.59975 -1.38523 -0.330049 12
-0.848921 -0.507104 -0.255417 41
-1.26332 -1.09484 -0.377346 14
-7.30014 -4.31205 1.94625 30
-6.33707 -5.4848 2.23328 9
-7.30077 -4.31413 1.33457 33
-6.5975 -5.69043 1.68524 4
-7.40083 -4.37496 0.749104 32
-6.63148 -5.70368 1.06819 3
-3.17159 -1.87504 0.0637013 30
-0.702272 -0.41627 -0.0410893 47
-0.560249 -0.475081 -0.0122167 11
-0.848025 -0.501739 -0.116524 41
-2.53006 -2.16835 -0.28791 30
-0.849799 -0.502392 -0.184752 41
-1.59763 -1.36879 -0.328091 12
-0.855727 -0.505102 -0.256711 42
-1.27107 -1.08958 -0.377908 14
-7.2859 -4.28822 1.94064 29
-6.3777 -5.50056 2.24427 9
-7.2969 -4.29639 1.33262 33
-6.61301 -5.68371 1.68667 4
-7.38699 -4.34941 0.746925 32
-6.61595 -5.67224 1.06423 3
-3.16409 -1.86317 0.0634831 30
-0.705149 -0.416309 -0.0412205 49
-0.555381 -0.469225 -0.0120858 11
-0.846673 -0.499149 -0.11622 41
-2.55087 -2.17851 -0.289867 32
-0.846441 -0.498423 -0.1838 41
-1.59439 -1.36117 -0.326917 12
-0.848273 -0.498723 -0.254124 42
-1.27648 -1.09076 -0.379031 14
-7.29562 -4.24267 1.93727 30
-6.42566 -5.48547 2.25138 9
-7.30008 -4.24696 1.3291 32
-6.62301 -5.63425 1.6819 4
-7.40246 -4.30821 0.746271 33
-6.55099 -5.55721 1.04902 2
-3.16916 -1.84461 0.0633959 32
-0.705161 -0.411357 -0.0410893 45
-0.559655 -0.468024 -0.0121294 11
-0.853566 -0.497201 -0.116828 41
-2.57174 -2.17317 -0.290954 30
-0.84683 -0.492901 -0.183324 41
-1.59208 -1.34482 -0.324959 12
-0.857056 -0.498055 -0.256064 42
-1.29145 -1.09195 -0.381839 14
-7.28404 -4.21895 1.93222 29
-6.4628 -5.49774 2.26107 9
-7.29039 -4.22431 1.32598 33
-6.58141 -5.57707 1.66856 2
-7.38841 -4.28279 0.744092 32
-6.59478 -5.57462 1.0545 2
-3.16836 -1.83602 0.0633086 32
-0.701556 -0.407625 -0.0408267 47
-0.558562 -0.465434 -0.0120858 11
-0.845841 -0.490741 -0.115611 41
-2.58504 -2.17672 -0.292042 23
-0.849814 -0.49265 -0.1838 41
-1.59631 -1.34363 -0.325351 12
-1.29521 -1.09127 -0.3824 14
-7.29196 -4.17101 1.92828 27
-6.51462 -5.48136 2.26882 9
-7.28956 -4.17131 1.32169 33
-6.56917 -5.50782 1.65807 2
-7.39851 -4.23533 0.742785 32
-6.63626 -5.54842 1.05632 8
-3.16709 -1.8132 0.0630904 32
-0.703681 -0.403946 -0.0408267 47
-0.557235 -0.4592 -0.0119985 11
-0.848483 -0.486158 -0.115611 41
-2.60405 -2.16954 -0.292911 27
-0.843941 -0.48318 -0.181895 41
-1.59386 -1.32733 -0.323393 12
-1.3011 -1.08424 -0.3824 14
-7.28157 -4.1499 1.92379 27
-6.55007 -5.49172 2.27787 9
-7.28323 -4.15252 1.31935 32
-6.68042 -5.58138 1.68381 9
-7.39507 -4.21625 0.741695 32
-6.66402 -5.55388 1.05936 14
-3.16373 -1.80396 0.0629596 33
-0.700046 -0.400246 -0.0405642 47
-0.558035 -0.458227 -0.0119985 11
-0.849246 -0.484824 -0.115611 41
-2.62123 -2.17614 -0.294434 30
-0.84905 -0.484131 -0.182848 42
-1.58859 -1.31822 -0.321827 12
-0.848853 -0.483256 -0.252184 42
-1.30654 -1.08532 -0.383523 14
-7.27772 -4.09738 1.91705 23
-6.60564 -5.48165 2.28756 9
-7.28551 -4.10343 1.31584 33
-6.71237 -5.55062 1.68476 14
-7.39462 -4.16654 0.739516 32
-6.69683 -5.52207 1.05997 14
-3.16193 -1.78179 0.0627414 33
-2.60925 -2.1447 0.175195 3
-0.564206 -0.458575 -0.0120858 11
-0.838794 -0.473076 -0.113786 39
-2.64989 -2.17664 -0.296391 33
-0.842931 -0.475021 -0.180943 41
-1.59547 -1.30989 -0.321827 12
-0.855501 -0.481315 -0.253477 44
-1.31783 -1.08312 -0.385208 12
-7.27211 -4.07753 1.91368 23
-6.63566 -5.48705 2.29467 9
-7.27974 -4.08346 1.31349 33
-6.67 -5.49401 1.67142 12
-7.38667 -4.1451 0.737991 33
-6.67963 -5.48831 1.05571 14
-3.16098 -1.77327 0.0626541 33
-2.62843 -2.15282 0.176241 3
-0.843949 -0.474035 -0.114394 42
-2.65753 -2.17517 -0.296826 33
-0.843758 -0.473549 -0.180943 41
-1.58821 -1.29926 -0.319869 12
-0.858532 -0.480849 -0.254124 44
-1.32912 -1.08857 -0.388015 12
-7.26422 -4.02161 1.90582 18
-6.69889 -5.47861 2.3063 9
-7.28444 -4.03444 1.31037 33
-6.66064 -5.42798 1.66188 11
-7.38721 -4.09301 0.735812 32
-6.67073 -5.42077 1.04963 12
-3.1571 -1.74943 0.0623923 33
-2.65166 -2.14802 0.177026 3
-0.698331 -0.388037 -0.0401703 49
-0.846501 -0.469462 -0.114394 42
-2.68049 -2.17065 -0.29813 33
-0.839863 -0.465417 -0.179515 42
-1.59691 -1.29249 -0.320261 12
-0.852579 -0.471683 -0.251538 44
-1.34821 -1.09213 -0.391946 12
-7.24493 -3.99608 1.89909 15
-6.72903 -5.4837 2.31341 8
-7.28428 -4.01942 1.3092 33
-6.63773 -5.39003 1.65378 11
-7.38562 -4.0753 0.734941 33
-6.64069 -5.37902 1.04354 12
-3.16234 -1.74513 0.062436 33
-2.6725 -2.15799 0.178204 3
-0.69682 -0.385613 -0.0400391 47
-0.558549 -0.445675 -0.0118676 12
-0.84289 -0.465738 -0.113786 44
-2.69395 -2.1738 -0.299218 33
-0.842824 -0.465133 -0.179991 42
-1.59149 -1.28348 -0.318695 12
-0.855517 -0.471357 -0.252184 44
-1.35182 -1.09155 -0.392508 12
-7.24008 -3.94411 1.89235 14
-6.78864 -5.47536 2.3244 8
-7.28788 -3.97177 1.30608 33
-6.65155 -5.34559 1.65045 12
-7.38865 -4.02833 0.733198 32
-6.65715 -5.33486 1.04172 14
-3.15577 -1.72073 0.0621306 33
-2.69155 -2.15021 0.178727 3
-0.5647 -0.445966 -0.0119549 11
-0.847497 -0.462504 -0.11409 42
-2.71658 -2.16948 -0.300522 32
-0.840855 -0.458518 -0.179038 44
-0.85577 -0.465869 -0.251538 44
-7.21415 -3.91531 1.88392 14
-6.82076 -5.48168 2.33215 8
-7.27961 -3.9508 1.30335 32
-6.67618 -5.34626 1.65426 11
-7.38254 -4.0083 0.73189 32
-6.66258 -5.32014 1.04111 12
-3.16096 -1.71641 0.0621742 33
-2.70701 -2.15485 0.179512 3
-0.563523 -0.443421 -0.0119113 12
-0.848303 -0.461024 -0.11409 44
-2.7301 -2.1725 -0.30161 20
-0.848129 -0.460554 -0.180467 44
-0.858706 -0.465523 -0.252184 44
-7.2116 -3.86357 1.87775 14
-6.88716 -5.47597 2.34508 8
-7.28496 -3.90447 1.30062 33
-6.731 -5.33258 1.66093 9
-7.38367 -3.959 0.729929 32
-6.72343 -5.31135 1.04628 12
-3.15669 -1.69275 0.0619124 35
-2.73001 -2.14993 0.180297 4
-0.697012 -0.374836 -0.0397765 49
-0.563875 -0.438916 -0.0118676 12
-0.844141 -0.453065 -0.113177 42
-2.75512 -2.16898 -0.303132 14
-0.850478 -0.455337 -0.248951 44
-7.18327 -3.83389 1.86876 14
-6.91374 -5.47745 2.35089 9
-7.28087 -3.88594 1.29867 35
-6.76533 -5.3406 1.66713 11
-7.37739 -3.93907 0.728622 32
-6.75607 -5.31804 1.04993 11
-3.15964 -1.68724 0.0619124 35
-2.74749 -2.15597 0.181213 4
-0.697665 -0.373619 -0.0397765 50
-0.56464 -0.437931 -0.0118676 11
-0.849311 -0.453924 -0.113786 44
-2.75499 -2.16109 -0.302697 11
-0.85767 -0.457251 -0.250891 44
-7.17158 -3.77794 1.86034 14
-6.98032 -5.47099 2.36382 8
-7.27708 -3.8351 1.29437 33
-7.38249 -3.89226 0.727097 32
-3.15958 -1.66602 0.0617379 35
-2.77844 -2.15689 0.182522 4
-0.693049 -0.366351 -0.0393827 49
-0.559034 -0.42883 -0.0116931 12
-0.842891 -0.444851 -0.112569 42
-0.84283 -0.44445 -0.178086 42
-0.849359 -0.447145 -0.247658 44
-7.16521 -3.75863 1.85697 15
-7.2772 -3.81896 1.2932 33
-7.38045 -3.87474 0.726225 33
-3.15835 -1.65763 0.0616506 35
-2.79404 -2.16122 0.183307 8
-0.695898 -0.366299 -0.039514 52
-0.55583 -0.424791 -0.0116058 12
-0.845865 -0.44453 -0.112873 44
-0.843604 -0.442978 -0.178086 42
-0.848076 -0.444395 -0.247011 44
-7.16165 -3.70749 1.85079 18
-7.28241 -3.77158 1.29047 33
-7.38804 -3.82788 0.724918 33
-2.86214 -2.19252 0.437802 3
-3.16254 -1.63877 0.0615634 36
-2.81361 -2.15215 0.18383 9
-0.697807 -0.362651 -0.039514 50
-0.556136 -0.420256 -0.0115622 11
-0.83944 -0.43539 -0.111656 44
-0.866427 -0.658317 -0.0919833 41
-0.848169 -0.439533 -0.178562 44
-0.858812 -0.653389 -0.165612 26
-0.848244 -0.438842 -0.246365 44
-7.15663 -3.69066 1.84799 20
-7.27735 -3.75448 1.28852 33
-2.86295 -2.19151 0.693444 3
-7.38142 -3.80813 0.723611 33
-2.84785 -2.17445 0.435064 9
-3.15873 -1.62981 0.0614325 36
-2.82294 -2.15228 0.184223 11
-0.694 -0.359145 -0.0392514 49
-0.556869 -0.419285 -0.0115622 11
-0.842329 -0.435207 -0.11196 42
-0.869554 -0.658316 -0.0922008 44
-0.846753 -0.43693 -0.178086 42
-0.863873 -0.65489 -0.166395 33
-0.851157 -0.438464 -0.247011 44
-7.15632 -3.64319 1.84293 21
-2.8653 -2.1782 0.953798 8
-7.28591 -3.71072 1.28657 33
-2.85446 -2.16215 0.688679 11
-7.37841 -3.75942 0.721432 32
-2.85326 -2.15501 0.434151 14
-3.16026 -1.6104 0.0613016 36
-2.83616 -2.13897 0.184353 14
-0.691359 -0.353364 -0.0389889 49
-0.55699 -0.414954 -0.0115186 11
-0.84902 -0.433039 -0.112569 44
-0.844577 -0.430416 -0.177134 44
-0.849058 -0.431966 -0.245718 44
-7.15117 -3.62644 1.84013 23
-2.86141 -2.16736 0.951213 9
-7.27255 -3.68795 1.28306 33
-2.86606 -2.16309 0.690585 9
-7.37608 -3.74203 0.72056 33
-2.859 -2.15152 0.434455 27
-3.15861 -1.60262 0.0612143 36
-2.85185 -2.14304 0.185138 12
-0.696428 -0.354413 -0.0392514 52
-0.565701 -0.419996 -0.0116931 12
-0.84756 -0.430436 -0.112265 44
-0.840946 -0.426727 -0.176181 42
-0.851966 -0.431572 -0.246365 44
-7.14672 -3.57571 1.83395 23
-2.88044 -2.15815 0.953798 4
-7.2763 -3.64209 1.28033 35
-2.88913 -2.15687 0.693444 8
-7.38443 -3.69779 0.719471 32
-2.88215 -2.14543 0.436281 1
-3.15354 -1.57935 0.0609525 36
-2.83902 -2.11017 0.183568 2
-0.68717 -0.345058 -0.038595 50
-0.565887 -0.415535 -0.0116495 12
-0.843143 -0.422666 -0.111352 44
-0.873537 -0.644668 -0.0917659 49
-0.849757 -0.425606 -0.17761 42
-0.855976 -0.632477 -0.163263 45
-0.845568 -0.422798 -0.243778 42
-0.859911 -0.636757 -0.238649 39
-7.14641 -3.55997 1.83226 23
-2.8784 -2.14877 0.951859 3
-7.27602 -3.62608 1.27916 35
-2.88343 -2.14399 0.691062 2
-7.3775 -3.67823 0.718163 32
-2.86798 -2.12707 0.433542 1
-3.16104 -1.57552 0.0610398 36
-2.84871 -2.10968 0.183961 3
-0.687772 -0.343859 -0.038595 50
-0.562597 -0.411567 -0.0115622 12
-0.850545 -0.424509 -0.112265 44
-0.874661 -0.643142 -0.0917659 49
-0.843905 -0.420846 -0.176181 44
-0.857078 -0.630982 -0.163263 44
-0.844214 -0.420101 -0.243131 44
-0.857114 -0.632345 -0.237526 41
-7.15026 -3.51373 1.82833 24
-2.89969 -2.14035 0.95509 2
-7.2778 -3.57795 1.27603 35
-2.87881 -2.11721 0.687249 2
-7.37271 -3.62617 0.715766 33
-2.89743 -2.12475 0.436281 1
-2.90234 -2.12526 0.186709 1
-0.689563 -0.340253 -0.038595 49
-0.5628 -0.407039 -0.0115186 12
-0.84169 -0.414436 -0.110743 44
-0.871993 -0.634133 -0.0911135 47
-0.848373 -0.417354 -0.176658 44
-0.854402 -0.622098 -0.162088 45
-0.839895 -0.412491 -0.241192 42
-0.860522 -0.627698 -0.237526 41
-7.14701 -3.49822 1.82609 26
-2.88982 -2.12526 0.950567 2
-7.2701 -3.56 1.27369 35
-7.37455 -3.61111 0.715331 32
-2.93186 -2.13987 0.188409 3
-0.692398 -0.340145 -0.0387263 52
-0.559474 -0.403105 -0.0114313 12
-0.846799 -0.415292 -0.111352 44
-0.871088 -0.631139 -0.090896 49
-0.842483 -0.412644 -0.175229 44
-0.853495 -0.619147 -0.161697 45
-0.842785 -0.412082 -0.241838 42
-0.859543 -0.624904 -0.236965 39
-7.15865 -3.45757 1.8244 26
-7.27752 -3.51651 1.27174 35
-7.37255 -3.56398 0.71337 32
-2.97538 -2.14791 0.190503 4
-0.689673 -0.334345 -0.0384638 49
-0.569609 -0.406128 -0.0116058 12
-0.846727 -0.409775 -0.111048 44
-0.876399 -0.628029 -0.0911135 47
-0.846772 -0.409439 -0.175705 44
-0.856725 -0.61467 -0.161697 47
-0.840507 -0.405718 -0.240545 42
-0.85689 -0.616101 -0.23528 41
-7.14272 -3.43452 1.81879 26
-7.26362 -3.49417 1.26823 33
-7.3653 -3.54463 0.712062 35
-3.0014 -2.15878 0.191942 4
-0.690255 -0.333141 -0.0384638 49
-0.566261 -0.402211 -0.0115186 12
-0.836255 -0.402928 -0.109526 42
-0.873453 -0.623587 -0.0906786 49
-0.840847 -0.404777 -0.174277 42
-0.8618 -0.616063 -0.16248 47
-0.836927 -0.402019 -0.239252 42
-0.854016 -0.611749 -0.234157 39
-7.15019 -3.3906 1.81598 26
-7.27127 -3.44953 1.26628 33
-7.37537 -3.50046 0.711191 33
-3.06386 -2.17875 0.195213 8
-0.68071 -0.324176 -0.0378074 49
-0.562321 -0.39479 -0.0113877 12
-0.845152 -0.401583 -0.110439 44
-0.874678 -0.617559 -0.0904611 49
-0.840806 -0.399173 -0.173801 42
-0.858985 -0.607239 -0.161305 47
-0.834653 -0.39557 -0.237958 42
-0.855332 -0.605703 -0.233595 41
-7.14669 -3.37521 1.81373 26
-7.26104 -3.43073 1.26355 33
-7.3657 -3.48014 0.709666 33
-3.08373 -2.18884 0.459403 4
-3.06321 -2.17104 0.194951 11
-0.685791 -0.325118 -0.0380699 49
-0.565048 -0.395255 -0.0114313 12
-0.843537 -0.399196 -0.110135 44
-0.869662 -0.611706 -0.0898088 50
-0.841501 -0.397705 -0.173801 44
-0.856019 -0.602877 -0.160522 47
-0.844085 -0.398221 -0.240545 45
-0.852315 -0.60153 -0.232472 41
-7.15102 -3.33157 1.81036 26
-3.0716 -2.17043 0.997094 2
-7.26772 -3.38745 1.26159 33
-3.08255 -2.17019 0.725376 3
-7.38096 -3.44176 0.709448 35
-3.08704 -2.16695 0.458186 9
-3.06636 -2.14923 0.194428 11
-0.68522 -0.320469 -0.0379387 49
-0.836615 -0.390589 -0.108918 42
-0.868777 -0.604281 -0.0893739 50
-0.843503 -0.39344 -0.173801 44
-0.857145 -0.596966 -0.160131 47
-0.839517 -0.390896 -0.238605 44
-0.853461 -0.595656 -0.231911 41
-7.13472 -3.30884 1.80475 26
-3.10103 -2.18317 1.00549 3
-7.26018 -3.36852 1.25925 33
-3.09274 -2.16851 0.726806 9
-7.36437 -3.41839 0.707269 32
-3.07456 -2.15017 0.455752 11
-3.07624 -2.14817 0.194821 11
-0.685778 -0.319273 -0.0379387 49
-0.844051 -0.392255 -0.109831 44
-0.86983 -0.602764 -0.0893739 49
-0.839734 -0.389907 -0.172848 44
-0.852119 -0.591218 -0.158956 47
-0.840266 -0.389283 -0.238605 42
-0.852506 -0.592765 -0.231349 41
-7.15695 -3.27222 1.80587 23
-3.09299 -2.15254 0.999032 9
-7.26258 -3.322 1.25652 33
-3.10607 -2.15368 0.727283 9
-7.36917 -3.37228 0.705961 32
-3.09431 -2.13915 0.456969 9
-3.08166 -2.12723 0.194428 11
-0.68517 -0.31464 -0.0378074 47
-0.843904 -0.386653 -0.109526 44
-0.870926 -0.596784 -0.0891564 50
-0.841831 -0.385358 -0.172848 44
-0.855203 -0.586748 -0.158956 49
-0.846689 -0.386879 -0.239898 44
-0.851698 -0.585365 -0.230226 41
-7.21973 -3.28721 1.82047 18
-3.11261 -2.15817 1.0042 8
-7.25879 -3.3065 1.25496 35
-3.10377 -2.14407 0.725853 4
-7.36144 -3.35322 0.704654 32
-3.10787 -2.14134 0.45849 2
-3.09116 -2.12664 0.194821 1
-0.683446 -0.31241 -0.0376761 47
-0.84451 -0.385327 -0.109526 44
-0.867866 -0.592436 -0.0887215 50
-0.840267 -0.382874 -0.172372 44
-0.856226 -0.585255 -0.158956 47
-0.838564 -0.381415 -0.237312 42
-0.844603 -0.578482 -0.22798 42
-7.2324 -3.24736 1.81935 14
-3.11553 -2.13691 1.00162 4
-7.26024 -3.26137 1.25223 35
-3.11458 -2.12833 0.725853 2
-7.36242 -3.30878 0.703129 32
-3.12314 -2.12784 0.459099 2
-3.11051 -2.11605 0.195344 3
-0.687296 -0.309969 -0.0378074 47
-0.839723 -0.377855 -0.108614 44
-0.868795 -0.586633 -0.088504 50
-0.837715 -0.37661 -0.17142 44
-0.857239 -0.579372 -0.158564 49
-0.836074 -0.375195 -0.236019 42
-0.84561 -0.572677 -0.227419 42
-7.30421 -3.26582 1.83619 12
-3.13519 -2.14239 1.00679 2
-7.2569 -3.24466 1.25067 35
-3.1264 -2.12843 0.727759 2
-7.35909 -3.29186 0.702257 32
-3.13915 -2.13076 0.460924 3
-3.13071 -2.12185 0.196391 8
-0.685556 -0.307751 -0.0376761 47
-0.840381 -0.376389 -0.108614 44
-0.863638 -0.580917 -0.0878517 52
-0.838371 -0.375148 -0.17142 44
-0.854165 -0.575097 -0.157781 49
-0.834521 -0.372753 -0.235372 42
-0.848621 -0.572572 -0.22798 42
-7.26827 -3.20268 1.82272 30
-3.13437 -2.11782 1.00291 2
-7.26927 -3.20463 1.24989 35
-3.14157 -2.11477 0.728712 2
-7.36027 -3.24625 0.700732 35
-3.14615 -2.11153 0.460316 4
-2.10381 -0.928529 0.0395297 4
-3.15214 -2.11239 0.197045 11
-0.689496 -0.305043 -0.0378074 47
-3.16706 -2.12082 -0.0659265 12
-0.846883 -0.373981 -0.109222 45
-0.868836 -0.577624 -0.0880691 50
-0.833583 -0.367791 -0.169991 44
-0.853067 -0.567861 -0.156998 49
-0.836461 -0.368379 -0.235372 42
-0.851608 -0.568121 -0.22798 42
-7.25823 -3.18315 1.81879 32
-3.15808 -2.12585 1.00937 2
-7.25902 -3.18499 1.24716 35
-3.15988 -2.11832 0.732049 3
-7.35452 -3.22839 0.699643 35
-3.15395 -2.1088 0.460924 4
-2.11704 -0.929506 0.0397479 4
-3.1745 -2.11938 0.198222 1
-0.685454 -0.301835 -0.0375448 45
-3.17076 -2.11529 -0.0659265 3
-0.840715 -0.369518 -0.10831 44
-0.863632 -0.571953 -0.0874168 52
-0.838721 -0.368302 -0.170944 44
-0.854057 -0.566372 -0.156998 49
-0.83938 -0.367738 -0.236019 42
-0.848553 -0.563917 -0.226857 44
-7.25969 -3.13707 1.81486 32
-3.18561 -2.11946 1.01454 3
-7.25802 -3.13784 1.24403 35
-3.18319 -2.1099 0.734908 3
-7.35817 -3.18262 0.698335 33
-3.15911 -2.08759 0.460011 3
-2.11958 -0.917417 0.0397042 4
-3.17551 -2.09529 0.197568 9
-0.677858 -0.294283 -0.0370197 49
-3.1759 -2.09396 -0.0657956 3
-0.838145 -0.362998 -0.107701 44
-0.868693 -0.568797 -0.0876342 52
-0.833939 -0.360845 -0.169515 44
-0.859069 -0.563256 -0.15739 49
-0.83242 -0.359522 -0.233432 42
-0.849562 -0.557971 -0.226295 44
-7.2579 -3.12277 1.81317 33
-3.19534 -2.11791 1.01648 2
-7.2584 -3.12448 1.24325 35
-3.18891 -2.10569 0.735385 3
-7.35685 -3.16682 0.697682 33
-3.15617 -2.07852 0.459099 3
-2.13036 -0.917666 0.0398787 4
-3.16003 -2.07793 0.196391 3
-0.67837 -0.293099 -0.0370197 49
-3.18999 -2.09529 -0.0660137 1
-0.843274 -0.363639 -0.10831 45
-0.867604 -0.565909 -0.0874168 52
-0.839079 -0.361324 -0.170467 44
-0.855929 -0.559035 -0.156607 47
-0.837487 -0.359969 -0.234725 42
-0.846373 -0.553948 -0.225172 44
-7.25845 -3.07807 1.80924 35
-7.25647 -3.07872 1.24013 33
-7.35673 -3.12274 0.696157 33
-2.13959 -0.908824 0.039966 4
-3.17715 -2.06545 0.196783 1
-0.677597 -0.288569 -0.0368885 49
-3.18799 -2.07093 -0.0657519 1
-0.842882 -0.358252 -0.108005 45
-0.872642 -0.562718 -0.0876342 53
-0.838637 -0.356116 -0.169991 44
-0.856777 -0.553197 -0.156215 49
-0.834848 -0.353847 -0.233432 44
-0.851301 -0.550842 -0.225734 44
-7.25707 -3.06256 1.80756 35
-7.25046 -3.06125 1.23818 33
-7.35529 -3.10699 0.695503 35
-3.16818 -2.05174 0.195998 1
-0.685001 -0.290296 -0.0372823 47
-3.17272 -2.05312 -0.0653593 2
-0.841219 -0.355817 -0.107701 45
-0.865266 -0.555771 -0.0867644 52
-0.841519 -0.355604 -0.170467 44
-0.855671 -0.550355 -0.155824 47
-0.837753 -0.353179 -0.234079 42
-0.846138 -0.545367 -0.224049 42
-7.25554 -3.01577 1.80306 33
-7.24639 -3.01345 1.23467 33
-7.35589 -3.06045 0.693978 35
-3.17293 -2.03052 0.195606 3
-0.684206 -0.285747 -0.037151 49
-3.18589 -2.03727 -0.0654029 2
-0.845424 -0.352211 -0.108005 47
-0.874453 -0.555268 -0.0874168 52
-0.841163 -0.350106 -0.169991 45
-0.854386 -0.543198 -0.155041 47
-0.832896 -0.346018 -0.232139 42
-0.851124 -0.542099 -0.224611 44
-7.25802 -3.00344 1.8025 33
-7.24655 -3.00017 1.23389 35
-7.35202 -3.0438 0.693106 33
-3.17191 -2.02285 0.195344 9
-0.682396 -0.283599 -0.0370197 49
-3.16627 -2.01691 -0.064923 14
-0.839095 -0.348041 -0.107093 45
-0.867027 -0.548376 -0.086547 50
-0.844042 -0.349573 -0.170467 45
-0.851173 -0.539044 -0.154258 45
-0.833498 -0.344564 -0.232139 42
-0.843773 -0.5355 -0.222365 44
-7.25785 -2.95896 1.79857 33
-7.24387 -2.95473 1.23077 35
-7.34888 -2.99902 0.691363 33
-0.679199 -0.278257 -0.0367572 49
-3.17432 -1.99952 -0.0648793 38
-0.843205 -0.344578 -0.107397 45
-0.869791 -0.543981 -0.086547 52
-0.83898 -0.342524 -0.169039 44
-0.851897 -0.53326 -0.153866 47
-0.832994 -0.339433 -0.231492 42
-0.848622 -0.532379 -0.222926 44
-7.26023 -2.94664 1.79801 33
-7.24444 -2.94023 1.22999 35
-7.34949 -2.98432 0.690927 32
-0.679684 -0.277072 -0.0367572 50
-3.163 -1.98466 -0.0645739 30
-0.843805 -0.343106 -0.107397 45
-0.864416 -0.538481 -0.0858946 52
-0.835026 -0.339219 -0.168087 44
-0.848649 -0.529139 -0.153083 45
-0.838064 -0.339787 -0.232785 42
-0.843372 -0.526994 -0.221242 42
-7.263 -2.90063 1.79464 33
-7.24878 -2.89641 1.22804 35
-7.34934 -2.93804 0.689402 32
-7.27938 -4.52362 0.447342 1
-0.681173 -0.27339 -0.0367572 49
-3.17157 -1.9662 -0.0645303 30
-0.838733 -0.335779 -0.106484 45
-0.867317 -0.533797 -0.0858946 52
-0.839129 -0.335604 -0.168563 45
-0.853504 -0.525994 -0.153475 47
-0.833157 -0.332572 -0.230846 42
-0.84621 -0.522424 -0.221242 42
-7.2517 -2.88292 1.79071 32
-7.24643 -2.88228 1.22686 33
-7.30886 -4.54543 1.66474 44
-7.34057 -2.91969 0.688095 33
-7.41849 -4.60118 1.06606 36
-7.25889 -4.49507 0.445641 1
-0.686289 -0.274044 -0.0370197 49
-3.16012 -1.95145 -0.0642248 29
-0.841566 -0.335377 -0.106788 45
-0.857661 -0.525724 -0.0848073 52
-0.837432 -0.333235 -0.168087 45
-0.852322 -0.523202 -0.153083 45
-0.833737 -0.331117 -0.230846 42
-0.84703 -0.521094 -0.221242 42
-7.25082 -2.8387 1.78678 32
-7.23613 -2.8344 1.22257 29
-7.31923 -4.50066 1.66188 36
-7.3483 -2.87978 0.687441 32
-7.41499 -4.5454 1.0621 33
-7.31851 -4.47918 0.447865 1
-0.67609 -0.2659 -0.0363633 50
-3.16782 -1.93412 -0.0641812 29
-0.847933 -0.332772 -0.107397 45
-0.860402 -0.521226 -0.0848073 53
-0.839108 -0.328992 -0.168087 44
-0.852945 -0.517441 -0.152692 45
-0.833151 -0.326017 -0.230199 42
-0.845596 -0.5141 -0.220119 42
-7.31211 -4.49622 2.28756 42
-7.3153 -4.47891 1.65902 36
-7.40597 -4.5221 1.05967 39
-7.30714 -4.45469 0.446687 1
-0.681206 -0.26653 -0.0366259 50
-3.16266 -1.92338 -0.0640067 29
-0.8462 -0.330392 -0.107093 47
-0.854932 -0.515833 -0.084155 52
-0.839681 -0.327527 -0.168087 45
-0.85174 -0.514664 -0.1523 45
-0.833776 -0.324417 -0.230199 42
-0.838182 -0.507535 -0.217873 42
-7.32602 -4.45031 2.28433 33
-7.31767 -4.42783 1.65426 35
-7.40272 -4.46528 1.05571 35
-7.30976 -4.4022 0.445379 1
-0.680261 -0.262067 -0.0364946 50
-3.16445 -1.90108 -0.0638322 29
-0.847975 -0.325809 -0.107093 47
-0.859754 -0.512635 -0.0843724 52
-0.84144 -0.322979 -0.168087 45
-0.848081 -0.506369 -0.151126 44
-0.83095 -0.318326 -0.228906 42
-0.843 -0.504253 -0.218434 42
-7.32138 -4.43001 2.28046 35
-7.29387 -4.39603 1.64711 39
-3.09441 -1.18189 0.286742 11
-7.40335 -4.44981 1.0548 35
-7.3081 -4.38557 0.444856 1
-0.676051 -0.259101 -0.0362321 50
-3.15919 -1.89041 -0.0636576 30
-0.841529 -0.321828 -0.10618 45
-0.854242 -0.507288 -0.0837201 50
-0.839709 -0.320638 -0.16761 45
-0.848964 -0.504888 -0.151126 47
-0.83602 -0.318588 -0.230199 42
-0.839618 -0.500413 -0.217311 41
-7.32092 -4.37925 2.27335 35
-7.21486 -4.2987 1.62423 24
-3.12833 -1.17672 0.289357 11
-7.40095 -4.39577 1.05115 35
-7.32023 -4.34087 0.444201 1
-0.679736 -0.256434 -0.0363633 50
-3.16227 -1.87057 -0.0635268 30
-0.843202 -0.317418 -0.10618 45
-0.854744 -0.501537 -0.0835026 52
-0.843619 -0.317244 -0.168087 45
-0.845228 -0.496652 -0.149951 44
-0.828573 -0.310973 -0.227612 42
-0.838041 -0.493517 -0.216188 42
-7.30574 -4.35285 2.26624 38
-7.21466 -4.27983 1.62233 21
-3.12104 -1.16777 0.288485 2
-7.3958 -4.37525 1.04932 35
-7.31705 -4.32173 0.443547 1
-0.682522 -0.25612 -0.0364946 50
-3.15693 -1.85996 -0.0633522 30
-0.836779 -0.313346 -0.105267 47
-0.847042 -0.494977 -0.0826328 50
-0.839572 -0.314059 -0.167134 45
-0.843969 -0.493919 -0.14956 44
-0.83596 -0.311903 -0.229552 44
-0.836806 -0.49081 -0.215626 41
-7.31462 -4.30468 2.26172 30
-7.23062 -4.23827 1.6209 20
-3.14134 -1.15602 0.289793 2
-7.40009 -4.3239 1.04659 35
-7.32308 -4.27201 0.442501 1
-0.679166 -0.250822 -0.0362321 50
-3.15399 -1.8353 -0.0630904 32
-0.840792 -0.309668 -0.105571 45
-0.853923 -0.493046 -0.0830677 50
-0.838954 -0.308668 -0.166658 45
-0.844412 -0.488246 -0.149168 44
-0.828509 -0.304207 -0.226966 42
-0.843653 -0.488739 -0.21675 41
-7.238 -4.22564 1.6209 15
-3.13166 -1.14626 0.288703 2
-7.39401 -4.30477 1.04476 35
-7.32331 -4.25673 0.442108 1
-0.684293 -0.251349 -0.0364946 50
-3.15503 -1.82853 -0.0630468 32
-0.838947 -0.307496 -0.105267 45
-0.85263 -0.490303 -0.0828502 52
-0.837186 -0.306364 -0.166182 45
-0.851663 -0.4905 -0.150343 47
-0.831308 -0.303585 -0.227612 42
-0.838108 -0.483728 -0.215065 42
-7.25505 -4.18649 1.61994 15
-3.13508 -1.12955 0.288485 2
-7.39494 -4.25361 1.04172 35
-1.7095 -0.616255 0.0311089 50
-7.32602 -4.20713 0.44093 1
-0.68325 -0.246919 -0.0363633 50
-3.15557 -1.80756 -0.0628723 32
-0.83821 -0.302261 -0.104963 45
-0.855185 -0.485832 -0.0828502 52
-0.841036 -0.30295 -0.166658 45
-0.84566 -0.481108 -0.148777 45
-0.832834 -0.299374 -0.227612 44
-0.84274 -0.480551 -0.215626 44
-5.79541 -3.34303 1.78094 9
-7.23542 -4.15665 1.61375 14
-3.12298 -1.11904 0.287178 2
-7.38944 -4.23329 1.03989 35
-1.70362 -0.610448 0.030978 52
-7.32035 -4.18689 0.440145 1
-0.681329 -0.244886 -0.0362321 50
-3.15438 -1.79957 -0.062785 32
-0.838736 -0.300798 -0.104963 45
-0.849547 -0.480628 -0.0821979 52
-0.83694 -0.299834 -0.165706 45
-0.846498 -0.479631 -0.148777 47
-0.828857 -0.296156 -0.226319 44
-0.839353 -0.476652 -0.214503 42
-5.8218 -3.31641 1.78352 9
-7.25282 -4.11628 1.61279 12
-3.10079 -1.09221 0.284563 2
-7.39928 -4.18591 1.03807 35
-1.70443 -0.60069 0.0309344 50
-7.34724 -4.14968 0.440407 1
-0.684958 -0.242143 -0.0363633 50
-3.15755 -1.77878 -0.0626541 32
-0.835668 -0.294613 -0.104354 45
-0.849884 -0.474948 -0.0819804 50
-0.829285 -0.292055 -0.163801 44
-0.851146 -0.476409 -0.149168 47
-0.823557 -0.289422 -0.224379 42
-0.841919 -0.472103 -0.214503 44
-5.83178 -3.30863 1.78482 9
-7.2365 -4.09032 1.60755 12
-3.11445 -1.09091 0.285653 2
-7.39072 -4.16575 1.03594 35
-1.70312 -0.59689 0.0308908 50
-7.35375 -4.13814 0.440407 1
-0.683022 -0.240123 -0.0362321 50
-3.15411 -1.76959 -0.0625232 32
-0.838473 -0.294117 -0.104659 45
-0.850712 -0.473464 -0.0819804 52
-0.834429 -0.292222 -0.164753 45
-0.845524 -0.471284 -0.147993 47
-0.828623 -0.28957 -0.225673 42
-0.836298 -0.467184 -0.212819 44
-7.24854 -4.04885 1.60565 11
-7.39726 -4.11853 1.03381 35
-1.69902 -0.585823 0.0307599 50
-7.38405 -4.10443 0.44093 15
-0.677146 -0.234229 -0.0358382 52
-3.1521 -1.74753 -0.0623051 32
-0.83296 -0.287307 -0.103746 45
-0.853097 -0.469152 -0.0819804 52
-0.828932 -0.285608 -0.163325 45
-0.850137 -0.468052 -0.148385 47
-0.825508 -0.283809 -0.224379 44
-0.840859 -0.463986 -0.21338 42
-7.24059 -4.02783 1.60231 12
-7.38057 -4.09237 1.03046 35
-1.70004 -0.582857 0.0307599 52
-7.38465 -4.08791 0.440538 15
-0.677554 -0.233046 -0.0358382 50
-3.15078 -1.7396 -0.0622178 32
-0.83346 -0.285853 -0.103746 47
-0.851736 -0.466455 -0.081763 52
-0.831752 -0.284952 -0.163801 45
-0.846635 -0.464172 -0.147602 47
-0.826002 -0.282368 -0.224379 42
-0.83741 -0.46015 -0.212257 42
-7.30018 -4.02765 2.22165 35
-7.24653 -3.98158 1.59897 12
-7.38885 -4.04651 1.02864 35
-1.70307 -0.573947 0.0307599 50
-7.40157 -4.04679 0.440276 15
-0.681172 -0.230172 -0.0359695 50
-3.15107 -1.71828 -0.0620433 32
-0.83024 -0.279907 -0.103137 45
-0.849877 -0.459449 -0.081328 53
-0.833233 -0.280593 -0.163801 45
-0.846888 -0.458546 -0.14721 47
-0.825179 -0.277274 -0.223733 42
-0.839808 -0.455759 -0.212257 42
-7.29451 -4.00792 2.21777 35
-7.23694 -3.95823 1.59516 12
-7.38719 -4.02885 1.02742 35
-1.69943 -0.569093 0.0306726 50
-7.39109 -4.0243 0.439229 14
-0.674468 -0.226611 -0.0355757 50
-3.15187 -1.71159 -0.0619997 33
-0.828373 -0.277672 -0.102833 47
-0.850678 -0.457965 -0.081328 52
-0.838378 -0.28069 -0.164753 45
-0.849855 -0.45825 -0.147602 47
-0.828001 -0.27645 -0.224379 45
-0.836327 -0.451954 -0.211134 42
-7.29274 -3.95572 2.21067 35
-7.25325 -3.91795 1.59421 12
-7.39577 -3.98175 1.02559 35
-1.70239 -0.560187 0.0306726 52
-7.40176 -3.97834 0.438575 14
-0.68039 -0.224633 -0.0358382 50
-3.15448 -1.69096 -0.0618688 33
-0.829863 -0.273187 -0.102833 45
-0.850871 -0.452325 -0.0811106 53
-0.832887 -0.273861 -0.163325 45
-0.841374 -0.447937 -0.145644 45
-0.829438 -0.272111 -0.224379 44
-0.843047 -0.449738 -0.212257 42
-7.29114 -3.93839 2.20808 35
-7.24927 -3.89947 1.59182 12
-7.38234 -3.95956 1.02286 35
-1.69623 -0.554889 0.0305417 52
-7.3948 -3.95963 0.43779 12
-0.685528 -0.224993 -0.0361008 52
-3.14861 -1.68073 -0.0616943 33
-0.830292 -0.271883 -0.102833 47
-0.851659 -0.450839 -0.0811106 52
-0.83103 -0.271648 -0.162849 45
-0.839979 -0.4453 -0.145253 45
-0.827614 -0.269918 -0.223733 44
-0.835171 -0.443796 -0.210011 41
-7.30033 -3.89574 2.20485 35
-7.24942 -3.85235 1.58754 12
-7.33439 -2.35486 0.670881 20
-7.39201 -3.91504 1.02133 35
-1.69902 -0.546296 0.0305417 52
-7.4044 -3.91501 0.437136 9
-0.674809 -0.217593 -0.0354444 50
-3.14824 -1.6601 -0.0615197 33
-0.834067 -0.268288 -0.103137 47
-0.847404 -0.44288 -0.0804582 53
-0.830056 -0.266691 -0.162373 47
-0.837936 -0.438584 -0.14447 45
-0.835872 -0.267926 -0.225673 45
-0.837484 -0.439417 -0.210011 42
-6.95233 -2.21624 1.67391 1
-7.29006 -3.87392 2.19968 33
-6.94988 -2.21678 1.14726 1
-7.24595 -3.83268 1.58515 12
-7.32426 -2.33751 0.669574 20
-7.38347 -3.89402 1.0192 35
-1.69292 -0.540757 0.0304108 53
-7.40018 -3.89626 0.436482 8
-0.677566 -0.217172 -0.0355757 52
-3.15334 -1.65576 -0.0615634 35
-0.825075 -0.263824 -0.10192 47
-0.854786 -0.444883 -0.0811106 53
-0.828181 -0.264499 -0.161896 45
-0.845251 -0.440578 -0.145644 45
-0.829478 -0.264133 -0.223733 45
-0.838249 -0.437955 -0.210011 42
-7.25021 -2.268 1.74298 36
-7.29167 -3.82431 2.19386 35
-7.23752 -2.2654 1.19292 30
-7.24853 -3.78559 1.58134 12
-7.32967 -2.29562 0.66892 18
-7.38683 -3.84484 1.01677 35
-1.69573 -0.531886 0.0304108 52
-7.399 -3.84464 0.435173 11
-0.68346 -0.215111 -0.0358382 52
-3.14895 -1.63176 -0.0613016 33
-0.833597 -0.261573 -0.102833 47
-0.850475 -0.436953 -0.0804582 53
-0.831943 -0.260745 -0.162373 47
-0.836673 -0.430295 -0.143687 45
-0.828544 -0.25907 -0.223086 44
-0.838447 -0.432286 -0.20945 42
-7.24446 -2.25371 1.74073 39
-7.28763 -3.80598 2.19063 35
-7.23203 -2.24984 1.19135 33
-7.25512 -3.77293 1.58134 12
-7.29561 -2.27099 0.665434 15
-7.38472 -3.82737 1.01555 35
-1.68949 -0.526699 0.0302799 53
-7.40127 -3.82943 0.434912 11
-0.671913 -0.210214 -0.0351819 52
-3.15401 -1.62741 -0.0613452 35
-0.826942 -0.257913 -0.10192 49
-0.853448 -0.436614 -0.0806757 53
-0.82302 -0.256388 -0.160468 45
-0.837422 -0.428835 -0.143687 45
-0.822073 -0.255484 -0.221146 45
-0.841362 -0.431945 -0.210011 42
-7.23519 -2.20935 1.73568 32
-7.28964 -3.76018 2.18546 35
-7.23624 -2.21104 1.19018 26
-7.25667 -3.72718 1.57753 12
-7.31416 -2.23622 0.666088 15
-7.38854 -3.78202 1.01342 36
-1.69453 -0.518871 0.0303236 53
-7.39833 -3.78054 0.433603 9
-0.677781 -0.20815 -0.0354444 50
-3.14663 -1.60346 -0.0610398 35
-0.825863 -0.253001 -0.101616 49
-0.846852 -0.427604 -0.0798059 53
-0.826655 -0.252933 -0.160944 47
-0.832989 -0.421214 -0.142512 45
-0.827977 -0.252723 -0.222439 45
-0.834869 -0.42323 -0.207765 42
-7.22738 -2.19319 1.73287 32
-7.2833 -3.74082 2.18159 35
-7.23063 -2.19554 1.18862 26
-7.26381 -3.71324 1.57753 12
-7.30852 -2.22055 0.665216 15
-7.37082 -3.75671 1.01008 35
-1.69313 -0.514892 0.0302799 52
-7.38935 -3.75969 0.432687 9
-0.678143 -0.206966 -0.0354444 50
-3.14942 -1.59797 -0.0610398 35
-0.826303 -0.251559 -0.101616 49
-0.854256 -0.429515 -0.0804582 52
-0.829444 -0.2522 -0.16142 47
-0.840322 -0.423125 -0.143687 45
-0.823836 -0.249739 -0.221146 45
-0.839944 -0.42399 -0.208888 42
-7.23214 -2.15197 1.73119 32
-7.29482 -3.69699 2.179 35
-7.24477 -2.15709 1.18901 26
-7.26344 -3.6652 1.57324 12
-7.31565 -2.17956 0.66478 15
-7.37931 -3.71249 1.00856 35
-1.68861 -0.503881 0.030149 53
-7.39174 -3.71069 0.431641 8
-0.676824 -0.202701 -0.0353131 50
-0.82523 -0.246523 -0.101312 49
-0.849817 -0.421681 -0.0798059 53
-0.830797 -0.247709 -0.16142 49
-0.835909 -0.415388 -0.142512 45
-0.829764 -0.246791 -0.222439 47
-0.837803 -0.417391 -0.207765 41
-7.22149 -2.13646 1.72782 32
-7.28833 -3.67772 2.17512 33
-7.23158 -2.1408 1.18628 26
-7.26982 -3.65251 1.57324 11
-7.29519 -2.16099 0.662602 14
-7.37247 -3.69292 1.00673 35
-1.68949 -0.500933 0.030149 53
-7.38863 -3.6946 0.431117 8
-0.669994 -0.199397 -0.0349193 49
-0.82328 -0.24438 -0.101008 49
-0.854932 -0.422575 -0.0802408 53
-0.826476 -0.245016 -0.160468 49
-0.836633 -0.413929 -0.142512 45
-0.8232 -0.243445 -0.2205 47
-0.83853 -0.415928 -0.207765 42
-7.23221 -2.09988 1.72782 33
-7.28677 -3.63235 2.16931 35
-7.24469 -2.10486 1.18667 26
-7.28099 -3.61367 1.57181 11
-7.3156 -2.12682 0.663473 12
-7.37328 -3.64675 1.0043 35
-1.69192 -0.49267 0.030149 55
-7.38933 -3.6483 0.430071 8
-0.673393 -0.196699 -0.0350506 50
-0.826889 -0.2409 -0.101312 49
-0.845969 -0.412578 -0.0791535 52
-0.832421 -0.242193 -0.16142 49
-0.832079 -0.406403 -0.141338 45
-0.829063 -0.240614 -0.221793 47
-0.83626 -0.409513 -0.206642 42
-7.22416 -2.08388 1.72501 33
-7.28661 -3.6164 2.16737 35
-7.23886 -2.08948 1.18511 26
-7.27912 -3.59533 1.5699 11
-7.31212 -2.11198 0.662819 12
-7.36628 -3.62729 1.00247 35
-1.68806 -0.488037 0.0300618 55
-7.38897 -3.63209 0.429678 8
-0.668937 -0.194141 -0.034788 50
-0.853392 -0.414398 -0.0798059 52
-0.830484 -0.240062 -0.160944 49
-0.835002 -0.406042 -0.141729 45
-0.822558 -0.237027 -0.219853 47
-0.841342 -0.410211 -0.207765 42
-7.2283 -2.04278 1.72333 32
-7.28656 -3.56735 2.16155 35
-7.25719 -2.05229 1.18628 27
-7.28461 -3.55071 1.56704 11
-7.33063 -2.07442 0.663473 11
-7.37241 -3.58087 1.00065 35
-1.69059 -0.479191 0.0300618 53
-7.40177 -3.58879 0.429286 4
-0.672347 -0.191315 -0.0349193 49
-0.844347 -0.404487 -0.0787186 52
-0.829408 -0.234901 -0.160468 49
-0.828303 -0.397201 -0.140163 47
-0.830763 -0.234675 -0.221793 47
-0.830409 -0.39925 -0.204396 42
-7.21743 -2.02747 1.71996 32
-7.28843 -3.55251 2.16026 36
-7.25363 -2.03762 1.18511 26
-7.28638 -3.53584 1.56609 9
-7.36301 -3.56043 0.998517 35
-1.68661 -0.474889 0.0299745 53
-7.39229 -3.56826 0.42837 4
-0.675084 -0.190815 -0.0350506 49
-0.851779 -0.406263 -0.079371 52
-0.827453 -0.232792 -0.159992 50
-0.831218 -0.39683 -0.140555 47
-0.821867 -0.23063 -0.219206 47
-0.835489 -0.399927 -0.205519 42
-7.21889 -1.98581 1.71771 33
-7.283 -3.50277 2.15315 35
-7.26658 -2.00027 1.1855 27
-7.28709 -3.48915 1.56228 9
-7.37036 -3.51648 0.996995 35
-1.69148 -0.466714 0.0300181 53
-0.680888 -0.188601 -0.0353131 52
-0.830212 -0.229186 -0.101312 49
-0.849399 -0.399654 -0.078936 52
-0.828661 -0.228456 -0.159992 50
-0.831056 -0.391408 -0.140163 45
-0.825392 -0.22696 -0.219853 47
-0.835374 -0.394495 -0.204957 42
-7.2079 -1.97062 1.71434 35
-7.28257 -3.48692 2.15122 35
-7.26053 -1.98498 1.18394 27
-7.28653 -3.47326 1.56085 9
-7.35856 -3.49508 0.994561 36
-1.68265 -0.461126 0.0298436 53
-0.676399 -0.186098 -0.0350506 52
-0.823428 -0.22578 -0.100399 50
-0.852345 -0.399239 -0.0791535 52
-0.819586 -0.224432 -0.158087 49
-0.829508 -0.388898 -0.139772 45
-0.821126 -0.224254 -0.21856 47
-0.833862 -0.391988 -0.204396 42
-7.21846 -1.93159 1.71434 33
-7.28326 -3.44048 2.14605 35
-7.27082 -1.94694 1.18394 29
-7.29129 -3.42878 1.55799 11
-7.36328 -3.45018 0.992736 33
-1.68987 -0.453602 0.0299309 55
-0.677365 -0.182553 -0.0350506 52
-0.83419 -0.224025 -0.101616 52
-0.849912 -0.392658 -0.0787186 53
-0.825492 -0.221402 -0.159039 50
-0.824826 -0.381404 -0.138597 47
-0.826957 -0.221192 -0.219853 47
-0.835903 -0.387617 -0.204396 41
-7.21913 -1.91962 1.71378 35
-7.27396 -3.42056 2.14152 33
-7.27421 -1.93425 1.18394 29
-7.28838 -3.41189 1.55608 11
-7.36479 -3.43522 0.992128 33
-1.68583 -0.449368 0.0298436 55
-0.675269 -0.18073 -0.0349193 52
-0.827383 -0.220662 -0.100704 50
-0.843824 -0.388018 -0.0780662 53
-0.830623 -0.221216 -0.159992 50
-0.827728 -0.381008 -0.138989 45
-0.825007 -0.219133 -0.219206 47
-0.827752 -0.382027 -0.20215 44
-7.21762 -1.87747 1.71097 33
-7.27644 -3.3753 2.137 33
-7.27707 -1.89427 1.18277 29
-7.29278 -3.3675 1.55322 11
-7.36014 -3.38623 0.989085 33
-1.68816 -0.440535 0.0298436 55
-0.673821 -0.176446 -0.034788 53
-0.828527 -0.216327 -0.100704 50
-0.843648 -0.382407 -0.0778488 53
-0.824642 -0.215018 -0.158563 49
-0.831954 -0.377702 -0.13938 49
-0.823804 -0.214206 -0.21856 47
-0.829741 -0.377688 -0.20215 42
-7.21853 -1.86426 1.71041 32
-7.26917 -3.35652 2.13312 35
-7.27797 -1.88095 1.18238 30
-7.29031 -3.34939 1.55131 12
-7.35927 -3.37027 0.988172 35
-1.68658 -0.436669 0.0298 55
-0.67171 -0.174647 -0.0346568 53
-0.826501 -0.214261 -0.100399 50
-0.844315 -0.380934 -0.0778488 53
-0.827393 -0.214189 -0.159039 50
-0.830367 -0.375221 -0.138989 47
-0.828893 -0.213823 -0.219853 47
-0.828186 -0.375222 -0.201588 42
-7.21906 -1.8228 1.70817 33
-7.28063 -3.31413 2.13118 35
-7.28086 -1.83973 1.18121 30
-7.29211 -3.30407 1.54798 14
-7.36157 -3.32325 0.986043 35
-1.684 -0.426608 0.0297127 55
-0.672616 -0.171127 -0.0346568 53
-0.822835 -0.208575 -0.0997908 49
-0.848568 -0.377532 -0.0780662 53
-0.82854 -0.20971 -0.159039 50
-0.827821 -0.368834 -0.138206 49
-0.820631 -0.207131 -0.217266 47
-0.823546 -0.36772 -0.199904 42
-7.2101 -1.80849 1.70536 33
-7.27321 -3.29543 2.12731 35
-7.28135 -1.82769 1.18082 30
-7.27997 -3.28325 1.54417 14
-7.3168 -1.83657 0.656936 11
-7.36 -3.30863 0.98513 33
-1.68474 -0.423668 0.0297127 56
-3.14874 -1.40986 0.178989 3
-0.677757 -0.171166 -0.0349193 53
-2.07233 -0.924801 -0.0390061 4
-0.830384 -0.209088 -0.100704 50
-0.842409 -0.37299 -0.0774139 55
-0.826523 -0.207669 -0.158563 50
-0.828463 -0.367389 -0.138206 47
-0.825678 -0.206865 -0.21856 47
-0.828564 -0.368429 -0.201027 42
-7.21947 -1.77072 1.70536 35
-7.28098 -3.25463 2.12472 36
-7.06778 -1.73484 1.14453 1
-7.2808 -3.23937 1.54083 23
-7.29214 -1.7912 0.653886 14
-7.36134 -3.263 0.983 33
-1.68686 -0.415135 0.0297127 56
-3.14923 -1.39032 0.178596 3
-0.678644 -0.167615 -0.0349193 53
-2.07927 -0.915312 -0.0390498 4
-0.826646 -0.203559 -0.100095 50
-0.846628 -0.369582 -0.0776313 53
-0.82518 -0.202901 -0.158087 50
-0.834889 -0.365048 -0.138989 49
-0.824369 -0.202112 -0.217913 47
-0.82603 -0.362105 -0.199904 42
-7.21308 -1.75581 1.70311 33
-7.269 -3.23405 2.11955 35
-7.29153 -1.77623 1.18043 32
-7.27579 -3.22041 1.53845 35
-7.30493 -1.78083 0.654757 17
-7.35568 -3.24513 0.981479 33
-1.6828 -0.410715 0.0296255 56
-3.14252 -1.38079 0.178073 3
-0.669231 -0.164072 -0.0343942 53
-2.08772 -0.914705 -0.0391806 4
-0.824589 -0.20153 -0.0997908 50
-0.842714 -0.366096 -0.0771964 53
-0.823147 -0.200883 -0.157611 50
-0.828749 -0.360599 -0.137814 47
-0.827102 -0.201095 -0.21856 47
-0.819978 -0.357705 -0.198219 42
-7.213 -1.71451 1.70087 33
-7.27312 -3.18885 2.11567 33
-7.29623 -1.73561 1.17965 32
-7.27456 -3.17441 1.53463 35
-7.30477 -1.73897 0.653886 20
-7.36403 -3.20132 0.980262 33
-1.68493 -0.401898 0.0296255 56
-3.14765 -1.36277 0.177942 3
-0.67251 -0.161143 -0.0345255 53
-2.10411 -0.908374 -0.0393988 4
-0.823252 -0.196494 -0.0994866 50
-0.842335 -0.360686 -0.076979 53
-0.824222 -0.196426 -0.157611 50
-0.828362 -0.355269 -0.137423 49
-0.825794 -0.196208 -0.217913 47
-0.8286 -0.356185 -0.199904 42
-7.21094 -1.70206 1.69974 33
-7.26761 -3.17131 2.11244 35
-7.29174 -1.72244 1.17848 32
-7.26434 -3.15486 1.5313 35
-7.29082 -1.72221 0.652361 20
-7.35539 -3.18383 0.978437 33
-1.68806 -0.39953 0.0296691 56
-3.14292 -1.35485 0.17755 3
-0.670361 -0.159396 -0.0343942 53
-0.821145 -0.194632 -0.0991823 50
-0.842963 -0.359215 -0.076979 53
-0.822174 -0.194426 -0.157135 50
-0.826715 -0.352841 -0.137031 49
-0.823783 -0.194216 -0.217266 47
-0.82469 -0.352942 -0.198781 44
-7.21738 -1.66373 1.69918 35
-7.2747 -3.13066 2.10986 33
-7.29825 -1.68368 1.17809 32
-7.25992 -3.10934 1.52701 35
-7.30187 -1.68585 0.652579 20
-7.34686 -3.13454 0.97509 32
-1.68762 -0.39042 0.0296255 56
-0.678457 -0.157682 -0.034788 53
-0.829408 -0.191997 -0.100095 53
-0.837897 -0.352014 -0.0763266 53
-0.823148 -0.190262 -0.157135 50
-0.828551 -0.348508 -0.137031 47
-0.82711 -0.190582 -0.217913 47
-0.833245 -0.351496 -0.200465 44
-7.21761 -1.65185 1.69862 33
-7.26018 -3.10939 2.10404 33
-7.30118 -1.67094 1.17809 33
-7.25856 -3.09377 1.52558 33
-7.29024 -1.66977 0.651271 17
-7.34318 -3.11783 0.973873 32
-1.68343 -0.386359 0.0295382 56
-0.673864 -0.155385 -0.0345255 53
-0.829742 -0.190549 -0.100095 53
-0.845388 -0.353469 -0.076979 53
-0.823479 -0.188826 -0.157135 50
-0.824613 -0.34513 -0.136248 47
-0.820376 -0.187536 -0.215973 47
-0.820411 -0.344311 -0.197096 44
-7.21217 -1.60959 1.69525 33
-7.26746 -3.06757 2.10146 33
-7.30501 -1.63162 1.17731 33
-7.26109 -3.05001 1.52272 35
-7.29402 -1.63049 0.650836 15
-7.35026 -3.0755 0.972656 33
-1.68787 -0.378084 0.0295818 56
-0.672231 -0.151312 -0.0343942 53
-0.830728 -0.186202 -0.100095 53
-0.84493 -0.348077 -0.0767615 53
-0.82206 -0.183979 -0.156659 50
-0.830964 -0.342715 -0.137031 47
-0.823705 -0.18376 -0.21662 47
-0.824448 -0.340954 -0.197658 44
-7.20993 -1.59721 1.69413 35
-7.25945 -3.04927 2.09758 33
-7.30302 -1.6178 1.17653 35
-7.24603 -3.02881 1.51843 33
-7.28713 -1.6156 0.649964 15
-7.34645 -3.05885 0.971439 33
-1.6812 -0.373517 0.0294509 56
-0.670057 -0.149599 -0.0342629 53
-0.831052 -0.184752 -0.100095 52
-0.843236 -0.345645 -0.076544 53
-0.827174 -0.1836 -0.157611 50
-0.829281 -0.340315 -0.136639 45
-0.826383 -0.182839 -0.217266 49
-0.822794 -0.338575 -0.197096 44
-7.21398 -1.55589 1.693 33
-7.26022 -3.00347 2.09306 33
-7.30201 -1.57618 1.17497 33
-7.25096 -2.98488 1.51605 33
-7.30063 -1.5772 0.6504 15
-7.34912 -3.0134 0.969614 32
-1.68076 -0.363889 0.0294073 56
-0.673297 -0.146497 -0.0343942 53
-0.829613 -0.179731 -0.0997908 52
-0.840485 -0.339189 -0.0761091 53
-0.828155 -0.179122 -0.157611 50
-0.824199 -0.333155 -0.135465 47
-0.822637 -0.177356 -0.215973 47
-0.824614 -0.334118 -0.197096 44
-7.20212 -1.5415 1.68964 35
-7.26546 -2.9908 2.09306 35
-7.29965 -1.56367 1.17418 33
-7.24935 -2.96942 1.51462 33
-7.29607 -1.56289 0.649746 15
-7.34006 -2.99622 0.967788 32
-1.68383 -0.361477 0.0294509 58
-0.673552 -0.145322 -0.0343942 53
-0.827467 -0.17791 -0.0994866 53
-0.843382 -0.338662 -0.0763266 53
-0.821265 -0.176144 -0.156182 50
-0.829351 -0.333583 -0.136248 47
-0.820583 -0.175419 -0.215327 47
-0.822884 -0.331899 -0.196535 44
-7.21009 -1.50377 1.68964 33
-7.27155 -2.95035 2.09047 35
-7.06358 -1.47451 1.13477 1
-7.25519 -2.92901 1.51271 35
-7.29413 -1.52391 0.648874 17
-7.34184 -2.95218 0.965963 32
-1.68319 -0.35244 0.0294073 58
-0.674278 -0.141911 -0.0343942 53
-0.825958 -0.17307 -0.0991823 50
-0.842774 -0.33346 -0.0761091 53
-0.826952 -0.172982 -0.157135 50
-0.828796 -0.328314 -0.135856 47
-0.82619 -0.172241 -0.21662 49
-0.820092 -0.325762 -0.195412 42
-7.20052 -1.48997 1.68683 35
-7.26102 -2.93131 2.08595 35
-7.04196 -1.45718 1.13087 1
-7.26257 -2.91726 1.51319 36
-7.2919 -1.51017 0.648439 20
-7.34698 -2.93936 0.965963 32
-1.67891 -0.348489 0.02932 55
-0.669635 -0.139724 -0.0341317 53
-0.818968 -0.170127 -0.0982696 50
-0.84798 -0.333838 -0.076544 53
-0.824849 -0.171044 -0.156659 50
-0.83166 -0.327785 -0.136248 47
-0.817026 -0.16886 -0.214033 47
-0.825181 -0.326146 -0.196535 42
-7.20609 -1.45051 1.68627 35
-7.2628 -2.88789 2.08207 35
-7.05192 -1.42078 1.13126 1
-7.25721 -2.87106 1.5089 35
-7.29483 -1.47098 0.648003 26
-7.35073 -2.8963 0.964442 29
-1.67581 -0.338707 0.0292328 55
-0.670381 -0.136099 -0.0341317 53
-0.82228 -0.166324 -0.0985738 50
-0.840504 -0.325597 -0.0756742 53
-0.823327 -0.166241 -0.156182 52
-0.826473 -0.320709 -0.135073 47
-0.820268 -0.165052 -0.21468 47
-0.817816 -0.318237 -0.194288 41
-7.19427 -1.43508 1.6829 35
-7.25436 -2.86987 2.07819 32
-7.29413 -1.45629 1.16989 36
-7.29006 -1.45679 0.647349 33
-1.67156 -0.334513 0.0291455 58
-0.665721 -0.133954 -0.0338691 53
-0.822569 -0.164889 -0.0985738 52
-0.841071 -0.32413 -0.0756742 53
-0.818801 -0.163849 -0.15523 52
-0.829331 -0.320168 -0.135465 47
-0.818214 -0.163009 -0.214033 47
-0.822904 -0.318593 -0.195412 42
-7.20432 -1.3966 1.68346 36
-7.04251 -1.36652 1.12814 1
-7.03867 -1.36704 0.624253 1
-1.68065 -0.327183 0.0292764 58
-1.6972 -0.649429 0.0934197 29
-0.668864 -0.130941 -0.0340004 53
-0.830759 -0.161847 -0.0994866 53
-0.840433 -0.318826 -0.0754568 53
-0.824495 -0.160345 -0.156182 50
-0.828692 -0.314931 -0.135073 47
-0.819056 -0.158722 -0.214033 47
-0.820072 -0.312377 -0.194288 41
-7.19694 -1.38344 1.68121 35
-7.03252 -1.35313 1.12619 1
-7.02882 -1.3524 0.623164 1
-3.09348 -1.18481 0.401901 11
-1.67631 -0.323306 0.0291891 59
-1.71687 -0.65392 0.0944664 47
-0.66664 -0.129303 -0.0338691 53
-1.70759 -0.649341 -0.0312834 38
-0.821263 -0.158676 -0.0982696 53
-0.847964 -0.320034 -0.0761091 53
-0.822363 -0.158446 -0.155706 52
-0.831546 -0.31437 -0.135465 49
-0.824077 -0.158195 -0.215327 49
-0.818288 -0.310212 -0.193727 41
-7.20648 -1.34618 1.68177 35
-7.03466 -1.31538 1.12541 1
-7.03068 -1.3159 0.622728 1
-3.12284 -1.17738 0.404944 11
-1.67792 -0.314818 0.0291891 58
-0.667308 -0.125811 -0.0338691 53
-1.70384 -0.638041 -0.0311525 53
-0.826962 -0.155281 -0.0988781 53
-0.842638 -0.312951 -0.0754568 53
-0.823154 -0.154281 -0.155706 50
-0.828561 -0.308265 -0.134682 47
-0.827241 -0.154461 -0.215973 50
-0.817624 -0.305059 -0.193165 42
-7.19923 -1.33183 1.67953 36
-7.03451 -1.30265 1.12502 1
-7.02317 -1.30181 0.621856 1
-3.12257 -1.17105 0.40464 2
-1.67115 -0.310233 0.0290583 58
-0.669981 -0.125099 -0.0340004 55
-1.70261 -0.634188 -0.0311089 53
-0.819911 -0.152489 -0.0979654 52
-0.843183 -0.31148 -0.0754568 53
-0.818595 -0.151957 -0.154754 50
-0.831409 -0.307688 -0.135073 47
-0.818035 -0.151134 -0.213387 47
-0.820434 -0.304492 -0.193727 44
-7.20394 -1.29243 1.67897 36
-7.0366 -1.2637 1.12424 1
-7.02766 -1.26335 0.621638 1
-3.13351 -1.15587 0.405248 3
-1.68013 -0.302803 0.0291891 59
-1.70611 -0.625669 0.0934197 47
-0.670627 -0.121589 -0.0340004 55
-1.69898 -0.622369 -0.030978 50
-0.825609 -0.148923 -0.0985738 53
-0.84013 -0.305334 -0.0750219 53
-0.824237 -0.148387 -0.155706 50
-0.826115 -0.300614 -0.133899 47
-0.816437 -0.146427 -0.21274 47
-0.815218 -0.297505 -0.192042 45
-7.19396 -1.27899 1.67616 35
-7.02907 -1.24969 1.12268 1
-7.0225 -1.24978 0.620985 1
-3.12156 -1.14525 0.403423 11
-1.67081 -0.298122 0.0290146 61
-1.71188 -0.624414 0.0936814 45
-1.70007 -0.619403 -0.030978 49
