# .PCD v0.7 - Point Cloud Data file format
VERSION 0.7
FIELDS x y z intensity
SIZE 4 4 4 4
TYPE F F F F
COUNT 1 1 1 1
WIDTH 1528
HEIGHT 1
VIEWPOINT 0 0 0 1 0 0 0
POINTS 1528
DATA ascii
-3.08095 -2.16267 0.457273 9
-3.06636 -2.14923 0.194428 11
-0.680693 -0.318362 -0.0376761 49
-0.852366 -0.397913 -0.111048 44
-0.868777 -0.604281 -0.0893739 49
-0.839052 -0.391372 -0.172848 42
-0.855125 -0.595545 -0.159739 47
-0.843899 -0.392928 -0.239898 45
-0.85147 -0.594252 -0.231349 41
-7.13251 -3.30782 1.80419 24
-3.07933 -2.16785 0.998386 2
-7.26242 -3.36956 1.25964 33
-3.08672 -2.16427 0.725376 9
-7.36437 -3.41839 0.707269 32
-3.06643 -2.14447 0.454535 11
-3.08033 -2.15103 0.195082 11
-0.683513 -0.318223 -0.0378074 49
-0.844051 -0.392255 -0.109831 44
-0.86983 -0.602764 -0.0893739 49
-0.841961 -0.390937 -0.173324 44
-0.858185 -0.595469 -0.160131 47
-0.846844 -0.392319 -0.240545 42
-0.852506 -0.592765 -0.231349 41
-7.15473 -3.2712 1.80531 23
-3.08507 -2.14701 0.996448 9
-7.26258 -3.322 1.25652 33
-3.10002 -2.14948 0.725853 9
-7.37143 -3.37332 0.706179 32
-3.09431 -2.13915 0.456969 9
-3.09398 -2.13576 0.195213 11
-0.687441 -0.315678 -0.0379387 49
-0.843904 -0.386653 -0.109526 44
-0.872975 -0.598201 -0.0893739 50
-0.835132 -0.382304 -0.17142 44
-0.857335 -0.588005 -0.159347 47
-0.842293 -0.384878 -0.238605 42
-0.849697 -0.583976 -0.229665 41
-7.22195 -3.28821 1.82103 18
-3.11261 -2.15817 1.0042 8
-7.26162 -3.30626 1.25535 35
-3.1078 -2.14686 0.726806 8
-7.36371 -3.35425 0.704872 32
-3.10008 -2.13516 0.457273 2
-3.11003 -2.13886 0.195998 2
-0.687991 -0.314478 -0.0379387 47
-0.846837 -0.386205 -0.109831 44
-0.871967 -0.595263 -0.0891564 49
-0.838032 -0.38186 -0.171896 44
-0.854296 -0.583703 -0.158564 49
-0.836364 -0.380418 -0.236665 45
-0.850715 -0.582492 -0.229665 41
-7.24408 -3.25109 1.82216 14
-3.11789 -2.13773 1.00226 3
-7.26757 -3.26313 1.2534 36
-3.12305 -2.13333 0.727759 2
-7.35845 -3.30545 0.702693 32
-3.12146 -2.1259 0.458794 2
-3.11706 -2.11973 0.195736 2
-0.680516 -0.306784 -0.0374136 47
-0.846583 -0.380752 -0.109526 45
-0.870956 -0.587884 -0.0887215 50
-0.8333 -0.374459 -0.170467 44
-0.857239 -0.579372 -0.158564 47
-0.842754 -0.378004 -0.237958 42
-0.851743 -0.576655 -0.229103 41
-7.30923 -3.26653 1.83732 12
-3.12361 -2.13365 1.00291 2
-7.25916 -3.24567 1.25106 35
-3.12677 -2.12788 0.727759 2
-7.35511 -3.28854 0.701822 33
-3.1289 -2.12378 0.459403 3
-3.13278 -2.12325 0.196522 8
-0.68561 -0.307631 -0.0376761 47
-0.849446 -0.380432 -0.109831 45
-0.86992 -0.584964 -0.088504 50
-0.84292 -0.376998 -0.172372 44
-0.858249 -0.577874 -0.158564 47
-0.838999 -0.37457 -0.236665 42
-0.846608 -0.5712 -0.227419 42
-7.26381 -3.20072 1.82159 30
-3.13637 -2.11917 1.00356 2
-7.26475 -3.20264 1.24911 35
-3.14563 -2.11752 0.729666 3
-7.36255 -3.24725 0.70095 35
-3.15439 -2.11707 0.461532 4
-3.148 -2.1096 0.196783 11
-0.684926 -0.303031 -0.0375448 47
-0.846883 -0.373981 -0.109222 45
-0.868836 -0.577624 -0.0880691 50
-0.838076 -0.369765 -0.170944 44
-0.855116 -0.569239 -0.15739 47
-0.838673 -0.369349 -0.236019 44
-0.849588 -0.566759 -0.227419 42
-7.256 -3.18217 1.81823 32
-3.14407 -2.1164 1.00485 2
-7.26355 -3.18698 1.24794 35
-3.15988 -2.11832 0.732049 3
-7.35224 -3.22739 0.699425 35
-3.1622 -2.11432 0.462141 4
-2.11475 -0.928503 0.0397042 4
-3.16412 -2.11244 0.197568 2
-0.680881 -0.299832 -0.0372823 47
-0.847535 -0.372503 -0.109222 45
-0.871913 -0.577492 -0.0882866 52
-0.840969 -0.369286 -0.17142 44
-0.852006 -0.564997 -0.156607 49
-0.83274 -0.364841 -0.234079 42
-0.846531 -0.562559 -0.226295 44
-7.26416 -3.139 1.81598 33
-3.16954 -2.10874 1.00937 3
-7.26482 -3.14077 1.24521 35
-3.1975 -2.11941 0.738244 2
-7.36045 -3.18361 0.698553 33
-3.16945 -2.09444 0.461532 3
-2.12647 -0.920392 0.0398351 4
-3.17342 -2.09391 0.197437 8
-0.682441 -0.296263 -0.0372823 49
-0.840424 -0.363981 -0.108005 44
-0.868693 -0.568797 -0.0876342 52
-0.838447 -0.362788 -0.170467 45
-0.857011 -0.561892 -0.156998 47
-0.839076 -0.362384 -0.235372 44
-0.849562 -0.557971 -0.226295 44
-7.2579 -3.12277 1.81317 35
-3.17724 -2.10587 1.01066 2
-7.24933 -3.12058 1.24169 35
-3.18687 -2.10434 0.734908 3
-7.35456 -3.16584 0.697464 33
-3.14996 -2.07442 0.458186 3
-2.13955 -0.921616 0.0400533 4
-3.14961 -2.07106 0.195736 2
-0.67837 -0.293099 -0.0370197 47
-0.840994 -0.36266 -0.108005 45
-0.863445 -0.563169 -0.0869819 52
-0.84359 -0.363258 -0.17142 45
-0.853868 -0.557676 -0.156215 49
-0.839707 -0.360919 -0.235372 44
-0.850437 -0.556636 -0.226295 44
-7.26293 -3.07998 1.81036 33
-7.25193 -3.07679 1.23935 35
-7.3659 -3.12663 0.697028 35
-3.17924 -2.06681 0.196914 1
-0.682194 -0.290517 -0.037151 47
-0.847452 -0.360186 -0.108614 45
-0.872642 -0.562718 -0.0876342 52
-0.843158 -0.358028 -0.170944 45
-0.856777 -0.553197 -0.156215 47
-0.837073 -0.354786 -0.234079 42
-0.845184 -0.546843 -0.224049 44
-7.25707 -3.06256 1.80756 35
-7.25273 -3.06221 1.23857 33
-7.35758 -3.10795 0.695721 35
-3.15771 -2.04494 0.195344 1
-0.6827 -0.289326 -0.037151 49
-0.843506 -0.35678 -0.108005 45
-0.865266 -0.555771 -0.0867644 52
-0.836995 -0.3537 -0.169515 45
-0.857741 -0.551701 -0.156215 47
-0.835526 -0.352244 -0.233432 42
-0.844096 -0.544037 -0.223488 44
-7.26229 -3.01858 1.80475 33
-7.25095 -3.01534 1.23545 35
-7.36509 -3.06428 0.694849 35
-3.16453 -2.02513 0.195082 3
-0.6819 -0.28479 -0.0370197 49
-0.845424 -0.352211 -0.108005 45
-0.870261 -0.552578 -0.0869819 52
-0.841163 -0.350106 -0.169991 45
-0.854386 -0.543198 -0.155041 47
-0.839591 -0.348787 -0.234079 44
-0.842931 -0.536825 -0.222365 44
-7.25576 -3.00251 1.80194 33
-7.24199 -2.99828 1.23311 35
-7.34972 -3.04285 0.692888 33
-3.16981 -2.0215 0.195213 9
-0.680089 -0.282645 -0.0368885 49
-0.841389 -0.348988 -0.107397 45
-0.864928 -0.547035 -0.0863295 52
-0.837235 -0.346766 -0.169039 44
-0.849093 -0.537713 -0.153866 47
-0.840198 -0.347321 -0.234079 42
-0.847874 -0.538131 -0.223488 42
-7.25785 -2.95896 1.79857 33
-7.25302 -2.95846 1.23233 35
-7.35349 -3.0009 0.691799 33
-0.681511 -0.279199 -0.0368885 49
-0.843205 -0.344578 -0.107397 45
-0.863475 -0.539989 -0.0858946 52
-0.834433 -0.340676 -0.168087 44
-0.851897 -0.53326 -0.153866 47
-0.839707 -0.342157 -0.233432 42
-0.846565 -0.531075 -0.222365 42
-7.26023 -2.94664 1.79801 33
-7.25131 -2.94301 1.23116 35
-7.34257 -2.98151 0.690273 33
-0.684311 -0.278948 -0.0370197 49
-0.841505 -0.342175 -0.107093 45
-0.860201 -0.535828 -0.0854597 52
-0.841851 -0.34198 -0.169515 44
-0.848649 -0.529139 -0.153083 45
-0.835824 -0.338883 -0.232139 42
-0.839252 -0.524392 -0.220119 42
-7.26526 -2.90153 1.7952 33
-7.25107 -2.89732 1.22843 35
-7.34471 -2.93619 0.688966 32
-7.40915 -4.61152 1.06575 41
-7.27302 -4.51966 0.446949 1
-3.1928 -1.9794 -0.0649666 12
-0.847954 -0.339454 -0.107701 45
-0.860972 -0.529851 -0.0852422 52
-0.841409 -0.336512 -0.169039 45
-0.853504 -0.525994 -0.153475 45
-0.837646 -0.334356 -0.232139 44
-0.842077 -0.519844 -0.220119 42
-7.2517 -2.88292 1.79071 32
-7.24414 -2.88137 1.22647 35
-7.30886 -4.54543 1.66474 42
-7.34289 -2.92061 0.688312 33
-7.40373 -4.59202 1.06393 42
-7.26101 -4.49639 0.445771 1
-3.18987 -1.96987 -0.0648357 14
-0.846179 -0.337207 -0.107397 47
-0.857661 -0.525724 -0.0848073 52
-0.839714 -0.334139 -0.168563 45
-0.852322 -0.523202 -0.153083 45
-0.829245 -0.329342 -0.229552 42
-0.838755 -0.515947 -0.218996 41
-7.25762 -2.84136 1.78846 32
-7.32685 -4.52294 2.29467 38
-7.24303 -2.8371 1.22374 29
-7.31923 -4.50066 1.66188 36
-7.35525 -2.8825 0.688095 32
-7.41922 -4.548 1.06271 39
-7.31638 -4.47788 0.447734 1
-0.68074 -0.267719 -0.0366259 49
-3.19127 -1.94848 -0.0646612 17
-0.841 -0.330063 -0.106484 45
-0.860402 -0.521226 -0.0848073 52
-0.839108 -0.328992 -0.168087 44
-0.852945 -0.517441 -0.152692 45
-0.837652 -0.32777 -0.231492 42
-0.843521 -0.512824 -0.219557 41
-7.31623 -4.49875 2.28886 38
-7.31321 -4.47762 1.65855 36
-7.40174 -4.51951 1.05906 36
-7.30927 -4.45599 0.446818 1
-0.683533 -0.267435 -0.0367572 50
-3.17333 -1.92989 -0.0642248 24
-0.839262 -0.327695 -0.10618 47
-0.863437 -0.52102 -0.0850248 52
-0.837393 -0.326639 -0.16761 45
-0.85174 -0.514664 -0.1523 45
-0.836028 -0.325289 -0.230846 42
-0.838182 -0.507535 -0.217873 41
-7.32396 -4.44906 2.28369 36
-7.30927 -4.42274 1.65235 35
-7.40484 -4.46657 1.05602 35
-7.31617 -4.40607 0.445771 1
-0.682592 -0.26296 -0.0366259 50
-3.1773 -1.90882 -0.064094 27
-0.847975 -0.325809 -0.107093 45
-0.859754 -0.512635 -0.0843724 52
-0.839148 -0.322104 -0.16761 45
-0.846056 -0.504945 -0.150734 44
-0.833207 -0.319186 -0.229552 42
-0.843 -0.504253 -0.218434 41
-7.31725 -4.42751 2.27916 36
-7.29176 -4.39476 1.64663 39
-3.09441 -1.18189 0.286742 11
-7.39987 -4.44596 1.05419 35
-7.31529 -4.38815 0.445248 1
-0.680717 -0.260879 -0.0364946 50
-3.15705 -1.88913 -0.063614 30
-0.846223 -0.323446 -0.106788 45
-0.852107 -0.506006 -0.0835026 50
-0.842003 -0.32151 -0.168087 45
-0.853285 -0.507284 -0.151909 47
-0.831504 -0.316875 -0.228906 42
-0.845965 -0.504038 -0.218996 42
-7.32376 -4.37921 2.27399 36
-7.21561 -4.29744 1.62423 24
-3.12387 -1.17442 0.288921 11
-7.39958 -4.39321 1.05085 33
-7.3167 -4.33705 0.44394 1
-0.679736 -0.256434 -0.0363633 50
-3.16045 -1.86875 -0.0634831 30
-0.83861 -0.31553 -0.105571 45
-0.852602 -0.500267 -0.0832851 52
-0.843675 -0.317097 -0.168087 45
-0.851596 -0.500436 -0.151126 47
-0.835415 -0.313362 -0.229552 42
-0.84022 -0.494617 -0.21675 41
-7.31065 -4.35405 2.26753 33
-7.21255 -4.27857 1.62185 21
-3.10492 -1.16112 0.28696 3
-7.3958 -4.37525 1.04932 35
-7.31705 -4.32173 0.443547 1
-0.680183 -0.255248 -0.0363633 50
-3.15725 -1.85941 -0.0633522 30
-0.84143 -0.315079 -0.105876 45
-0.855618 -0.500045 -0.0835026 52
-0.839627 -0.313913 -0.167134 44
-0.848218 -0.496434 -0.150343 44
-0.831432 -0.310222 -0.228259 42
-0.840996 -0.493296 -0.21675 41
-7.31387 -4.30596 2.26172 30
-7.24046 -4.24574 1.62328 18
-3.1201 -1.14883 0.287832 2
-7.39719 -4.32394 1.04628 35
-7.32234 -4.27329 0.442501 1
-0.68151 -0.251683 -0.0363633 50
-3.15799 -1.83837 -0.0631777 30
-0.840738 -0.309815 -0.105571 45
-0.849622 -0.490535 -0.0826328 52
-0.843509 -0.310503 -0.16761 45
-0.848675 -0.490739 -0.149951 44
-0.826188 -0.303522 -0.226319 42
-0.839364 -0.486422 -0.215626 41
-7.23589 -4.2244 1.62042 15
-3.13146 -1.14681 0.288703 2
-7.38758 -4.30102 1.04385 35
-7.31684 -4.25297 0.441715 1
-0.679603 -0.249637 -0.0362321 50
-3.15687 -1.83034 -0.0630904 32
-0.843609 -0.309197 -0.105876 45
-0.854783 -0.491555 -0.0830677 52
-0.837132 -0.30651 -0.166182 44
-0.845263 -0.486772 -0.149168 45
-0.829038 -0.30276 -0.226966 44
-0.844419 -0.487413 -0.21675 44
-7.25366 -4.184 1.61947 15
-3.13059 -1.12732 0.28805 2
-7.39354 -4.25108 1.04141 35
-1.70725 -0.615111 0.0310653 50
-7.32459 -4.20461 0.4408 1
-0.680901 -0.246075 -0.0362321 50
-3.15806 -1.80825 -0.0629159 32
-0.835927 -0.301277 -0.104659 45
-0.853026 -0.484591 -0.0826328 52
-0.843399 -0.303631 -0.167134 45
-0.8478 -0.482339 -0.149168 44
-0.828338 -0.297603 -0.226319 42
-0.840713 -0.479186 -0.215065 42
-5.80227 -3.34564 1.78288 8
-7.23967 -4.1591 1.6147 12
-3.13021 -1.12101 0.287832 2
-7.38729 -4.23206 1.03959 35
-1.70597 -0.611289 0.0310216 52
-7.32468 -4.18937 0.440407 1
-0.681329 -0.244886 -0.0362321 50
-3.15253 -1.79777 -0.0627414 32
-0.834062 -0.29913 -0.104354 45
-0.856032 -0.484339 -0.0828502 52
-0.836992 -0.299688 -0.165706 45
-0.844356 -0.478403 -0.148385 45
-0.833407 -0.297774 -0.227612 44
-0.835128 -0.474224 -0.21338 42
-5.82962 -3.32222 1.78611 9
-7.2457 -4.11391 1.61136 12
-3.12174 -1.1002 0.286525 2
-7.39639 -4.18598 1.03776 35
-1.70668 -0.601817 0.030978 52
-7.35521 -4.15588 0.44093 1
-0.677891 -0.23966 -0.0359695 50
-3.15288 -1.77687 -0.0625669 32
-0.835616 -0.294759 -0.104354 45
-0.85422 -0.477399 -0.0824153 53
-0.84313 -0.297072 -0.166658 45
-0.844701 -0.472759 -0.147993 47
-0.830345 -0.291957 -0.226319 44
-0.839718 -0.471048 -0.213942 42
-5.83121 -3.30965 1.78482 9
-7.2365 -4.09032 1.60755 12
-3.11191 -1.09063 0.285435 2
-7.38424 -4.16209 1.03503 35
-1.70076 -0.596065 0.0308471 50
-7.35593 -4.13936 0.440538 17
-0.675952 -0.237653 -0.0358382 50
-3.15162 -1.76892 -0.0624796 32
-0.838473 -0.294117 -0.104659 45
-0.848541 -0.472242 -0.081763 52
-0.836695 -0.293176 -0.16523 45
-0.849826 -0.47371 -0.148777 49
-0.828623 -0.28957 -0.225673 44
-0.836298 -0.467184 -0.212819 42
-7.24925 -4.04758 1.60565 12
-7.38714 -4.1112 1.03229 33
-1.70858 -0.588777 0.0309344 50
-7.39349 -4.108 0.441454 15
-0.679548 -0.234922 -0.0359695 50
-3.15678 -1.74941 -0.0623923 32
-0.835357 -0.287967 -0.10405 45
-0.846649 -0.465371 -0.081328 52
-0.831304 -0.286258 -0.163801 45
-0.84798 -0.46685 -0.147993 47
-0.827843 -0.284446 -0.225026 44
-0.834559 -0.460277 -0.211696 42
-7.23915 -4.02537 1.60183 12
-7.38275 -4.09357 1.03077 35
-1.70015 -0.58256 0.0307599 52
-7.38465 -4.08791 0.440538 17
-0.679957 -0.233735 -0.0359695 50
-3.15108 -1.73905 -0.0622178 32
-0.828763 -0.28425 -0.103137 45
-0.84746 -0.463893 -0.081328 53
-0.834125 -0.285598 -0.164277 45
-0.846635 -0.464172 -0.147602 47
-0.830624 -0.283778 -0.225673 42
-0.83741 -0.46015 -0.212257 42
-7.30018 -4.02765 2.22165 35
-7.25083 -3.98395 1.59993 12
-7.38667 -4.04531 1.02833 35
-1.7007 -0.573151 0.0307162 50
-7.39719 -4.04439 0.440015 15
-0.681172 -0.230172 -0.0359695 52
-3.15326 -1.71948 -0.0620869 33
-0.834945 -0.281485 -0.103746 47
-0.854247 -0.46184 -0.081763 52
-0.833233 -0.280593 -0.163801 45
-0.825179 -0.277274 -0.223733 44
-0.839808 -0.455759 -0.212257 42
-7.29451 -4.00792 2.21777 35
-7.24124 -3.96059 1.59611 12
-7.38065 -4.02528 1.02651 35
-1.69943 -0.569093 0.0306726 50
-7.39109 -4.0243 0.439229 14
-0.676836 -0.227402 -0.035707 50
-3.15187 -1.71159 -0.0619997 33
-0.828373 -0.277672 -0.102833 47
-0.850678 -0.457965 -0.081328 52
-0.83605 -0.279914 -0.164277 45
-0.832585 -0.277972 -0.225673 45
-0.836327 -0.451954 -0.211134 42
-7.30335 -3.96148 2.2139 35
-7.2554 -3.91912 1.59468 12
-7.3914 -3.9794 1.02499 35
-1.70239 -0.560187 0.0306726 50
-7.39956 -3.97716 0.438444 14
-0.682762 -0.225411 -0.0359695 50
-3.15228 -1.68977 -0.0618251 33
-0.83458 -0.274731 -0.103442 47
-0.848678 -0.451145 -0.0808931 52
-0.83522 -0.274624 -0.163801 45
-0.841374 -0.447937 -0.145644 45
-0.831733 -0.27286 -0.225026 44
-0.83876 -0.447423 -0.211134 42
-7.29114 -3.93839 2.20808 35
-7.24063 -3.89481 1.58992 12
-7.38234 -3.95956 1.02286 35
-1.69623 -0.554889 0.0305417 50
-7.3904 -3.95727 0.437529 12
-0.67366 -0.221123 -0.0354444 52
-3.14861 -1.68073 -0.0616943 33
-0.830292 -0.271883 -0.102833 47
-0.849464 -0.449663 -0.0808931 53
-0.835698 -0.273166 -0.163801 45
-0.842155 -0.446468 -0.145644 45
-0.829911 -0.270663 -0.224379 45
-0.839462 -0.446105 -0.211134 42
-7.29394 -3.89233 2.20291 33
-7.24942 -3.85235 1.58754 12
-7.33914 -2.35638 0.671317 17
-7.3942 -3.91621 1.02164 35
-1.69188 -0.544006 0.0304108 52
-7.39999 -3.91268 0.436874 9
-0.679564 -0.219116 -0.035707 50
-3.15266 -1.66243 -0.061607 33
-0.824613 -0.265263 -0.10192 47
-0.854008 -0.446374 -0.0811106 52
-0.830056 -0.266691 -0.162373 47
-0.837936 -0.438584 -0.14447 45
-0.835872 -0.267926 -0.225673 45
-0.839635 -0.44056 -0.210573 42
-7.29859 -3.87845 2.20227 35
-6.95224 -2.21754 1.14765 1
-7.24595 -3.83268 1.58515 12
-7.32188 -2.33676 0.669356 17
-7.39225 -3.89866 1.02042 35
-1.69292 -0.540757 0.0304108 52
-7.39797 -3.8951 0.436351 8
-0.672808 -0.215657 -0.0353131 52
-3.15113 -1.6546 -0.0615197 33
-0.825075 -0.263824 -0.10192 47
-0.852582 -0.443722 -0.0808931 52
-0.825842 -0.263756 -0.16142 45
-0.843067 -0.439425 -0.145253 45
-0.827176 -0.263404 -0.223086 45
-0.842556 -0.440233 -0.211134 42
-7.29808 -3.82768 2.1958 35
-7.23516 -2.26467 1.19253 30
-7.24635 -3.78445 1.58086 12
-7.32967 -2.29562 0.66892 17
-7.38463 -3.8437 1.01647 35
-1.69573 -0.531886 0.0304108 53
-7.40122 -3.8458 0.435304 11
-0.673928 -0.212131 -0.0353131 52
-3.14895 -1.63176 -0.0613016 33
-0.831228 -0.260834 -0.102529 47
-0.852684 -0.438102 -0.0806757 52
-0.831943 -0.260745 -0.162373 47
-0.838863 -0.431436 -0.144078 45
-0.833156 -0.260504 -0.224379 45
-0.838447 -0.432286 -0.20945 42
-7.23748 -2.25154 1.73905 38
-7.28763 -3.80598 2.19063 35
-7.16364 -2.22858 1.18004 30
-7.25294 -3.7718 1.58086 12
-7.32177 -2.27913 0.667831 20
-7.38252 -3.82623 1.01525 35
-1.69188 -0.527441 0.0303236 53
-7.39683 -3.82713 0.43465 11
-0.676682 -0.211696 -0.0354444 50
-3.14957 -1.62511 -0.0612579 35
-0.826942 -0.257913 -0.10192 47
-0.853448 -0.436614 -0.0806757 53
-0.827708 -0.25784 -0.16142 49
-0.837422 -0.428835 -0.143687 45
-0.826687 -0.25691 -0.222439 45
-0.8392 -0.430822 -0.20945 42
-7.23752 -2.21006 1.73624 32
-7.29178 -3.76129 2.18611 35
-7.24096 -2.21248 1.19096 26
-7.26103 -3.72943 1.57848 12
-7.32845 -2.24058 0.667395 17
-7.37529 -3.77523 1.0116 35
-1.69453 -0.518871 0.0303236 53
-7.40278 -3.78282 0.433865 9
-0.682557 -0.209606 -0.035707 52
-3.14885 -1.6046 -0.0610834 35
-0.825863 -0.253001 -0.101616 49
-0.851287 -0.429871 -0.0802408 52
-0.831351 -0.254362 -0.161896 47
-0.837385 -0.423465 -0.143295 45
-0.83491 -0.254826 -0.224379 45
-0.839203 -0.425456 -0.208888 41
-7.22971 -2.19389 1.73343 32
-7.2876 -3.74303 2.18288 35
-7.23299 -2.19625 1.18901 26
-7.25726 -3.70989 1.5761 12
-7.3109 -2.22128 0.665434 15
-7.36861 -3.75558 1.00977 35
-1.68595 -0.512715 0.030149 53
-7.39602 -3.76309 0.43308 9
-3.14942 -1.59797 -0.0610398 35
-0.826303 -0.251559 -0.101616 49
-0.854256 -0.429515 -0.0804582 53
-0.827095 -0.25149 -0.160944 49
-0.840322 -0.423125 -0.143687 45
-0.821524 -0.249042 -0.2205 45
-0.842113 -0.425099 -0.20945 42
-7.23447 -2.15266 1.73175 33
-7.28836 -3.69371 2.17706 35
-7.24951 -2.1585 1.18979 26
-7.26782 -3.66741 1.57419 11
-7.31565 -2.17956 0.66478 15
-7.37552 -3.70897 1.00795 35
-1.69341 -0.505306 0.0302363 53
-7.39843 -3.71405 0.432033 8
-0.830031 -0.247791 -0.10192 49
-0.849817 -0.421681 -0.0798059 52
-0.830797 -0.247709 -0.16142 49
-0.835909 -0.415388 -0.142512 45
-0.829764 -0.246791 -0.222439 47
-0.833526 -0.415051 -0.206642 42
-7.2285 -2.13853 1.7295 32
-7.28833 -3.67772 2.17512 35
-7.24105 -2.1436 1.18784 26
-7.27202 -3.65362 1.57371 11
-7.30511 -2.16255 0.663473 14
-7.37025 -3.69181 1.00643 35
-1.6847 -0.499515 0.0300618 53
-7.39532 -3.69795 0.43151 8
-0.672389 -0.200105 -0.0350506 50
-0.82328 -0.24438 -0.101008 49
-0.850551 -0.420197 -0.0798059 53
-0.828873 -0.245565 -0.160944 49
-0.838841 -0.415035 -0.142904 45
-0.827877 -0.244662 -0.221793 47
-0.840707 -0.417022 -0.208327 42
-7.23726 -2.09998 1.72894 33
-7.28741 -3.63108 2.16931 33
-7.2498 -2.10497 1.18745 26
-7.27283 -3.60803 1.5699 11
-7.31597 -2.12554 0.663473 12
-7.37836 -3.64767 1.00491 35
-1.692 -0.492375 0.030149 55
-7.39444 -3.64922 0.430332 8
-0.675791 -0.197394 -0.0351819 50
-0.826931 -0.240756 -0.101312 50
-0.850434 -0.414784 -0.0795884 52
-0.830106 -0.241367 -0.160944 49
-0.836576 -0.408448 -0.142121 47
-0.829104 -0.240469 -0.221793 47
-0.840697 -0.411532 -0.207765 42
-7.2265 -2.08456 1.72557 33
-7.28724 -3.61513 2.16737 35
-7.24872 -2.09095 1.18667 26
-7.27472 -3.59315 1.56895 11
-7.31967 -2.11277 0.663473 12
-7.37136 -3.6282 1.00308 35
-1.68325 -0.486652 0.0299745 55
-7.3896 -3.6308 0.429678 8
-0.822581 -0.237941 -0.100704 49
-0.848922 -0.4122 -0.079371 52
-0.82109 -0.237208 -0.159039 47
-0.837288 -0.406987 -0.142121 45
-0.815593 -0.235032 -0.217913 45
-0.839229 -0.408986 -0.207204 42
-7.23064 -2.04344 1.72389 33
-7.28439 -3.56629 2.16091 35
-7.25957 -2.05297 1.18667 26
-7.2802 -3.54855 1.56609 11
-7.33063 -2.07442 0.663473 11
-7.37017 -3.57979 1.00034 35
-1.69059 -0.479191 0.0300618 53
-7.3883 -3.58225 0.428501 4
-0.823815 -0.233631 -0.100704 50
-0.848899 -0.406514 -0.0791535 52
-0.829408 -0.234901 -0.160468 49
-0.832745 -0.399359 -0.140946 45
-0.823788 -0.232717 -0.219853 47
-0.834789 -0.401385 -0.205519 42
-7.21778 -2.02621 1.71996 32
-7.28409 -3.55039 2.15897 36
-7.24887 -2.03629 1.18433 26
-7.28038 -3.53135 1.56466 11
-7.36078 -3.55935 0.998212 35
-1.68669 -0.474594 0.0299745 52
-7.39454 -3.56935 0.428501 4
-0.670309 -0.18935 -0.034788 49
-0.821832 -0.231523 -0.100399 49
-0.847365 -0.403948 -0.078936 52
-0.822726 -0.23147 -0.159039 49
-0.835663 -0.398981 -0.141338 47
-0.821907 -0.230487 -0.219206 45
-0.842064 -0.403117 -0.207204 42
-7.21689 -1.98391 1.71715 33
-7.27926 -3.49941 2.15186 35
-7.26455 -1.99835 1.18511 27
-7.28549 -3.48682 1.5618 9
-7.37321 -3.51626 0.9973 35
-1.69398 -0.467081 0.0300618 55
-0.673699 -0.186499 -0.0349193 50
-0.827859 -0.228386 -0.101008 50
-0.84722 -0.398435 -0.0787186 52
-0.828701 -0.228311 -0.159992 49
-0.835581 -0.39339 -0.140946 45
-0.825432 -0.226816 -0.219853 47
-0.839838 -0.396452 -0.206081 41
-7.2106 -1.97 1.7149 32
-7.27664 -3.48252 2.14928 35
-7.25849 -1.98306 1.18355 27
-7.28935 -3.47304 1.56132 9
-7.35917 -3.4938 0.994561 35
-1.68514 -0.461491 0.0298872 53
-0.669206 -0.184008 -0.0346568 52
-0.825862 -0.226288 -0.100704 50
-0.847914 -0.396955 -0.0787186 52
-0.82673 -0.226221 -0.159516 50
-0.831806 -0.389812 -0.140163 47
-0.821165 -0.224111 -0.21856 45
-0.83613 -0.39289 -0.204957 44
-7.21409 -1.92907 1.71322 32
-7.2795 -3.43714 2.14475 33
-7.27594 -1.94694 1.18472 29
-7.29189 -3.42751 1.55799 9
-7.36837 -3.451 0.993344 35
-1.68754 -0.452661 0.0298872 56
-0.829433 -0.2226 -0.101008 52
-0.84547 -0.390399 -0.0782837 52
-0.820788 -0.219995 -0.158087 49
-0.829297 -0.383501 -0.13938 47
-0.824661 -0.220428 -0.219206 45
-0.833766 -0.386435 -0.203834 42
-7.20534 -1.91461 1.71041 33
-7.27893 -3.42135 2.14281 35
-7.27182 -1.93361 1.18355 29
-7.29786 -3.41478 1.55799 11
-7.3558 -3.43102 0.990911 33
-1.68349 -0.448432 0.0298 56
-0.824985 -0.220026 -0.100399 50
-0.850665 -0.391026 -0.0787186 53
-0.823543 -0.219189 -0.158563 49
-0.83444 -0.384141 -0.140163 45
-0.820375 -0.217757 -0.217913 47
-0.836578 -0.386157 -0.204396 42
-7.21526 -1.87686 1.71041 35
-7.27644 -3.3753 2.137 33
-7.28424 -1.89613 1.18394 30
-7.29055 -3.36647 1.55274 11
-7.35563 -3.38415 0.988477 33
-1.69058 -0.441164 0.0298872 55
-0.673821 -0.176446 -0.034788 52
-0.821321 -0.214458 -0.0997908 49
-0.850437 -0.385527 -0.0785011 53
-0.827018 -0.215633 -0.159039 50
-0.827468 -0.375637 -0.138597 47
-0.826143 -0.21481 -0.219206 47
-0.827529 -0.376666 -0.201588 42
-7.21381 -1.86305 1.70929 33
-7.27794 -3.36057 2.13571 33
-7.27558 -1.88033 1.18199 30
-7.29254 -3.35041 1.55179 12
-7.35251 -3.36717 0.98726 35
-1.68658 -0.436669 0.0298 55
-0.67171 -0.174647 -0.0346568 53
-0.828904 -0.21488 -0.100704 50
-0.851109 -0.384042 -0.0785011 53
-0.82977 -0.214801 -0.159516 50
-0.830367 -0.375221 -0.138989 47
-0.826554 -0.213223 -0.219206 47
-0.823758 -0.373187 -0.200465 42
-7.21434 -1.8216 1.70704 33
-7.27843 -3.31313 2.13054 36
-7.28326 -1.84033 1.1816 30
-7.28987 -3.30305 1.5475 14
-7.36157 -3.32325 0.986043 33
-1.68642 -0.42722 0.0297564 55
-0.675036 -0.171738 -0.034788 53
-2.06843 -0.927388 -0.0389625 4
-0.827648 -0.209787 -0.100399 50
-0.844027 -0.375484 -0.0776313 53
-0.82616 -0.209111 -0.158563 50
-0.827821 -0.368834 -0.138206 47
-0.827659 -0.208893 -0.219206 47
-0.827985 -0.36973 -0.201027 42
-7.21246 -1.80909 1.70592 33
-7.27101 -3.29443 2.12666 35
-7.28614 -1.82889 1.1816 30
-7.28444 -3.28527 1.54512 15
-7.32404 -1.83838 0.65759 11
-7.35095 -3.30455 0.983913 33
-1.68959 -0.424883 0.0298 56
-0.672913 -0.169953 -0.0346568 53
-2.07233 -0.924801 -0.0390061 4
-0.823162 -0.207282 -0.0997908 50
-0.846953 -0.37503 -0.0778488 53
-0.821761 -0.206481 -0.157611 50
-0.826211 -0.366376 -0.137814 47
-0.825678 -0.206865 -0.21856 47
-0.824123 -0.366426 -0.199904 42
-7.21711 -1.77014 1.7048 33
-7.26996 -3.24969 2.12149 35
-7.29082 -1.78954 1.18082 30
-7.28305 -3.24037 1.54131 21
-7.29455 -1.79179 0.654104 14
-7.35908 -3.26199 0.982696 33
-1.68686 -0.415135 0.0297127 56
-3.14695 -1.3893 0.178466 3
-0.676219 -0.167021 -0.034788 53
-2.08155 -0.916324 -0.0390934 4
-0.821825 -0.20238 -0.0994866 50
-0.844351 -0.368574 -0.0774139 53
-0.822796 -0.202319 -0.157611 50
-0.830375 -0.363046 -0.138206 47
-0.824369 -0.202112 -0.217913 47
-0.82603 -0.362105 -0.199904 42
-7.21545 -1.75639 1.70367 33
-7.269 -3.23405 2.11955 35
-7.29153 -1.77623 1.18043 32
-7.27355 -3.21942 1.53797 35
-7.30735 -1.78141 0.654975 17
-7.35341 -3.24412 0.981175 33
-1.68523 -0.411305 0.0296691 56
-3.14937 -1.38381 0.178466 3
-0.674083 -0.165251 -0.0346568 53
-2.09459 -0.917729 -0.0393115 4
-0.827 -0.202116 -0.100095 52
-0.842714 -0.366096 -0.0771964 53
-0.827918 -0.202038 -0.158563 50
-0.828749 -0.360599 -0.137814 47
-0.827102 -0.201095 -0.21856 50
-0.828889 -0.361649 -0.200465 42
-7.21537 -1.71507 1.70143 33
-7.27976 -3.19176 2.11761 36
-7.29383 -1.73504 1.17926 32
-7.27007 -3.17245 1.53368 35
-7.30477 -1.73897 0.653886 20
-7.36403 -3.20132 0.980262 33
-1.68979 -0.403054 0.0297127 56
-3.14765 -1.36277 0.177942 3
-0.67251 -0.161143 -0.0345255 53
-2.10411 -0.908374 -0.0393988 4
-0.823252 -0.196494 -0.0994866 50
-0.842335 -0.360686 -0.076979 53
-0.828999 -0.197556 -0.158563 50
-0.828362 -0.355269 -0.137423 47
-0.825794 -0.196208 -0.217913 47
-0.824135 -0.354237 -0.198781 42
-7.21331 -1.70262 1.7003 33
-7.2654 -3.17035 2.1118 33
-7.29654 -1.72358 1.17926 32
-7.26209 -3.15388 1.53082 35
-7.29567 -1.72336 0.652797 20
-7.35084 -3.18185 0.977828 33
-1.68563 -0.398957 0.0296255 58
-3.14292 -1.35485 0.17755 3
-0.675221 -0.160541 -0.0346568 53
-0.830806 -0.196906 -0.100399 52
-0.842963 -0.359215 -0.076979 53
-0.826953 -0.195548 -0.158087 50
-0.831246 -0.354804 -0.137814 49
-0.821432 -0.193666 -0.21662 47
-0.820221 -0.351001 -0.197658 42
-7.20788 -1.66154 1.69694 35
-7.2747 -3.13066 2.10986 33
-7.29825 -1.68368 1.17809 32
-7.25766 -3.10837 1.52653 33
-7.29217 -1.68361 0.651707 20
-7.35827 -3.13942 0.976611 33
-1.68519 -0.389858 0.0295818 56
-3.14308 -1.33544 0.177157 3
-0.676052 -0.157004 -0.0346568 53
-0.826989 -0.191441 -0.0997908 53
-0.842541 -0.35382 -0.0767615 53
-0.82554 -0.190811 -0.157611 50
-0.82628 -0.347538 -0.136639 47
-0.822402 -0.189506 -0.21662 47
-0.824287 -0.34766 -0.198219 42
-7.21077 -1.64896 1.69694 35
-7.26018 -3.10939 2.10404 33
-7.30358 -1.67149 1.17848 33
-7.25233 -3.08962 1.52415 33
-7.29752 -1.67144 0.651925 17
-7.34547 -3.1188 0.974177 32
-1.68593 -0.386622 0.0295818 58
-3.1477 -1.33092 0.177288 3
-0.673891 -0.155268 -0.0345255 53
-0.827322 -0.189998 -0.0997908 53
-0.840864 -0.351377 -0.076544 53
-0.828265 -0.189915 -0.158087 50
-0.829158 -0.347061 -0.137031 47
-0.822764 -0.187926 -0.21662 47
-0.820411 -0.344311 -0.197096 42
-7.21245 -1.60833 1.69525 35
-7.268 -3.06631 2.10146 33
-7.06427 -1.5766 1.13828 1
-7.25936 -3.0478 1.52224 35
-7.29187 -1.62867 0.650618 15
-7.35308 -3.07518 0.97296 33
-1.68549 -0.377246 0.0295382 58
-0.672258 -0.151194 -0.0343942 55
-0.821071 -0.183904 -0.0988781 50
-0.842693 -0.346969 -0.076544 53
-0.82928 -0.185431 -0.158087 52
-0.828746 -0.341617 -0.136639 47
-0.823737 -0.183616 -0.21662 49
-0.826754 -0.341753 -0.198219 44
-7.21021 -1.59595 1.69413 33
-7.25776 -3.04706 2.09693 33
-7.0646 -1.56374 1.13789 1
-7.24656 -3.02754 1.51843 33
-7.29714 -1.61648 0.650836 15
-7.3424 -3.05566 0.970831 33
-1.68371 -0.373763 0.0294946 56
-0.665207 -0.148405 -0.0340004 53
-0.823814 -0.183005 -0.0991823 50
-0.838698 -0.343585 -0.0761091 53
-0.824809 -0.182928 -0.157135 50
-0.824782 -0.338271 -0.135856 47
-0.819338 -0.181143 -0.215327 47
-0.825101 -0.33937 -0.197658 44
-7.21133 -1.55663 1.69244 33
-7.26639 -3.00751 2.095 35
-7.30898 -1.57902 1.17614 33
-7.25498 -2.98802 1.517 33
-7.29549 -1.57743 0.649964 15
-7.35548 -3.01751 0.970526 33
-1.67581 -0.363127 0.02932 56
-0.668391 -0.145562 -0.0341317 53
-0.827156 -0.179354 -0.0994866 50
-0.840426 -0.339336 -0.0761091 53
-0.825724 -0.178751 -0.157135 50
-0.826483 -0.334092 -0.135856 47
-0.820245 -0.176994 -0.215327 47
-0.822303 -0.333335 -0.196535 44
-7.209 -1.54429 1.69132 33
-7.26047 -2.99022 2.09176 35
-7.06059 -1.51251 1.13555 1
-7.24429 -2.96883 1.51366 33
-7.29579 -1.56417 0.649746 15
-7.34695 -2.99903 0.968701 32
-1.68377 -0.361771 0.0294509 58
-0.673526 -0.14544 -0.0343942 53
-0.822614 -0.176875 -0.0988781 53
-0.843323 -0.338809 -0.0763266 53
-0.826035 -0.17731 -0.157135 50
-0.827065 -0.332649 -0.135856 47
-0.825277 -0.176564 -0.21662 47
-0.818375 -0.330052 -0.195412 42
-7.21009 -1.50377 1.68964 33
-7.26484 -2.94762 2.08853 35
-7.30048 -1.52392 1.17301 35
-7.25974 -2.93085 1.51366 36
-7.30145 -1.52544 0.649528 17
-7.34875 -2.95496 0.966876 32
-1.68564 -0.35295 0.0294509 58
-0.679192 -0.142811 -0.0346568 55
-0.825958 -0.17307 -0.0991823 50
-0.840522 -0.332385 -0.0758917 53
-0.81734 -0.170988 -0.15523 50
-0.824214 -0.326471 -0.135073 47
-0.82619 -0.172241 -0.21662 47
-0.822351 -0.326674 -0.195973 41
-7.19601 -1.48773 1.6857 33
-7.25878 -2.93041 2.0853 35
-7.29829 -1.51017 1.17223 35
-7.25852 -2.91416 1.51223 36
-7.2919 -1.51017 0.648439 20
-7.34698 -2.93936 0.965963 32
-1.68142 -0.348702 0.0293637 55
-0.818968 -0.170127 -0.0982696 50
-0.843413 -0.331842 -0.0761091 53
-0.815233 -0.169067 -0.154754 50
-0.83166 -0.327785 -0.136248 47
-0.817056 -0.168717 -0.214033 47
-0.82292 -0.325238 -0.195973 41
-7.20634 -1.44926 1.68627 35
-7.25882 -2.88484 2.08078 35
-7.05216 -1.41955 1.13126 1
-7.26227 -2.8716 1.50985 35
-7.29264 -1.46922 0.647785 26
-7.34893 -2.8941 0.964137 29
-1.68077 -0.339401 0.02932 55
-0.824742 -0.166668 -0.0988781 50
-0.842821 -0.326509 -0.0758917 52
-0.820949 -0.165616 -0.155706 50
-0.826473 -0.320709 -0.135073 47
-0.820296 -0.164909 -0.21468 49
-0.820137 -0.31899 -0.19485 41
-7.19666 -1.43555 1.68346 35
-7.26609 -2.87305 2.08143 32
-7.03501 -1.40461 1.12814 1
-7.29275 -1.456 0.647567 33
-1.67401 -0.335001 0.0291891 58
-0.825003 -0.165372 -0.0988781 53
-0.845709 -0.325946 -0.0761091 53
-0.821237 -0.164183 -0.155706 50
-0.831629 -0.321069 -0.135856 47
-0.815845 -0.162541 -0.213387 47
-0.820637 -0.317701 -0.19485 41
-7.20886 -1.39878 1.68458 36
-7.0447 -1.36822 1.12853 1
-7.29759 -1.4186 0.647349 36
-1.68059 -0.327476 0.0292764 58
-1.69942 -0.650624 0.0935505 27
-0.828294 -0.161521 -0.0991823 53
-0.842757 -0.319722 -0.0756742 53
-0.822057 -0.160024 -0.155706 52
-0.828692 -0.314931 -0.135073 47
-0.823771 -0.159777 -0.215327 50
-0.817746 -0.31164 -0.193727 42
-7.19455 -1.38298 1.68065 35
-7.03252 -1.35313 1.12619 1
-3.16146 -1.21535 0.651028 9
-7.03103 -1.3541 0.623381 1
-3.08653 -1.18214 0.400989 11
-1.67876 -0.323778 0.0292328 58
-1.71221 -0.65213 0.0942047 47
-0.66664 -0.129303 -0.0338691 53
-1.70981 -0.650534 -0.0313271 39
-0.8237 -0.159142 -0.0985738 53
-0.845639 -0.319142 -0.0758917 53
-0.822335 -0.158589 -0.155706 50
-0.83385 -0.315256 -0.135856 47
-0.814587 -0.15639 -0.21274 47
-0.818288 -0.310212 -0.193727 42
-7.20671 -1.34493 1.68177 36
-7.30191 -1.36398 1.16833 38
-3.13566 -1.18658 0.644355 2
-7.03336 -1.31513 0.622946 1
-3.08127 -1.16103 0.399467 11
-1.68043 -0.314983 0.0292328 58
-1.7087 -0.640211 0.0938122 47
-0.667308 -0.125811 -0.0338691 53
-1.70395 -0.637744 -0.0311525 53
-0.826989 -0.155137 -0.0988781 53
-0.842638 -0.312951 -0.0754568 52
-0.828007 -0.155033 -0.156659 52
-0.828561 -0.308265 -0.134682 47
-0.81777 -0.152562 -0.213387 47
-0.817677 -0.304916 -0.193165 42
-7.19684 -1.33139 1.67897 36
-7.02966 -1.30175 1.12424 1
-3.14691 -1.18457 0.646262 2
-7.03074 -1.30194 0.62251 1
-3.13883 -1.17718 0.406769 2
-1.67361 -0.310687 0.0291019 58
-1.70971 -0.637526 0.0938122 49
-0.662616 -0.123739 -0.0336066 53
-1.70506 -0.634769 -0.0311525 53
-0.81747 -0.152039 -0.0976611 50
-0.845515 -0.312355 -0.0756742 53
-0.821035 -0.152257 -0.15523 52
-0.831409 -0.307688 -0.135073 47
-0.82041 -0.151569 -0.214033 47
-0.822713 -0.305352 -0.194288 42
-7.20371 -1.29369 1.67897 36
-7.03638 -1.26493 1.12424 1
-3.13216 -1.16092 0.641972 2
-7.02989 -1.26502 0.621856 1
-3.12633 -1.15383 0.404335 2
-1.68008 -0.303096 0.0291891 58
-1.706 -0.625967 0.0934197 47
-0.66817 -0.121149 -0.0338691 56
-1.70591 -0.625264 -0.0311089 50
-0.823141 -0.14863 -0.0982696 50
-0.842466 -0.306197 -0.0752393 53
-0.824211 -0.148531 -0.155706 52
-0.828378 -0.301615 -0.13429 45
-0.816411 -0.146569 -0.21274 47
-0.810599 -0.29595 -0.190919 44
-7.19636 -1.27941 1.67672 36
-7.03128 -1.25135 1.12307 1
-3.1459 -1.15917 0.644355 2
-7.02473 -1.25144 0.621203 1
-3.12369 -1.14665 0.403727 11
-1.67327 -0.298559 0.0290583 62
-1.70709 -0.622988 0.0934197 45
-0.66838 -0.119982 -0.0338691 56
-1.7023 -0.620561 -0.0310216 50
-0.845337 -0.305586 -0.0754568 53
-0.817219 -0.145811 -0.154278 50
-0.83122 -0.301022 -0.134682 47
-0.811934 -0.144165 -0.211447 47
-0.81797 -0.297068 -0.192604 42
-7.20798 -1.24128 1.67784 36
-7.04038 -1.21371 1.12346 1
-3.13578 -1.1368 0.641019 2
-7.03385 -1.21384 0.62142 1
-3.13917 -1.13312 0.404944 2
-1.67235 -0.289369 0.0290146 44
-1.70104 -0.610345 0.0928963 45
-0.67146 -0.116904 -0.0340004 55
-1.69858 -0.608793 -0.0308908 52
-0.842241 -0.299461 -0.0750219 53
-0.822834 -0.142215 -0.15523 52
-0.828142 -0.294983 -0.133899 47
-0.81982 -0.141129 -0.213387 50
-0.819565 -0.292638 -0.192604 45
-7.19311 -1.2271 1.67391 35
-7.02767 -1.20016 1.12111 1
-3.12853 -1.12798 0.639113 2
-7.04824 -1.20365 0.62251 1
-3.12461 -1.12229 0.402814 2
-1.67778 -0.28729 0.0291019 14
-1.7067 -0.609364 0.093158 47
-0.66674 -0.114894 -0.0337378 55
-1.70435 -0.607519 -0.030978 50
-0.814621 -0.139779 -0.0970526 50
-0.840419 -0.297148 -0.0748044 53
-0.823081 -0.140779 -0.15523 50
-0.830978 -0.294375 -0.13429 47
-0.812921 -0.138494 -0.211447 47
-0.817733 -0.290522 -0.192042 45
-7.19463 -1.18862 1.67279 35
-7.0363 -1.16374 1.1215 1
-3.13882 -1.11378 0.640066 2
-7.0567 -1.16837 0.622728 1
-3.10238 -1.09595 0.399163 2
-1.70634 -0.283275 0.0295818 14
-1.70516 -0.598753 0.0928963 49
-0.67226 -0.112214 -0.0340004 55
-1.69562 -0.594717 -0.0307599 52
-0.815341 -0.135512 -0.0970526 50
-0.837267 -0.291083 -0.0743695 53
-0.823783 -0.136611 -0.15523 50
-0.823199 -0.28672 -0.132724 47
-0.818378 -0.135156 -0.21274 47
-0.812357 -0.283787 -0.190358 44
-7.1991 -1.17646 1.67335 35
-7.30396 -1.19487 1.16404 39
-7.28484 -1.19304 0.642774 32
-3.10663 -1.09136 0.399467 2
-1.73155 -0.284025 0.0300181 14
-1.69678 -0.592459 0.092373 50
-0.665062 -0.109835 -0.0336066 55
-1.69666 -0.591756 -0.0307599 52
-0.820475 -0.134886 -0.0976611 53
-0.837774 -0.289621 -0.0743695 53
-0.81433 -0.1336 -0.153325 50
-0.828356 -0.286924 -0.133507 47
-0.82102 -0.133969 -0.213387 49
-0.822038 -0.285618 -0.192604 44
-7.20055 -1.13673 1.67223 35
-7.02249 -1.1099 1.11799 1
-7.27643 -1.15127 0.641466 38
-3.10546 -1.0721 0.398555 2
-1.77252 -0.281191 0.0307162 8
-1.69996 -0.58327 0.092373 49
-0.665628 -0.106352 -0.0336066 55
-1.69747 -0.581751 -0.0307162 52
-0.823644 -0.13083 -0.0979654 53
-0.834572 -0.283602 -0.0739346 53
-0.81989 -0.129953 -0.154278 50
-0.825181 -0.280966 -0.132724 47
-0.819324 -0.129296 -0.21274 47
-0.818969 -0.279567 -0.191481 45
-7.19992 -1.12504 1.67167 35
-7.02179 -1.09849 1.1176 1
-7.28335 -1.13934 0.641902 30
-3.12121 -1.07208 0.40038 3
-1.70087 -0.580599 0.092373 49
-0.66828 -0.105574 -0.0337378 56
-1.69375 -0.577163 -0.030629 53
-0.821397 -0.129155 -0.0976611 53
-0.839776 -0.283765 -0.0743695 53
-0.820116 -0.128522 -0.154278 50
-0.828004 -0.28033 -0.133116 47
-0.817162 -0.127498 -0.212093 49
-0.8125 -0.275891 -0.189796 42
-7.22016 -1.08951 1.67504 27
-7.02256 -1.06097 1.11682 1
-7.28656 -1.10209 0.641684 27
-3.14323 -1.0613 0.40251 3
-1.6968 -0.569284 0.0919804 49
-0.661399 -0.101074 -0.033344 56
-1.69902 -0.569383 -0.0306726 53
-0.824516 -0.12522 -0.0979654 53
-0.841201 -0.279511 -0.0743695 53
-0.820756 -0.124369 -0.154278 50
-0.824784 -0.274406 -0.132333 47
-0.824962 -0.124429 -0.214033 50
-0.818546 -0.273201 -0.190919 45
-7.13753 -1.06559 1.65538 14
-7.2955 -1.08913 1.16014 39
-7.02245 -1.04966 0.618152 1
-1.70015 -0.567118 0.0921113 49
-0.664044 -0.100287 -0.0334753 55
-1.69527 -0.564824 -0.0305853 53
-0.822279 -0.123417 -0.0976611 53
-0.836966 -0.276454 -0.0739346 53
-0.825827 -0.123655 -0.15523 52
-0.822921 -0.272177 -0.131941 49
-0.8204 -0.122285 -0.21274 49
-0.812099 -0.269432 -0.189235 45
-7.07326 -1.01692 1.6391 24
-7.02491 -1.01121 1.11604 1
-7.01059 -1.01039 0.616627 1
-1.69362 -0.555072 0.0915879 49
-0.662106 -0.0963388 -0.033344 55
-1.70058 -0.556724 -0.030629 53
-0.822913 -0.11911 -0.0976611 53
-0.836085 -0.271141 -0.0737171 53
-0.819174 -0.118289 -0.153802 50
-0.826679 -0.268641 -0.132333 49
-0.818638 -0.117648 -0.212093 50
-0.81581 -0.265944 -0.189796 45
-7.07503 -1.00457 1.6391 27
-7.02911 -0.999298 1.11643 1
-7.01235 -0.998156 0.616627 1
-1.69696 -0.552895 0.0917188 49
-0.667217 -0.0958831 -0.0336066 53
-1.6968 -0.552195 -0.0305417 53
-0.820663 -0.117326 -0.0973569 53
-0.834191 -0.268904 -0.0734997 53
-0.82181 -0.117202 -0.154278 50
-0.822456 -0.265654 -0.13155 49
-0.816471 -0.115741 -0.211447 47
-0.811647 -0.262992 -0.188673 44
-7.0707 -0.96496 1.63685 26
-7.02218 -0.959584 1.11448 1
-7.01024 -0.959189 0.615973 1
-7.0298 -2.26958 0.901464 1
-1.69755 -0.542939 0.0915879 49
-0.670183 -0.0927254 -0.0337378 55
-1.69739 -0.542239 -0.0304981 53
-0.818827 -0.112551 -0.0970526 52
-0.835587 -0.264533 -0.0734997 53
-0.822432 -0.112754 -0.154278 52
-0.823881 -0.2612 -0.13155 49
-0.821852 -0.112109 -0.21274 50
-0.815375 -0.259348 -0.189235 45
-7.06497 -0.952877 1.63517 26
-7.02139 -0.946997 1.11409 1
-6.94672 -2.23998 1.41072 1
-7.00203 -0.945621 0.615102 1
-7.05029 -2.26263 0.903594 1
-3.11121 -0.420391 0.0541897 35
-1.69849 -0.539975 0.0915879 49
-0.665395 -0.09089 -0.0334753 55
-1.68881 -0.536225 -0.0303236 52
-0.826401 -0.11211 -0.0979654 53
-0.833676 -0.262313 -0.0732822 53
-0.820195 -0.110993 -0.153802 50
-0.824336 -0.259762 -0.13155 47
-0.819653 -0.110357 -0.212093 50
-0.813508 -0.257177 -0.188673 45
-7.06986 -0.915872 1.63517 26
-6.97037 -2.22207 1.94831 1
-7.0212 -0.910812 1.11331 1
-7.23631 -2.2932 1.46743 42
-7.0092 -0.910489 0.61532 1
-7.33848 -2.31441 0.93919 39
-3.11082 -0.404317 0.0541461 30
-1.7012 -0.531372 0.0915879 50
-0.665862 -0.0874048 -0.0334753 55
-1.69388 -0.528421 -0.0303672 53
-0.822035 -0.107292 -0.0973569 53
-0.830287 -0.256448 -0.0728473 53
-0.818312 -0.106528 -0.153325 50
-0.823286 -0.254843 -0.131158 47
-0.822597 -0.106513 -0.21274 49
-0.810154 -0.251584 -0.18755 44
-7.06903 -0.903223 1.63461 27
-6.99265 -2.21575 1.95348 1
-7.01543 -0.897617 1.11214 1
-7.23602 -2.27782 1.46648 38
-7.01078 -0.898254 0.61532 1
-7.31647 -2.29342 0.935843 32
-3.11159 -0.398344 0.0541461 18
-1.69975 -0.527655 0.0914571 50
-0.658584 -0.085296 -0.0330815 55
-1.69719 -0.52621 -0.0304108 55
-0.822221 -0.105857 -0.0973569 55
-0.828357 -0.254255 -0.0726299 53
-0.818497 -0.105099 -0.153325 52
-0.823729 -0.253405 -0.131158 47
-0.818007 -0.10433 -0.211447 49
-0.812916 -0.250902 -0.188112 47
-7.0714 -0.864668 1.63404 27
-7.24893 -2.25406 2.02197 36
-7.02754 -0.860546 1.11331 1
-7.23612 -2.23627 1.4641 32
-7.01059 -0.859704 0.614884 1
-7.33114 -2.25453 0.936147 33
-3.10619 -0.381137 0.0540152 24
-1.69542 -0.51625 0.0910646 50
-0.663978 -0.0824516 -0.033344 56
-1.70001 -0.51702 -0.0304108 53
-0.825245 -0.101706 -0.0976611 55
-0.829677 -0.249914 -0.0726299 53
-0.819053 -0.100669 -0.153325 52
-0.822685 -0.248362 -0.130767 49
-0.818542 -0.100046 -0.211447 49
-0.814261 -0.2465 -0.188112 47
-7.07033 -0.853268 1.63348 27
-7.23671 -2.2364 2.01745 33
-7.01662 -0.848027 1.11136 1
-7.23063 -2.22075 1.46219 32
-7.00466 -0.846572 0.61423 1
-7.32044 -2.23865 0.934322 32
-3.10933 -0.376014 0.0540588 27
-1.69623 -0.513586 0.0910646 50
-0.659164 -0.0806962 -0.0330815 55
-1.69135 -0.511134 -0.0302363 53
-0.82294 -0.100114 -0.0973569 53
-0.830112 -0.248466 -0.0726299 53
-0.816791 -0.0989486 -0.152849 52
-0.820756 -0.246203 -0.130375 49
-0.821114 -0.0989018 -0.212093 50
-0.816976 -0.245936 -0.188673 47
-7.07228 -0.815957 1.63292 27
-7.23638 -2.19623 2.01422 33
-7.02342 -0.81156 1.11175 1
-7.23473 -2.182 1.46076 32
-7.00638 -0.810822 0.614012 1
-7.1277 -2.13882 0.908157 1
-3.11119 -0.360271 0.0540588 30
-1.69889 -0.504698 0.0910646 50
-0.662057 -0.0775289 -0.0332127 55
-1.69152 -0.501849 -0.0301927 53
-0.816057 -0.0949559 -0.0964442 55
-0.824244 -0.241971 -0.0719775 53
-0.81972 -0.0950919 -0.153325 52
-0.819669 -0.241192 -0.129984 49
-0.819205 -0.094472 -0.211447 50
-0.811256 -0.239545 -0.186989 47
-7.06643 -0.802789 1.63124 26
-7.23558 -2.1822 2.01293 33
-7.01746 -0.798464 1.11058 1
-7.22481 -2.16387 1.4579 30
-7.00036 -0.797748 0.613359 1
-7.31687 -2.1818 0.931888 32
-3.10939 -0.354016 0.0540152 29
-1.69977 -0.501732 0.0910646 50
-0.659711 -0.0760924 -0.0330815 58
-1.69239 -0.498896 -0.0301927 56
-0.821153 -0.0940881 -0.0970526 55
-0.819891 -0.239111 -0.0715426 52
-0.819884 -0.0936611 -0.153325 52
-0.822455 -0.240467 -0.130375 49
-0.819384 -0.0928991 -0.211447 50
-0.811673 -0.238129 -0.186989 45
-7.06582 -0.764022 1.63011 27
-7.24034 -2.14096 2.01099 33
-7.01186 -0.759423 1.10902 1
-7.23133 -2.12462 1.45695 33
-7.27942 -0.78962 0.637544 36
-7.3238 -2.14079 0.931279 32
-3.10872 -0.337462 0.0539716 26
-1.69767 -0.491127 0.0908029 50
-0.655136 -0.0721014 -0.0328189 56
-1.69027 -0.488332 -0.0301054 56
-0.811781 -0.0885839 -0.0958357 55
-0.828304 -0.236909 -0.0721949 53
-0.810618 -0.0881788 -0.151421 52
-0.823703 -0.236157 -0.130375 49
-0.81986 -0.0886075 -0.211447 50
-0.812949 -0.233734 -0.186989 47
-7.07428 -0.753695 1.6318 27
-7.2348 -2.12559 2.0084 32
-7.0155 -0.74867 1.10941 1
-7.22561 -2.10924 1.45504 33
-7.00094 -0.747107 0.612923 1
-7.31286 -2.12512 0.929454 32
-3.10433 -0.331507 0.0538843 21
-1.69604 -0.487763 0.090672 50
-0.657744 -0.0712214 -0.0329502 58
-1.69592 -0.486773 -0.0301927 55
-0.811919 -0.0873087 -0.0958357 55
-0.82154 -0.233381 -0.0715426 52
-0.813211 -0.0870209 -0.151897 52
-0.821743 -0.23403 -0.129984 49
-0.815209 -0.0866741 -0.210153 50
-0.810977 -0.231774 -0.186427 44
-6.84787 -0.693376 1.57845 1
-7.2385 -2.08693 2.00647 32
-7.0095 -0.710932 1.10785 1
-7.23383 -2.07197 1.45457 35
-7.28214 -0.739802 0.637326 36
-7.32627 -2.08748 0.929758 32
-3.10348 -0.315538 0.0538407 17
-1.69617 -0.478192 0.0905412 50
-0.660591 -0.0680271 -0.0330815 55
-1.69355 -0.476815 -0.0301054 59
-0.817303 -0.0835527 -0.0964442 56
-0.825147 -0.229758 -0.07176 52
-0.813641 -0.0829038 -0.151897 53
-0.820582 -0.229047 -0.129592 49
-0.818041 -0.0827859 -0.2108 50
-0.812179 -0.227524 -0.186427 45
-6.8515 -0.681664 1.57901 1
-7.23517 -2.07229 2.00453 33
-7.0009 -0.697719 1.10629 1
-7.22835 -2.05538 1.45266 33
-7.29086 -0.727832 0.63798 32
-7.31081 -2.06927 0.927324 33
-3.11155 -0.310321 0.0539716 14
-1.6922 -0.473872 0.0902795 50
-0.663193 -0.0671202 -0.0332127 56
-1.69438 -0.473858 -0.0301054 74
-0.817448 -0.0821261 -0.0964442 56
-0.81596 -0.225608 -0.0708902 52
-0.81867 -0.0819643 -0.152849 52
-0.820981 -0.227614 -0.129592 49
-0.815794 -0.0809808 -0.210153 50
-0.810232 -0.22544 -0.185866 47
-6.85023 -0.644129 1.57789 1
-7.24395 -2.03246 2.00388 33
-6.99474 -0.658906 1.10472 1
-7.23665 -2.01685 1.45218 33
-7.27981 -0.686973 0.636673 36
-7.32668 -2.03102 0.927933 33
-3.0982 -0.292621 0.0537098 12
-1.69955 -0.466043 0.0905412 52
-0.653593 -0.062714 -0.0326876 56
-1.70174 -0.466018 -0.0301927 90
-0.812939 -0.0772411 -0.0958357 55
-0.81953 -0.221998 -0.0711077 52
-0.814214 -0.0770794 -0.151897 52
-0.822161 -0.223312 -0.129592 50
-0.813803 -0.0764865 -0.209507 50
-0.81144 -0.221053 -0.185866 47
-6.93614 -0.6412 1.59755 1
-7.23586 -2.01657 2.00065 33
-7.27607 -0.673823 1.14921 39
-7.22597 -2.00028 1.44932 33
-7.28596 -0.674724 0.637109 36
-7.3179 -2.0162 0.926412 33
-3.09621 -0.286983 0.0536661 11
-1.69787 -0.462709 0.0904104 53
-0.656188 -0.0618021 -0.0328189 56
-1.69532 -0.461059 -0.0300618 90
-0.810588 -0.0757374 -0.0955314 55
-0.815114 -0.219246 -0.0706728 50
-0.811903 -0.0754353 -0.151421 52
-0.82017 -0.221221 -0.129201 49
-0.81634 -0.0752836 -0.210153 50
-0.811786 -0.219778 -0.185866 47
-7.07289 -0.616481 1.62843 1
-7.23665 -1.97737 1.99806 33
-7.00644 -0.611923 1.1059 1
-7.2289 -1.96174 1.44789 33
-7.2744 -0.636539 0.635801 36
-7.32117 -1.97591 0.925499 33
-3.09763 -0.271308 0.0536661 11
-1.69304 -0.451862 0.0900178 52
-0.656492 -0.05848 -0.0328189 56
-1.6928 -0.451172 -0.0299745 86
-0.813446 -0.0717058 -0.0958357 56
-0.806594 -0.212524 -0.069803 52
-0.814719 -0.0715355 -0.151897 52
-0.821317 -0.216923 -0.129201 49
-0.811898 -0.0707399 -0.20886 50
-0.810575 -0.214886 -0.185304 47
-7.08113 -0.605992 1.63011 1
-7.23077 -1.9622 1.99548 33
-7.0075 -0.599693 1.1059 1
-7.22994 -1.94848 1.44742 35
-7.28046 -0.624266 0.636237 36
-7.31263 -1.95991 0.923978 33
-3.09311 -0.265476 0.0535789 11
-1.69382 -0.448906 0.0900178 52
-0.649131 -0.0566983 -0.0324251 55
-1.696 -0.448863 -0.0300181 82
-0.811097 -0.0700766 -0.0955314 56
-0.80937 -0.21176 -0.0700204 50
-0.812397 -0.0699072 -0.151421 53
-0.819309 -0.214849 -0.128809 49
-0.816833 -0.0697252 -0.210153 50
-0.815653 -0.214739 -0.186427 47
-7.06973 -0.566506 1.62674 1
-7.23395 -1.92245 1.99354 33
-6.99823 -0.562008 1.10394 1
-7.22819 -1.90746 1.44503 33
-7.27618 -0.585539 0.635583 36
-7.32039 -1.92097 0.923673 33
-3.09695 -0.249477 0.0536225 11
-1.68891 -0.438131 0.0896253 52
-0.654405 -0.0535823 -0.0326876 56
-1.68866 -0.437443 -0.0298436 71
-0.813927 -0.0660252 -0.0958357 55
-0.812913 -0.208009 -0.0702379 50
-0.815199 -0.065846 -0.151897 53
-0.818035 -0.209929 -0.128418 49
-0.81478 -0.0652587 -0.209507 50
-0.809699 -0.208601 -0.184742 47
-7.078 -0.554736 1.62843 1
-7.23262 -1.90858 1.99225 33
-6.99428 -0.549407 1.10316 1
-7.22471 -1.89171 1.4436 35
-7.27719 -0.572839 0.635583 35
-7.31413 -1.90568 0.922457 33
-3.08746 -0.242751 0.053448 11
-1.68725 -0.434553 0.0894945 52
-0.659476 -0.0528284 -0.0329502 58
-1.68458 -0.433236 -0.0297564 71
-0.811567 -0.0644124 -0.0955314 55
-0.810864 -0.205963 -0.0700204 50
-0.815313 -0.0644231 -0.151897 52
-0.8184 -0.208501 -0.128418 49
-0.817312 -0.0638784 -0.210153 50
-0.812419 -0.207805 -0.185304 49
-7.07118 -0.515725 1.62618 1
-7.2218 -1.86398 1.98643 32
-7.00208 -0.511916 1.10394 1
-7.23214 -1.85325 1.44313 35
-7.2777 -0.533276 0.635365 36
-7.31712 -1.86423 0.921544 33
-3.11362 -0.2284 0.0538843 8
-1.68716 -0.424802 0.0893636 52
-0.652273 -0.0488313 -0.0325564 56
-1.67479 -0.421035 -0.0295382 15
-0.816853 -0.0603779 -0.0961399 55
-0.807104 -0.200486 -0.0695855 50
-0.815649 -0.0600109 -0.151897 53
-0.814731 -0.20285 -0.127635 49
-0.812817 -0.0592553 -0.20886 50
-0.811171 -0.202801 -0.184742 47
-7.07684 -0.504963 1.62731 1
-7.2227 -1.85077 1.98579 32
-6.99064 -0.498818 1.10199 1
-7.21634 -1.83577 1.43931 33
-7.27365 -0.520219 0.63493 36
-7.31074 -1.84902 0.920327 33
-1.6879 -0.421857 0.0893636 52
-0.657338 -0.0480463 -0.0328189 58
-0.807056 -0.0582546 -0.094923 56
-0.812282 -0.200297 -0.0700204 49
-0.810856 -0.058244 -0.150945 52
-0.817477 -0.202033 -0.128026 49
-0.815328 -0.0580038 -0.209507 50
-0.809163 -0.200785 -0.184181 47
-7.0819 -0.466826 1.62787 1
-7.22058 -1.80998 1.98256 33
-6.99316 -0.462208 1.10199 1
-7.21633 -1.79558 1.43741 33
-7.27628 -0.482127 0.63493 35
-7.3131 -1.80893 0.919414 35
-1.68766 -0.412414 0.0892328 53
-0.652598 -0.0442764 -0.0325564 58
-0.812303 -0.0543509 -0.0955314 56
-0.808484 -0.194846 -0.0695855 49
-0.81115 -0.0539975 -0.150945 52
-0.816093 -0.197299 -0.127635 49
-0.815621 -0.0537339 -0.209507 52
-0.814932 -0.197722 -0.185304 47
-7.08262 -0.455702 1.62787 1
-7.2167 -1.79562 1.98062 32
-6.99388 -0.451223 1.10199 1
-7.21945 -1.78299 1.43741 35
-7.27711 -0.469427 0.63493 33
-7.31352 -1.79684 0.91911 33
-1.68831 -0.409762 0.0892328 53
-0.657658 -0.0434561 -0.0328189 58
-0.812387 -0.0530749 -0.0955314 56
-0.808823 -0.193435 -0.0695855 49
-0.816142 -0.0528908 -0.151897 53
-0.816436 -0.195875 -0.127635 49
-0.810893 -0.0520096 -0.208214 50
-0.812876 -0.195857 -0.184742 47
-6.96818 -0.411737 1.60091 1
-7.22101 -1.75793 1.97932 33
-6.99368 -0.414451 1.1016 1
-7.20692 -1.74122 1.43312 33
-7.27442 -0.432294 0.634494 33
-7.31076 -1.75562 0.917589 35
-1.688 -0.400334 0.089102 53
-0.655384 -0.0398657 -0.0326876 58
-1.56133 -0.369352 -0.0274003 17
-0.807699 -0.0485314 -0.094923 56
-0.804981 -0.188036 -0.0691506 47
-0.811499 -0.048475 -0.150945 53
-0.812649 -0.190443 -0.126852 49
-0.815968 -0.048181 -0.209507 50
-0.81389 -0.191598 -0.184742 47
-6.86674 -0.393739 1.57733 1
-7.21937 -1.74418 1.97803 33
-7.27544 -0.418351 1.14609 38
-7.20547 -1.72624 1.43217 33
-7.28262 -0.420026 0.635147 33
-7.30416 -1.74055 0.916372 33
-1.68384 -0.39623 0.0888403 53
-0.647975 -0.0382959 -0.0322938 59
-1.55954 -0.366048 -0.0273566 20
-0.81026 -0.0472619 -0.0952272 56
-0.811582 -0.0470586 -0.150945 52
