# .PCD v0.7 - Point Cloud Data file format
VERSION 0.7
FIELDS x y z intensity
SIZE 4 4 4 4
TYPE F F F F
COUNT 1 1 1 1
WIDTH 1546
HEIGHT 1
VIEWPOINT 0 0 0 1 0 0 0
POINTS 1546
DATA ascii
0.201995 -2.28646 -0.521097 45
-0.511002 -5.70777 1.31285 27
-0.508579 -5.6918 0.897516 36
0.20046 -2.296 0.44085 2
-0.200214 -2.25007 0.194575 15
-0.203571 -2.28305 0.0393988 93
0.196045 -2.29569 0.118933 55
-0.203721 -2.28026 -0.118542 90
0.194655 -2.29357 -0.0395733 59
-0.204175 -2.27646 -0.275946 59
0.195625 -2.3002 -0.198536 52
-0.20535 -2.27624 -0.436644 52
0.196573 -2.29292 -0.359413 47
-0.206277 -2.26906 -0.600716 59
0.198619 -2.2892 -0.521659 45
-0.538576 -5.68077 1.30724 17
-0.536508 -5.66939 0.894394 26
-0.212069 -2.25398 0.195011 15
-0.214888 -2.2795 0.0393552 90
0.184022 -2.29668 0.118933 55
-0.21526 -2.2792 -0.118542 90
0.182636 -2.28954 -0.0394861 59
-0.216327 -2.27783 -0.27625 59
0.183573 -2.2962 -0.198101 50
-0.217103 -2.27762 -0.43712 52
0.184361 -2.29146 -0.359021 47
-0.217991 -2.27039 -0.601362 59
0.18663 -2.29021 -0.521659 45
-0.543983 -5.64354 1.29881 14
-0.543552 -5.63895 0.889711 15
-0.215764 -2.25113 0.194793 15
-0.219106 -2.28161 0.0393988 90
0.180013 -2.297 0.118933 56
-0.219237 -2.27882 -0.118542 90
0.17884 -2.29235 -0.0395297 61
-0.221024 -2.28486 -0.277163 59
0.179565 -2.29651 -0.198101 50
-0.220601 -2.27235 -0.436168 53
0.180561 -2.29424 -0.359413 47
-0.221954 -2.27001 -0.601362 64
0.182235 -2.28568 -0.520536 47
-0.570289 -5.58952 1.28702 14
-0.567782 -5.57451 0.879956 23
-0.228193 -2.25241 0.195011 15
-0.231194 -2.27791 0.0393552 90
0.167583 -2.29794 0.118933 56
-0.231818 -2.28008 -0.118673 90
0.166062 -2.2883 -0.0394424 62
-0.232114 -2.27129 -0.275642 59
0.167323 -2.29994 -0.198319 55
-0.233144 -2.27356 -0.436644 52
0.168545 -2.29515 -0.359413 49
-0.233983 -2.26637 -0.600716 59
0.170051 -2.28906 -0.521097 47
-0.575544 -5.5547 1.27916 15
-0.580868 -5.61537 0.886589 18
-0.232124 -2.25201 0.195011 14
-0.235427 -2.27999 0.0393988 90
0.163607 -2.29322 0.118672 56
-0.235797 -2.27967 -0.118673 86
0.16225 -2.29107 -0.0394861 68
-0.236454 -2.27832 -0.276554 58
0.162945 -2.29526 -0.197884 55
-0.237111 -2.27315 -0.436644 52
0.164539 -2.29544 -0.359413 49
-0.237938 -2.26596 -0.600716 61
0.166274 -2.28689 -0.520536 45
-0.612287 -5.62184 1.29544 14
-0.607051 -5.58279 0.881907 14
-0.24298 -2.24585 0.194575 14
-0.246693 -2.27628 0.0393552 90
0.151428 -2.29155 0.118541 59
-0.247332 -2.27845 -0.118673 82
0.150652 -2.29187 -0.0394861 68
-0.24838 -2.27706 -0.276554 58
0.150988 -2.29108 -0.197449 55
-0.249151 -2.2768 -0.437596 52
0.152181 -2.29135 -0.35863 47
-0.250467 -2.27433 -0.603302 59
0.154297 -2.28773 -0.520536 45
-0.614949 -5.56518 1.28253 15
-0.615707 -5.57191 0.880346 26
-0.247721 -2.25285 0.195229 14
-0.250666 -2.27585 0.0393552 90
0.147759 -2.2968 0.118803 61
-0.250758 -2.27305 -0.118411 79
0.146651 -2.29213 -0.0394861 74
-0.25153 -2.26922 -0.275642 56
0.147318 -2.29631 -0.197884 56
-0.252851 -2.27392 -0.43712 52
0.148346 -2.29407 -0.359021 49
-0.253896 -2.26909 -0.602009 59
0.150139 -2.28557 -0.519974 45
-0.621706 -5.36093 1.23592 1
-0.25894 -2.24657 0.194793 14
-0.262291 -2.27202 0.0393115 90
0.135731 -2.29754 0.118803 62
-0.26363 -2.27662 -0.118673 79
0.134496 -2.29037 -0.0394424 76
-0.263695 -2.27034 -0.275946 58
0.135043 -2.29956 -0.198101 58
-0.264754 -2.27257 -0.43712 52
0.136332 -2.29482 -0.359021 49
-0.265208 -2.26293 -0.600716 59
0.138475 -2.29119 -0.521097 45
-0.659325 -5.59935 1.29151 20
-0.262279 -2.24117 0.194357 14
-0.267238 -2.27648 0.0393988 90
0.131573 -2.29528 0.118672 67
-0.267603 -2.27616 -0.118673 77
0.130646 -2.29309 -0.0394861 77
-0.268242 -2.2748 -0.276554 56
0.130736 -2.29482 -0.197666 58
-0.26901 -2.27454 -0.437596 52
0.132032 -2.29012 -0.358238 49
-0.270701 -2.27201 -0.603302 59
0.134032 -2.28413 -0.519413 45
-0.686326 -5.5691 1.28534 17
-0.687122 -5.58346 0.883468 27
-0.274401 -2.23972 0.194357 14
-0.278542 -2.27009 0.0393115 90
0.119287 -2.29845 0.118803 68
-0.278293 -2.26482 -0.118148 68
0.118103 -2.29127 -0.0394424 80
-0.28024 -2.27085 -0.27625 56
0.118986 -2.30045 -0.198101 59
-0.281615 -2.27549 -0.438073 52
0.120442 -2.29818 -0.359413 49
-0.281994 -2.26577 -0.602009 59
0.122076 -2.29212 -0.521097 47
-0.695073 -5.56802 1.28534 17
0.31201 -5.65066 1.50501 8
-0.694055 -5.56767 0.881126 27
-0.278618 -2.24171 0.194575 14
-0.282814 -2.27208 0.0393552 86
0.115284 -2.29116 0.11841 71
-0.282866 -2.26928 -0.118411 65
0.113974 -2.28898 -0.0393988 83
-0.284425 -2.27534 -0.276859 58
0.114582 -2.29319 -0.197449 59
-0.285279 -2.27256 -0.437596 52
0.116171 -2.29345 -0.35863 50
-0.286556 -2.27006 -0.603302 59
0.118082 -2.28501 -0.519413 47
-0.723902 -5.56189 1.28477 14
0.289065 -5.76311 1.53474 4
-0.723835 -5.56886 0.881907 17
0.280371 -5.79021 1.11904 14
-0.28964 -2.2378 0.194357 14
0.270282 -5.74797 0.701274 15
-0.293987 -2.26814 0.0393115 83
0.103286 -2.29173 0.11841 74
-0.294671 -2.27029 -0.118542 64
0.102504 -2.29202 -0.0394424 90
-0.295046 -2.26397 -0.275642 56
0.103208 -2.29872 -0.197884 59
-0.296778 -2.27108 -0.437596 52
0.104278 -2.2965 -0.359021 49
-0.29741 -2.2638 -0.602009 59
0.106353 -2.29046 -0.520536 45
-0.71319 -5.41342 1.25052 1
0.2796 -5.77567 1.53797 20
-0.704791 -5.3497 0.847177 1
0.269682 -5.77843 1.11666 23
-0.292894 -2.23235 0.193922 12
0.253506 -5.60218 0.683324 24
-0.298927 -2.27505 0.0394424 80
0.099173 -2.28941 0.118279 74
-0.298961 -2.27225 -0.118673 64
0.0982789 -2.2872 -0.0393552 90
-0.30063 -2.27575 -0.277163 55
0.0988579 -2.29143 -0.197231 61
-0.300741 -2.27056 -0.437596 52
0.100157 -2.29421 -0.35863 50
-0.301681 -2.26567 -0.602656 58
0.102013 -2.28334 -0.518851 45
-0.77267 -5.6291 1.30162 15
0.249992 -5.79153 1.54184 14
-0.772775 -5.63706 0.893613 27
0.231651 -5.59587 1.08092 27
-0.304578 -2.23079 0.193922 12
0.223866 -5.596 0.682411 29
-0.310835 -2.27346 0.0394424 77
0.087485 -2.29738 0.118672 79
-0.310569 -2.26565 -0.118411 61
0.0866001 -2.29518 -0.0394861 90
-0.312202 -2.27169 -0.276859 56
0.0865578 -2.29442 -0.197449 61
-0.312962 -2.27139 -0.438073 50
0.0880433 -2.29224 -0.358238 50
-0.313207 -2.26167 -0.602009 59
0.0900565 -2.28385 -0.518851 47
-0.785855 -5.65187 1.30724 18
0.2304 -5.56756 1.48175 14
-0.786015 -5.66016 0.897516 33
0.220116 -5.57669 1.0771 26
-0.309157 -2.23519 0.194357 12
0.214875 -5.61622 0.684845 20
-0.315199 -2.27286 0.0394424 73
0.0832835 -2.29254 0.11841 83
-0.315558 -2.27253 -0.118804 64
0.0823089 -2.28783 -0.0393552 90
-0.315823 -2.26868 -0.276554 53
0.0824584 -2.29208 -0.197231 64
-0.317267 -2.27327 -0.438549 52
0.0838512 -2.28745 -0.357455 49
-0.318223 -2.26584 -0.603302 58
0.0858765 -2.27913 -0.517728 47
-0.781159 -5.40403 1.25052 1
0.199918 -5.55907 1.47916 15
-0.814506 -5.64116 0.895174 29
0.192118 -5.6121 1.08378 14
-0.321246 -2.23348 0.194357 11
0.186825 -5.68674 0.693364 27
-0.32638 -2.26623 0.0393552 71
0.0710431 -2.29795 0.118672 88
-0.326736 -2.2659 -0.118542 62
0.0700925 -2.29324 -0.0394424 90
-0.328093 -2.26694 -0.276554 55
0.0706194 -2.29746 -0.197666 64
-0.329208 -2.26909 -0.438073 52
0.0718029 -2.29774 -0.359021 50
-0.329383 -2.25937 -0.602009 59
0.0737952 -2.28687 -0.519413 47
-0.823175 -5.63178 1.30387 15
0.190723 -5.57389 1.48304 12
-0.821489 -5.62018 0.892053 27
0.183959 -5.66148 1.09331 15
-0.325504 -2.23538 0.194575 12
0.177454 -5.70441 0.695493 38
-0.331059 -2.2706 0.0394424 70
0.0667984 -2.29059 0.118279 88
-0.331415 -2.27027 -0.118804 59
0.0658583 -2.28587 -0.0393115 90
-0.33241 -2.26882 -0.276859 55
0.0663774 -2.29011 -0.197014 64
-0.333526 -2.27094 -0.438549 52
0.0674805 -2.28799 -0.357455 50
-0.334742 -2.26834 -0.604595 59
0.0696448 -2.28212 -0.51829 47
-0.851072 -5.61039 1.29994 15
0.16377 -5.64965 1.50307 14
-0.849052 -5.6036 0.890101 26
0.155072 -5.68935 1.09855 26
-0.33683 -2.23119 0.194357 11
0.147451 -5.7003 0.694885 35
-0.343318 -2.27131 0.0394861 67
0.054869 -2.2934 0.11841 90
-0.343297 -2.2685 -0.118804 61
0.054017 -2.29118 -0.0393988 90
-0.344285 -2.26705 -0.276859 53
0.0545142 -2.2954 -0.197449 68
-0.34467 -2.26431 -0.437596 52
0.0559646 -2.29077 -0.357847 52
-0.345515 -2.2594 -0.602656 59
0.0578282 -2.28733 -0.519413 47
-0.858035 -5.597 1.29713 15
0.154723 -5.6789 1.51083 20
-0.855981 -5.59005 0.88815 26
0.1454 -5.69943 1.10046 23
-0.341479 -2.23552 0.194793 11
0.138123 -5.68565 0.693059 29
-0.347282 -2.27071 0.0394861 61
0.0512665 -2.29348 0.11841 90
-0.347636 -2.27037 -0.118936 59
0.0498985 -2.28627 -0.0393115 90
-0.348979 -2.27386 -0.277771 55
0.050388 -2.29052 -0.197014 70
-0.349747 -2.27098 -0.439025 52
0.0519052 -2.2884 -0.357455 52
-0.351682 -2.27311 -0.606535 59
0.0541723 -2.28498 -0.518851 47
-0.885417 -5.5804 1.29432 15
0.126368 -5.69651 1.51535 17
-0.883303 -5.5733 0.886199 24
0.116029 -5.67555 1.09569 17
-0.35279 -2.23376 0.194793 11
0.107857 -5.66148 0.690017 23
-0.359946 -2.27632 0.039617 59
0.0392092 -2.29122 0.118279 90
-0.359911 -2.27098 -0.119067 58
0.0384203 -2.29149 -0.0393988 90
-0.36049 -2.26956 -0.277467 53
0.0383942 -2.29075 -0.197014 71
-0.360849 -2.26676 -0.438549 50
0.0398742 -2.28617 -0.357064 52
-0.362417 -2.26653 -0.605242 58
0.0421573 -2.2828 -0.51829 47
-0.892836 -5.56442 1.29095 15
0.115551 -5.65567 1.50436 14
-0.852323 -5.31818 0.845616 1
0.104657 -5.65123 1.09092 14
-0.357082 -2.2356 0.195011 11
0.0972553 -5.62196 0.685149 29
-0.363919 -2.27316 0.0395733 58
0.0352102 -2.29129 0.118279 90
-0.36427 -2.27281 -0.119198 56
0.0344208 -2.29155 -0.0393988 90
-0.364055 -2.26647 -0.277163 52
0.034396 -2.29081 -0.197014 70
-0.365196 -2.26855 -0.439025 50
0.0358401 -2.28377 -0.356672 52
-0.367155 -2.26822 -0.605889 56
0.038173 -2.28287 -0.51829 47
-0.925327 -5.57393 1.29432 14
0.0845657 -5.63207 1.4979 14
-0.929635 -5.60581 0.892443 17
0.0745107 -5.61244 1.0833 18
-0.369988 -2.23855 0.195447 11
0.0668363 -5.62241 0.685149 30
-0.374178 -2.26136 0.0393988 55
0.0228127 -2.29145 0.118279 90
-0.376985 -2.2758 -0.119461 56
0.0220219 -2.29171 -0.0393988 90
-0.376313 -2.26447 -0.277163 50
0.0223714 -2.28847 -0.196796 73
-0.37787 -2.26896 -0.439501 50
0.0235444 -2.28887 -0.357455 52
-0.379826 -2.27102 -0.607182 58
0.0257556 -2.27817 -0.517167 47
-0.940131 -5.6085 1.30274 15
0.074053 -5.58391 1.48498 14
-0.945959 -5.64315 0.898686 20
0.0647455 -5.61501 1.08378 21
-0.373894 -2.2379 0.195447 11
0.0572415 -5.64237 0.687583 30
-0.37978 -2.27057 0.0395733 56
0.0188391 -2.29398 0.11841 90
-0.379715 -2.26775 -0.119067 56
0.0180221 -2.29174 -0.0393988 90
-0.381089 -2.2687 -0.277771 52
0.0184024 -2.291 -0.197014 76
-0.381829 -2.2683 -0.439501 52
0.0195233 -2.28644 -0.357064 52
-0.384597 -2.27512 -0.608475 58
0.0218363 -2.28308 -0.51829 47
-0.975458 -5.63214 1.30948 15
0.0448578 -5.58905 1.48627 15
-0.981817 -5.67461 0.90454 26
0.0354851 -5.63491 1.08759 21
-0.385182 -2.23346 0.195229 11
0.0277832 -5.65748 0.689408 30
-0.391236 -2.26608 0.0395297 55
0.00682763 -2.29405 0.11841 90
-0.391583 -2.26574 -0.119067 55
0.00601055 -2.28931 -0.0393552 90
-0.392538 -2.26423 -0.277467 52
0.00639444 -2.28857 -0.196796 77
-0.394122 -2.26869 -0.439977 52
0.0079504 -2.2865 -0.357064 53
-0.395255 -2.26594 -0.606535 58
0.00985044 -2.27829 -0.517167 47
-0.991866 -5.67379 1.31959 23
0.0352067 -5.60361 1.49015 15
-0.996685 -5.70712 0.910003 32
0.0256901 -5.64232 1.08902 23
-0.388221 -2.22788 0.194793 11
0.01899 -5.67985 0.692147 30
-0.39476 -2.26293 0.0394861 53
0.00321543 -2.29156 0.118279 90
-0.396399 -2.26997 -0.11933 55
0.00202237 -2.29181 -0.0393988 92
-0.396523 -2.26606 -0.277771 50
0.00239229 -2.28609 -0.196579 82
-0.398507 -2.27041 -0.440453 50
0.00395969 -2.28651 -0.357064 53
-0.399209 -2.26525 -0.606535 56
0.0062717 -2.2783 -0.517167 47
-1.02286 -5.67571 1.32127 21
0.00686924 -5.61579 1.49338 14
-1.02042 -5.6678 0.90454 21
-0.00286077 -5.66447 1.09331 21
-0.400376 -2.23078 0.195229 9
-0.0107705 -5.69972 0.694581 35
-0.406208 -2.26091 0.0394861 55
-0.00878748 -2.29404 0.11841 90
-0.408327 -2.27039 -0.119461 55
-0.00957227 -2.28929 -0.0393552 96
-0.408383 -2.26395 -0.277771 52
-0.00918341 -2.28856 -0.196796 82
-0.409993 -2.26837 -0.440453 50
-0.00800903 -2.28404 -0.356672 53
-0.411102 -2.26557 -0.607182 56
-0.00565836 -2.28074 -0.517728 47
-1.02523 -5.63815 1.31285 14
-0.0029229 -5.64236 1.50049 14
-1.02323 -5.62714 0.898296 15
-0.0127848 -5.69145 1.09855 23
-0.402931 -2.22273 0.194575 9
-0.0207877 -5.72451 0.697623 38
-0.411497 -2.26757 0.039617 55
-0.0127739 -2.28903 0.118148 90
-0.412736 -2.27213 -0.119592 53
-0.0135678 -2.28927 -0.0393552 96
-0.41278 -2.26567 -0.278076 50
-0.0131594 -2.28356 -0.196362 82
-0.414394 -2.27006 -0.44093 50
-0.0120032 -2.28649 -0.357064 53
-0.415056 -2.26485 -0.607182 58
-0.00963389 -2.27829 -0.517167 47
-1.04995 -5.59642 1.30443 14
-0.0336464 -5.6809 1.51083 15
-1.04638 -5.58269 0.892053 15
-0.0436784 -5.70602 1.10141 27
-0.416328 -2.22786 0.195229 9
-0.051719 -5.71935 0.697014 30
-0.423299 -2.26286 0.0395733 53
-0.0252029 -2.29392 0.11841 90
-0.424102 -2.26495 -0.11933 52
-0.0259769 -2.29167 -0.0393988 97
-0.423654 -2.25609 -0.277163 47
-0.0255596 -2.28844 -0.196796 82
-0.425304 -2.26055 -0.439501 49
-0.023975 -2.28639 -0.357064 53
-0.427753 -2.26495 -0.607829 56
-0.0219787 -2.28064 -0.517728 47
-1.05239 -5.56126 1.29657 14
-0.0436929 -5.70016 1.516 18
-1.05009 -5.55435 0.88776 20
-0.0535533 -5.69612 1.0995 17
-0.419753 -2.22469 0.195011 9
-0.0605817 -5.70685 0.695493 27
-0.427713 -2.26457 0.039617 53
-0.0287277 -2.28639 0.118018 90
-0.428519 -2.26666 -0.119461 52
-0.029949 -2.28912 -0.0393552 97
-0.42905 -2.26518 -0.27838 50
-0.0295537 -2.28839 -0.196796 82
-0.429249 -2.2598 -0.439501 50
-0.0279404 -2.28388 -0.356672 53
-0.431705 -2.26419 -0.607829 56
-0.025539 -2.27817 -0.517167 47
-1.07777 -5.53654 1.29207 15
-0.0723713 -5.68537 1.51212 15
-1.0919 -5.61422 0.898296 21
-0.0819488 -5.66388 1.09331 15
-0.431959 -2.22742 0.195447 9
-0.439169 -2.26238 0.039617 53
-0.040738 -2.2887 0.118148 90
-0.440464 -2.26692 -0.119592 50
-0.0416151 -2.29394 -0.0394424 98
-0.441381 -2.26533 -0.278684 50
-0.0411358 -2.28821 -0.196796 85
-0.442568 -2.26724 -0.441406 50
-0.0399363 -2.28617 -0.357064 53
-0.44316 -2.26198 -0.607829 56
-0.0373974 -2.27313 -0.516044 47
-1.09915 -5.59938 1.30724 14
-0.0819653 -5.66109 1.50566 14
-1.05312 -5.36516 0.858493 1
-0.0915702 -5.64655 1.08997 15
-0.437286 -2.234 0.1961 9
-0.444081 -2.26651 0.0397042 53
-0.0447324 -2.28863 0.118148 90
-0.44442 -2.26614 -0.119592 50
-0.0455743 -2.29136 -0.0393988 98
-0.446294 -2.26943 -0.279293 49
-0.0450855 -2.28565 -0.196579 83
-0.447 -2.26887 -0.441882 50
-0.0438841 -2.28363 -0.356672 53
-0.448047 -2.26594 -0.609122 56
-0.0414429 -2.27794 -0.517167 47
-1.12219 -5.55754 1.29881 14
-0.111196 -5.63885 1.49984 14
-1.07387 -5.32326 0.85264 1
-0.120477 -5.61409 1.08378 15
-0.447991 -2.22679 0.195665 8
-0.0545617 -2.26231 0.273208 9
-0.455943 -2.26416 0.0397042 53
-0.0568283 -2.29335 0.11841 90
-0.457665 -2.2686 -0.119855 50
-0.0575711 -2.29109 -0.0393988 98
-0.457678 -2.26463 -0.278988 49
-0.0575087 -2.28786 -0.196796 86
-0.459362 -2.2689 -0.442358 50
-0.0558405 -2.28337 -0.356672 53
-0.461352 -2.27066 -0.611062 58
-0.0533176 -2.27525 -0.516605 47
-1.13237 -5.55796 1.29937 14
-0.120192 -5.5976 1.48886 14
-0.130592 -5.58441 1.07806 15
-0.453865 -2.23577 0.196536 8
-0.058569 -2.26469 0.273512 11
-0.459789 -2.26083 0.0396606 52
-0.0607089 -2.28826 0.118148 90
-0.460625 -2.26291 -0.119592 49
-0.0614458 -2.28599 -0.0393115 99
-0.46163 -2.26383 -0.278988 50
-0.06144 -2.28526 -0.196579 86
-0.461844 -2.26088 -0.44093 49
-0.0598851 -2.28573 -0.357064 53
-0.465224 -2.26741 -0.610415 58
-0.0572886 -2.27516 -0.516605 47
-1.20541 -5.7568 1.34767 3
-0.150036 -5.57997 1.48433 14
-0.16092 -5.6229 1.08568 15
-0.467485 -2.24059 0.19719 8
-0.070749 -2.26186 0.273208 11
-0.472645 -2.26328 0.0397479 50
-0.0732376 -2.29289 0.11841 90
-0.474004 -2.26779 -0.119986 50
-0.0739642 -2.29062 -0.0393988 99
-0.475402 -2.26858 -0.279901 49
-0.0735542 -2.28989 -0.197014 86
-0.476092 -2.26796 -0.442834 50
-0.0717799 -2.28292 -0.356672 53
-0.477589 -2.2673 -0.611062 56
-0.0695975 -2.27481 -0.516605 47
-1.2215 -5.78826 1.35553 23
-0.161584 -5.64488 1.50178 14
-1.22229 -5.79691 0.930685 20
-0.172253 -5.67413 1.09569 15
-0.470366 -2.2349 0.196754 4
-0.0743018 -2.26175 0.273208 9
-0.476595 -2.26245 0.0397479 50
-0.0769175 -2.29526 0.118541 90
-0.477961 -2.26696 -0.119986 50
-0.077962 -2.29049 -0.0393988 99
-0.478965 -2.26783 -0.279901 49
-0.0774716 -2.28727 -0.196796 90
-0.47903 -2.26232 -0.441882 50
-0.0757642 -2.28279 -0.356672 53
-0.0731707 -2.2747 -0.516605 47
-1.24973 -5.77227 1.35328 14
-0.190153 -5.64399 1.50178 14
-0.481672 -2.23249 0.196754 4
-0.48804 -2.26001 0.0397479 50
-0.0888429 -2.29233 0.11841 90
-0.490353 -2.26687 -0.120117 50
-0.0894616 -2.28756 -0.0393552 99
-0.490306 -2.26287 -0.279597 49
-0.0894466 -2.28683 -0.196796 86
-0.491518 -2.26467 -0.442834 50
-0.0877158 -2.28236 -0.356672 53
-0.0850799 -2.27429 -0.516605 47
-1.24316 -5.69392 1.33531 21
-0.201589 -5.68951 1.51406 17
-1.17421 -5.38294 0.865127 1
-0.486099 -2.23408 0.196972 8
-0.493446 -2.26395 0.0398351 50
-0.0928437 -2.29218 0.11841 90
-0.493775 -2.26357 -0.119986 49
-0.0936477 -2.2924 -0.0394424 99
-0.494255 -2.26201 -0.279597 47
-0.0933413 -2.28418 -0.196579 89
-0.49547 -2.2638 -0.442834 50
-0.0916992 -2.28221 -0.356672 53
-0.0891393 -2.27657 -0.517167 47
-1.27341 -5.68473 1.33475 24
-0.231983 -5.67868 1.51147 14
-0.497635 -2.22899 0.196754 4
-0.504746 -2.2589 0.0397915 49
-0.105353 -2.29413 0.118541 90
-0.505621 -2.26095 -0.119986 49
-0.106049 -2.29186 -0.0394424 99
-0.505942 -2.25688 -0.279293 49
-0.105519 -2.28864 -0.197014 88
-0.507172 -2.2587 -0.442358 50
-0.10426 -2.28661 -0.357455 53
-0.101662 -2.28092 -0.51829 47
-0.237261 -5.56727 1.48175 12
-0.503718 -2.23783 0.197626 8
-0.509239 -2.26045 0.0398351 49
-0.10913 -2.28896 0.118279 90
-0.510117 -2.2625 -0.120117 49
-0.109935 -2.28918 -0.0393988 99
-0.511526 -2.26325 -0.280205 33
-0.109399 -2.28596 -0.196796 88
-0.509484 -2.25063 -0.44093 8
-0.108139 -2.28396 -0.357064 53
-0.105428 -2.27587 -0.517167 47
-0.266748 -5.57319 1.48369 15
-0.513184 -2.22546 0.196754 4
-0.517686 -2.24315 0.0395733 39
-0.121367 -2.29334 0.118541 90
-0.518013 -2.24278 -0.119198 11
-0.122047 -2.29106 -0.0394424 99
-0.522247 -2.25571 -0.279597 33
-0.121494 -2.28785 -0.197014 86
-0.521261 -2.24793 -0.44093 8
-0.119698 -2.28338 -0.357064 53
-0.117463 -2.27772 -0.517728 47
-0.27671 -5.57754 1.48498 14
-0.517633 -2.22699 0.196972 4
-0.29515 -5.61505 0.685149 29
-0.523304 -2.24954 0.0397042 3
-0.124969 -2.29315 0.118541 90
-0.523062 -2.24673 -0.119461 11
-0.126045 -2.29085 -0.0394424 98
-0.525224 -2.25247 -0.279293 3
-0.125356 -2.28515 -0.196796 85
-0.523503 -2.23985 -0.439501 4
-0.123683 -2.28317 -0.357064 53
-0.120792 -2.27267 -0.516605 45
-0.303898 -5.55678 1.47981 15
-0.530053 -2.22918 0.197408 4
-0.331461 -5.73482 0.700057 36
-0.533523 -2.242 0.039617 9
-0.136974 -2.29246 0.118541 90
-0.532687 -2.23677 -0.119067 11
-0.137639 -2.29018 -0.0394424 98
-0.537011 -2.24969 -0.279293 4
-0.137064 -2.28697 -0.197014 86
-0.535978 -2.24194 -0.440453 8
-0.135919 -2.28742 -0.357847 53
-0.13269 -2.27201 -0.516605 47
-0.317348 -5.62375 1.4979 14
-0.332576 -5.71861 1.1057 24
-0.533943 -2.22825 0.197408 9
-0.341178 -5.72928 0.699448 29
-0.535097 -2.23134 0.0394424 9
-0.140679 -2.28724 0.118279 90
-0.538342 -2.24312 -0.119461 11
-0.141486 -2.28744 -0.0393988 98
-0.538609 -2.2391 -0.278076 9
-0.140759 -2.28175 -0.196579 83
-0.541042 -2.24577 -0.441406 9
-0.139474 -2.27979 -0.356672 53
-0.136373 -2.26691 -0.515482 45
-0.35192 -5.70639 1.52052 20
-0.362361 -5.71434 1.10522 20
-0.543225 -2.21575 0.196536 9
-0.367846 -5.67541 0.693059 27
-0.548565 -2.23579 0.0395733 11
-0.152975 -2.29145 0.118541 90
-0.549276 -2.23532 -0.119198 12
-0.153786 -2.29166 -0.0394861 98
-0.549731 -2.23384 -0.277771 8
-0.153425 -2.28593 -0.197014 82
-0.552205 -2.24053 -0.44093 9
-0.151726 -2.28395 -0.357455 53
-0.148856 -2.27589 -0.517728 47
-0.36022 -5.67925 1.51341 15
-0.369856 -5.65976 1.09474 15
-0.550683 -2.22931 0.197844 9
-0.374333 -5.62277 0.68667 21
-0.549847 -2.22261 0.0393552 11
-0.156809 -2.28869 0.11841 90
-0.552576 -2.23194 -0.119067 11
-0.157286 -2.2839 -0.0393552 97
-0.554228 -2.23528 -0.278076 9
-0.157249 -2.28317 -0.196796 82
-0.556707 -2.24194 -0.441406 9
-0.155549 -2.28122 -0.357064 53
-0.152354 -2.26833 -0.516044 45
-0.38914 -5.65071 1.5063 14
-0.396583 -5.61613 1.08663 14
-0.558455 -2.2094 0.196318 9
-0.403341 -5.60086 0.684236 30
-0.560863 -2.21727 0.0393115 11
-0.169189 -2.28781 0.11841 90
-0.561798 -2.21934 -0.118542 11
-0.170181 -2.2905 -0.0394861 97
-0.169559 -2.28729 -0.197231 80
-0.567618 -2.23414 -0.440453 8
-0.167667 -2.28284 -0.357455 52
-0.165309 -2.27719 -0.51829 47
-0.397153 -5.62352 1.49919 12
-0.405859 -5.60808 1.0852 18
-0.567238 -2.22772 0.198061 9
-0.413038 -5.61259 0.685758 29
-0.567206 -2.22598 0.0394861 11
-0.1726 -2.28505 0.118279 90
-0.568144 -2.22803 -0.119067 11
-0.173809 -2.28521 -0.0393988 97
-0.173185 -2.28202 -0.196796 80
-0.571516 -2.23315 -0.440453 8
-0.171651 -2.28254 -0.357455 53
-0.168186 -2.26721 -0.516044 45
-0.422007 -5.57328 1.48627 14
-0.435176 -5.61819 1.08759 18
-0.577878 -2.22241 0.197844 8
-0.445121 -5.64499 0.690017 27
-0.576573 -2.21582 0.0393552 11
-0.184562 -2.28411 0.118279 90
-0.578783 -2.22271 -0.118936 11
-0.184979 -2.27932 -0.0393115 96
-0.184537 -2.27863 -0.196579 77
-0.582812 -2.23023 -0.440453 4
-0.183214 -2.27669 -0.356672 53
-0.180243 -2.26873 -0.516605 45
-0.433024 -5.58939 1.49079 15
-0.445364 -5.62232 1.08854 15
-0.582388 -2.22381 0.198061 8
-0.457932 -5.6813 0.694581 27
-0.58298 -2.22448 0.0395297 9
-0.188348 -2.2813 0.118148 82
-0.585201 -2.23135 -0.119461 9
-0.189159 -2.28149 -0.0393552 91
-0.188513 -2.2783 -0.196579 77
-0.586703 -2.22921 -0.440453 3
-0.187385 -2.27883 -0.357064 52
-0.18401 -2.26598 -0.516044 45
-0.463466 -5.60149 1.49467 14
-0.479295 -5.67371 1.09903 15
-0.594669 -2.22314 0.198279 4
-0.490616 -5.71344 0.69884 33
-0.594619 -2.2214 0.0395297 9
-0.200504 -2.28277 0.118279 79
-0.596876 -2.22826 -0.119461 4
-0.201531 -2.28544 -0.0394424 91
-0.200866 -2.28225 -0.197014 76
-0.599644 -2.23084 -0.441406 3
-0.199104 -2.27535 -0.356672 52
-0.196281 -2.26984 -0.517167 45
-0.476462 -5.63917 1.50501 14
-0.492329 -5.70954 1.10617 24
-0.598548 -2.22209 0.198279 4
-0.501445 -5.72247 0.700057 39
-0.598496 -2.22036 0.0395297 8
-0.20427 -2.27993 0.118148 73
-0.602719 -2.23444 -0.119855 4
-0.2053 -2.2826 -0.0393988 90
-0.204197 -2.27445 -0.196362 71
-0.601609 -2.22269 -0.439977 3
-0.203504 -2.27992 -0.357455 52
-0.606288 -2.23383 -0.610415 3
-0.200452 -2.27192 -0.517728 45
-0.511251 -5.68462 1.51793 15
-0.523435 -5.70924 1.10665 24
-0.614535 -2.23323 0.199587 8
-0.531032 -5.70484 0.698231 29
-0.608505 -2.20986 0.0393988 3
-0.216834 -2.28128 0.118279 65
-0.611476 -2.21912 -0.119198 4
-0.217415 -2.27897 -0.0393552 90
-0.216962 -2.27827 -0.196796 70
-0.612315 -2.21467 -0.439025 4
-0.215211 -2.27637 -0.357064 52
-0.616425 -2.22353 -0.608475 4
-0.212519 -2.26838 -0.517167 45
-0.523138 -5.70537 1.52375 21
-0.53091 -5.68144 1.10141 15
-0.619098 -2.23455 0.199805 14
-0.536284 -5.66447 0.693364 18
-0.61303 -2.2112 0.0394424 3
-0.220182 -2.27845 0.118148 59
-0.616017 -2.22045 -0.11933 12
-0.220919 -2.27361 -0.0392679 90
-0.221173 -2.28037 -0.197014 70
-0.61618 -2.2136 -0.439025 3
-0.219647 -2.28091 -0.357847 52
-0.624209 -2.23641 -0.612355 4
-0.216082 -2.26804 -0.517167 45
-0.54878 -5.66899 1.5147 14
-0.55608 -5.64204 1.09426 14
-0.628365 -2.2242 0.199151 14
-0.559817 -5.59986 0.685758 20
-0.620807 -2.19605 0.0392243 12
-0.232357 -2.27975 0.118279 56
-0.622865 -2.20038 -0.118411 11
-0.232673 -2.27495 -0.0393115 90
-0.233358 -2.28166 -0.197231 68
-0.625361 -2.20337 -0.437596 3
-0.231098 -2.27481 -0.357064 52
-0.634195 -2.22858 -0.611062 4
-0.227954 -2.26688 -0.517167 45
-0.554211 -5.62236 1.50243 12
-0.563504 -5.60677 1.08759 15
-0.629515 -2.21352 0.198279 8
-0.570337 -5.60628 0.68667 23
-0.626394 -2.19966 0.0393115 9
-0.236083 -2.27686 0.118148 52
-0.626704 -2.19929 -0.118411 9
-0.236644 -2.27454 -0.0393115 90
-0.236835 -2.27629 -0.196796 67
-0.63326 -2.21643 -0.440453 3
-0.235565 -2.27932 -0.357847 50
-0.641807 -2.23896 -0.614295 4
-0.232153 -2.2689 -0.517728 45
-0.581897 -5.59285 1.49532 14
-0.59106 -5.58666 1.08425 15
-0.638699 -2.20052 0.197408 9
-0.601186 -5.60804 0.687279 14
-0.639999 -2.20355 0.0394424 11
-0.248133 -2.27306 0.118018 49
-0.639608 -2.20077 -0.118673 9
-0.249213 -2.27571 -0.0393552 90
-0.24875 -2.27502 -0.196796 64
-0.646619 -2.21768 -0.441406 3
-0.247235 -2.2756 -0.357455 50
-0.652842 -2.23325 -0.613648 4
-0.244426 -2.26761 -0.517728 45
-0.592413 -5.59903 1.49726 14
-0.645474 -2.20947 0.358226 9
-0.602372 -5.60026 1.08711 14
-0.641139 -2.19462 0.196972 8
-0.607332 -5.58242 0.684236 27
-0.643141 -2.20003 0.0393988 8
-0.251972 -2.27515 0.118148 44
-0.643448 -2.19966 -0.118673 8
-0.252914 -2.27279 -0.0393115 90
-0.25299 -2.27706 -0.197014 64
-0.654644 -2.23068 -0.444263 3
-0.251472 -2.27762 -0.357847 50
-0.660838 -2.24601 -0.617528 4
-0.247728 -2.26481 -0.517167 47
-0.653503 -2.19423 0.356275 8
-0.628255 -5.57519 1.08282 17
-0.652951 -2.19373 0.19719 4
-0.643253 -5.63834 0.691538 27
-0.658558 -2.21112 0.0396606 4
-0.263034 -2.26636 0.117756 41
-0.664576 -2.22986 -0.120511 3
-0.264698 -2.27396 -0.0393552 90
-0.666734 -2.23285 -0.281422 11
-0.264794 -2.27822 -0.197231 61
-0.668744 -2.23674 -0.446167 50
-0.263951 -2.28117 -0.35863 50
-0.672197 -2.24263 -0.617528 61
-0.259583 -2.26348 -0.517167 45
-0.64297 -5.61798 1.0914 21
-0.66394 -2.21644 0.199369 3
-0.652242 -5.62981 0.690625 29
-0.66745 -2.22672 0.039966 11
-0.267563 -2.27086 0.118018 41
-0.668466 -2.2287 -0.120511 29
-0.268378 -2.27101 -0.0393115 90
-0.669199 -2.22693 -0.280814 52
-0.269057 -2.28023 -0.197449 64
-0.677606 -2.25202 -0.449501 53
-0.267084 -2.27335 -0.357455 49
-0.680303 -2.25533 -0.621408 62
-0.263809 -2.26544 -0.517728 47
-0.670349 -5.59748 1.08806 23
-0.671893 -2.20103 0.198279 4
-0.679636 -5.60908 0.688496 29
-0.681294 -2.23037 0.0400969 52
-0.280049 -2.27438 0.118279 38
-0.690026 -2.25608 -0.122218 53
-0.280868 -2.27454 -0.0393988 90
-0.689586 -2.25186 -0.284465 56
-0.28109 -2.27627 -0.197231 61
-0.69083 -2.25313 -0.450453 53
-0.279279 -2.27437 -0.357847 49
-0.693524 -2.25635 -0.622701 62
-0.276246 -2.26887 -0.518851 45
-0.679622 -5.584 1.08568 23
-0.677932 -2.20699 0.198933 4
-0.687019 -5.58818 0.686062 27
-0.689256 -2.241 0.0403151 53
-0.283714 -2.27141 0.118148 35
-0.694698 -2.25726 -0.122349 55
-0.28392 -2.2666 -0.0392679 86
-0.694247 -2.25302 -0.284769 56
-0.285367 -2.27825 -0.197449 59
-0.695486 -2.25426 -0.450929 53
-0.283248 -2.27388 -0.357847 49
-0.69857 -2.25732 -0.623348 71
-0.279912 -2.26596 -0.51829 45
-0.69681 -5.56266 1.49079 15
-0.707007 -5.56575 1.08282 20
-0.688371 -2.19854 0.198497 3
-0.723524 -5.63361 0.692147 21
-0.706971 -2.25644 0.0406641 55
-0.295364 -2.26489 0.117887 30
-0.706507 -2.25359 -0.122349 53
-0.297136 -2.27247 -0.0393988 85
-0.707917 -2.25397 -0.285377 56
-0.297292 -2.27672 -0.197449 59
-0.707673 -2.25047 -0.450929 55
-0.295463 -2.27482 -0.358238 49
-0.711107 -2.25593 -0.623994 62
-0.292168 -2.26441 -0.51829 45
-1.77611 -5.6275 1.35216 21
-0.706216 -5.55904 1.49015 15
-1.68995 -5.35797 0.882297 1
-0.722326 -5.60833 1.0914 14
-0.695206 -2.20683 0.199369 3
-0.732691 -5.63492 0.692451 23
-0.710908 -2.2552 0.0406641 55
-0.299564 -2.26938 0.118148 29
-0.709687 -2.24997 -0.122218 55
-0.301102 -2.27195 -0.0393988 79
-0.711457 -2.25285 -0.285377 55
-0.301908 -2.28114 -0.197884 58
-0.712341 -2.25157 -0.451405 62
-0.299433 -2.2743 -0.358238 49
-0.715775 -2.25699 -0.624641 59
-0.296035 -2.26637 -0.518851 45
-1.71678 -5.34215 1.28534 1
-0.740003 -5.5985 1.50178 14
-1.72856 -5.38196 0.88776 1
-0.753616 -5.62649 1.09569 15
-0.707129 -2.20566 0.199587 3
-0.765823 -5.65806 0.695797 29
-0.723078 -2.25395 0.0407077 55
-0.310439 -2.26035 0.117756 24
-0.723753 -2.25335 -0.122611 53
-0.312933 -2.27287 -0.0394424 76
-0.723243 -2.2491 -0.285377 55
-0.313514 -2.27706 -0.197666 58
-0.724482 -2.25027 -0.451881 53
-0.311337 -2.2727 -0.358238 49
-0.727932 -2.25564 -0.625287 59
-0.308221 -2.2672 -0.519413 45
-1.7306 -5.35306 1.28871 1
-0.752321 -5.61635 1.50695 14
-1.73643 -5.37424 0.88698 1
-0.768686 -5.65665 1.10189 21
-0.711743 -2.20679 0.199805 4
-0.777707 -5.67147 0.697623 35
-0.728943 -2.25732 0.040795 90
-0.314722 -2.26228 0.117887 20
-0.729222 -2.25684 -0.122874 58
-0.3169 -2.27232 -0.0394424 74
-0.728697 -2.25255 -0.285986 56
-0.317487 -2.27651 -0.197666 58
-0.730681 -2.25601 -0.45331 53
-0.315303 -2.27215 -0.358238 49
-0.732261 -2.25424 -0.625287 59
-0.311523 -2.26183 -0.51829 45
-1.85638 -5.63745 1.36002 23
-0.786013 -5.63612 1.51341 15
-1.76703 -5.36946 0.88776 1
-0.800341 -5.66713 1.10475 24
-0.723673 -2.20291 0.199805 3
-0.808382 -5.66718 0.697623 30
-0.738407 -2.24635 0.0406641 52
-0.32731 -2.26302 0.118018 17
-0.741811 -2.25536 -0.123005 53
-0.33025 -2.278 -0.0395733 68
-0.741652 -2.25093 -0.28629 53
-0.329403 -2.27482 -0.197666 55
-0.742876 -2.25202 -0.45331 53
-0.32789 -2.27536 -0.359021 49
-0.744814 -2.25266 -0.625934 61
-0.324096 -2.26253 -0.518851 45
-1.86217 -5.62528 1.35777 17
-0.798534 -5.65387 1.51858 15
-1.77546 -5.36667 0.88776 1
-0.81023 -5.66573 1.10475 21
-0.726734 -2.19928 0.199587 3
-0.815169 -5.65116 0.695797 27
-0.744684 -2.25217 0.040795 55
-0.32944 -2.25262 0.117494 15
-0.745746 -2.25406 -0.123005 53
-0.33351 -2.27247 -0.0394861 67
-0.74675 -2.25448 -0.286899 59
-0.333373 -2.27424 -0.197666 55
-0.746806 -2.25072 -0.45331 53
-0.33186 -2.27478 -0.359021 47
-0.749508 -2.25365 -0.626581 59
-0.327994 -2.26443 -0.519413 45
-1.88381 -5.59237 1.35216 15
-0.82714 -5.64976 1.51858 15
-1.88081 -5.58663 0.926002 21
-0.836393 -5.64456 1.10141 18
-0.74024 -2.20265 0.20024 3
-0.842557 -5.63209 0.693972 29
-0.756074 -2.24838 0.040795 55
-0.343075 -2.26321 0.118148 15
-0.757145 -2.25026 -0.123005 53
-0.345378 -2.27322 -0.0395297 65
-0.758544 -2.25053 -0.286899 56
-0.345985 -2.27991 -0.198319 55
-0.758974 -2.24924 -0.453786 53
-0.344495 -2.2779 -0.359804 47
-0.760905 -2.24983 -0.626581 61
-0.340916 -2.26991 -0.521097 45
-1.8879 -5.57556 1.34879 15
-0.833128 -5.62202 1.51147 15
-1.80813 -5.34012 0.885419 1
-0.843348 -5.62367 1.0976 17
-0.741687 -2.19428 0.199587 3
-0.849431 -5.61098 0.691538 26
-0.761602 -2.25179 0.0408823 55
-0.346278 -2.25767 0.117887 14
-0.762675 -2.25366 -0.123268 53
-0.348596 -2.26768 -0.0394424 62
-0.762471 -2.24921 -0.286899 58
-0.349218 -2.27438 -0.197884 53
-0.762899 -2.24791 -0.453786 53
-0.347365 -2.26997 -0.35863 49
-0.767168 -2.25535 -0.628521 61
-0.344155 -2.26449 -0.519974 45
-1.91487 -5.55605 1.34654 15
-0.860731 -5.60565 1.50824 14
-1.90689 -5.53602 0.919758 18
-0.870909 -5.60705 1.09521 17
-0.753977 -2.19272 0.199805 3
-0.877652 -5.5991 0.690625 27
-0.772567 -2.24541 0.0408386 55
-0.359639 -2.26569 0.11841 14
-0.773228 -2.24478 -0.123005 53
-0.362015 -2.2757 -0.039617 62
-0.775858 -2.24987 -0.287507 59
-0.361904 -2.27492 -0.198101 50
-0.774658 -2.24388 -0.453786 53
-0.360389 -2.27544 -0.359804 47
-0.778175 -2.24902 -0.627874 59
-0.356007 -2.26266 -0.519974 45
-1.92296 -5.5481 1.34542 15
-0.869776 -5.59936 1.50695 15
-1.92544 -5.55834 0.924051 18
-0.878259 -5.58355 1.09092 18
-0.756987 -2.18905 0.199587 3
-0.887422 -5.59756 0.690625 23
-0.777695 -2.24628 0.0408823 53
-0.363203 -2.26259 0.118279 12
-0.780419 -2.25286 -0.12353 53
-0.364418 -2.26519 -0.0394424 59
-0.780598 -2.25086 -0.287811 59
-0.365484 -2.27182 -0.197884 50
-0.781798 -2.2518 -0.455691 53
-0.363589 -2.26993 -0.359021 47
-0.784878 -2.25437 -0.629814 61
-0.360333 -2.26444 -0.520536 45
-1.95863 -5.55369 1.34935 15
-0.896625 -5.57311 1.50113 14
-1.96124 -5.56415 0.926783 17
-0.906306 -5.5716 1.08949 15
-0.772133 -2.19432 0.200458 3
-0.923291 -5.62697 0.694885 24
-0.790278 -2.24454 0.0409259 53
-0.375439 -2.26059 0.118279 12
-0.790542 -2.24404 -0.123268 53
-0.378695 -2.27551 -0.0396606 59
-0.792765 -2.2466 -0.287811 90
-0.378181 -2.27479 -0.198319 50
-0.792333 -2.24291 -0.454738 53
-0.376662 -2.2728 -0.359804 47
-0.796671 -2.25023 -0.629814 62
-0.373361 -2.26727 -0.521659 45
-1.97957 -5.58505 1.35777 15
-0.90635 -5.57154 1.50113 14
-1.98415 -5.59795 0.933026 15
-0.925141 -5.62572 1.10046 15
-0.775961 -2.19296 0.200458 3
-0.936747 -5.64738 0.697623 26
-0.795865 -2.24786 0.0410132 53
-0.377751 -2.25008 0.117756 12
-0.796963 -2.24971 -0.123662 53
-0.382256 -2.27238 -0.039617 58
-0.797516 -2.24756 -0.288116 56
-0.38215 -2.27413 -0.198319 50
-0.798715 -2.24846 -0.456167 53
-0.380226 -2.26971 -0.359413 47
-0.800597 -2.24883 -0.629814 62
-0.376528 -2.2618 -0.520536 45
-2.02464 -5.61551 1.36788 15
-0.93989 -5.59292 1.50824 14
-2.02684 -5.62465 0.93927 23
-0.961126 -5.65952 1.10808 17
-0.786588 -2.18653 0.20024 3
-0.97464 -5.69132 0.703708 27
-0.806776 -2.24131 0.0409695 53
-0.390791 -2.25546 0.118148 11
-0.808731 -2.24551 -0.123662 53
-0.394572 -2.27282 -0.0396606 55
-0.809273 -2.24335 -0.288116 56
-0.395734 -2.28192 -0.199188 50
-0.810477 -2.24425 -0.456167 53
-0.392936 -2.27255 -0.360196 45
-0.813184 -2.24688 -0.630461 59
-0.389588 -2.26701 -0.52222 44
-2.04342 -5.6398 1.37462 21
-0.955685 -5.62699 1.51793 14
-2.04928 -5.65593 0.945123 30
-0.975959 -5.68686 1.1138 21
-0.793797 -2.19452 0.201112 2
-0.98794 -5.70917 0.706142 33
-0.814095 -2.2493 0.041144 53
-0.3926 -2.24247 0.117494 11
-0.815203 -2.25113 -0.124055 56
-0.398111 -2.26966 -0.039617 55
-0.816577 -2.25126 -0.289333 53
-0.398442 -2.27386 -0.198536 49
-0.818587 -2.25436 -0.458548 53
-0.396482 -2.26943 -0.359804 45
-0.820413 -2.25453 -0.633047 59
-0.392309 -2.25912 -0.520536 45
-2.07124 -5.62445 1.3735 20
-0.991198 -5.66253 1.52892 15
-2.0702 -5.62463 0.941611 26
-1.00813 -5.70118 1.11761 27
-0.804895 -2.19047 0.201112 2
-1.01466 -5.69189 0.70462 23
-0.822877 -2.23812 0.0410132 53
-0.405258 -2.24783 0.117887 9
-0.825724 -2.24464 -0.123924 52
-0.410472 -2.27254 -0.0397042 53
-0.825383 -2.24012 -0.28842 55
-0.410383 -2.27427 -0.198754 49
-0.826584 -2.24098 -0.456643 53
-0.409692 -2.27712 -0.36137 45
-0.828459 -2.24129 -0.630461 61
-0.40501 -2.2643 -0.52222 45
-2.08007 -5.62119 1.3735 17
-1.00485 -5.68219 1.53474 18
-2.07658 -5.61174 0.94005 23
-1.01422 -5.67767 1.11332 18
-0.808716 -2.18906 0.201112 3
-1.01408 -5.63149 0.697319 15
-0.83199 -2.25074 0.0412749 49
-0.408739 -2.24466 0.117756 9
-0.832242 -2.25022 -0.124318 52
-0.413107 -2.26444 -0.0395733 53
-0.831882 -2.24565 -0.289333 55
-0.414352 -2.27355 -0.198754 49
-0.833913 -2.24874 -0.458548 53
-0.412356 -2.26911 -0.360196 45
-0.83574 -2.2489 -0.633047 62
-0.408105 -2.2588 -0.521097 45
-2.10702 -5.60074 1.37125 17
-1.03157 -5.66022 1.53021 15
-2.09985 -5.58462 0.937319 23
-1.03332 -5.61434 1.10189 15
-0.824551 -2.19646 0.202201 2
-1.0395 -5.60414 0.694581 15
-0.842003 -2.24168 0.0411877 53
-0.421396 -2.2474 0.118018 8
-0.846165 -2.25035 -0.124581 52
-0.426327 -2.26962 -0.0397042 50
-0.846255 -2.24823 -0.290245 52
-0.426647 -2.27127 -0.198754 49
-0.847409 -2.24893 -0.4595 55
-0.42513 -2.27177 -0.360979 45
-0.849212 -2.24901 -0.63434 85
-0.421248 -2.26382 -0.522782 45
-2.10989 -5.57882 1.36676 15
-1.03535 -5.62515 1.52117 14
-2.10348 -5.56477 0.934587 21
-1.03873 -5.58339 1.09617 15
-0.829264 -2.19734 0.202419 2
-1.04792 -5.595 0.693668 18
-0.84719 -2.24239 0.0412313 53
-0.425777 -2.24912 0.118148 4
-0.850975 -2.25121 -0.124712 52
-0.430288 -2.26887 -0.0397042 50
-0.851057 -2.24907 -0.290549 53
-0.431069 -2.27297 -0.198971 47
-0.852204 -2.24974 -0.459976 52
-0.428641 -2.2686 -0.360587 45
-0.855246 -2.25189 -0.635633 65
-0.423865 -2.25589 -0.521097 44
-2.13217 -5.54686 1.3617 15
-1.05861 -5.5815 1.51083 14
-2.12381 -5.52796 0.930295 21
-1.06336 -5.55377 1.0914 15
-0.842927 -2.19747 0.202855 3
-1.09408 -5.6721 0.704012 17
-0.860714 -2.24259 0.0413186 52
-0.436995 -2.24188 0.117887 4
-0.862751 -2.24672 -0.124712 52
-0.442557 -2.26651 -0.0397042 50
-0.860537 -2.23749 -0.289637 50
-0.443436 -2.27313 -0.199188 47
-0.865247 -2.24739 -0.460452 53
-0.440979 -2.26875 -0.360979 45
-0.864413 -2.24062 -0.633694 83
-0.437437 -2.26074 -0.522782 45
-2.1321 -5.52078 1.35609 15
-1.06292 -5.55118 1.50307 14
-2.1316 -5.52231 0.929904 24
-1.07676 -5.57119 1.09521 15
-0.848556 -2.20065 0.203291 3
-1.09686 -5.6387 0.700057 15
-0.865527 -2.24342 0.0413622 52
-0.440992 -2.24364 0.118018 3
-0.868471 -2.24987 -0.124974 50
-0.446512 -2.26573 -0.0397042 50
-0.868529 -2.2477 -0.291158 53
-0.446927 -2.26991 -0.198971 45
-0.870055 -2.24816 -0.460928 53
-0.444938 -2.26798 -0.360979 45
-0.872695 -2.25036 -0.636927 73
-0.440988 -2.26005 -0.522782 45
-2.16187 -5.51181 1.35665 14
-1.09193 -5.55046 1.50436 14
-2.1668 -5.52717 0.932636 15
-1.11018 -5.59215 1.10046 15
-0.861501 -2.20096 0.203727 3
-1.12007 -5.60124 0.696102 15
-0.878697 -2.24366 0.0414495 50
-0.453712 -2.24619 0.118279 2
-0.88024 -2.24529 -0.124974 50
-0.457975 -2.26344 -0.0397042 49
-0.882102 -2.24774 -0.291766 53
-0.459784 -2.27242 -0.199406 45
-0.882322 -2.24602 -0.461405 52
-0.456807 -2.26562 -0.360979 42
-0.884074 -2.24592 -0.636927 61
-0.452341 -2.25532 -0.52222 45
-2.19384 -5.56468 1.37069 14
-1.1063 -5.57224 1.51083 14
-2.22264 -5.64054 0.952537 26
-1.11563 -5.56353 1.09521 14
-0.864428 -2.19714 0.203509 3
-0.88392 -2.2443 0.0414931 52
-0.458619 -2.25029 0.118541 3
-0.886907 -2.25072 -0.125368 50
-0.462914 -2.26754 -0.0397915 47
-0.886024 -2.2462 -0.291766 53
-0.463256 -2.26917 -0.199188 45
-0.887143 -2.24675 -0.461881 52
-0.460761 -2.26482 -0.360979 44
-0.889274 -2.24646 -0.637573 59
-0.456277 -2.25453 -0.52222 44
-2.2511 -5.62057 1.38753 20
-1.13258 -5.54724 1.50566 12
-2.25037 -5.62155 0.951367 27
-1.15263 -5.59608 1.10284 11
-0.880932 -2.20399 0.204598 3
-0.895659 -2.23964 0.0414931 52
-0.471294 -2.25022 0.118672 2
-0.89868 -2.24604 -0.125368 50
-0.476192 -2.2699 -0.0398787 47
-0.902785 -2.25289 -0.293288 53
-0.475637 -2.26915 -0.199406 45
-0.900201 -2.2442 -0.462357 52
-0.472613 -2.26237 -0.360979 42
-0.901025 -2.24177 -0.637573 59
-0.46945 -2.2568 -0.523343 45
-2.25083 -5.59443 1.38192 17
-2.25274 -5.60197 0.948635 27
-1.21411 -5.844 1.1524 2
-0.884777 -2.20245 0.204598 2
-0.901434 -2.24271 0.0415804 50
-0.474317 -2.24704 0.118541 2
-0.904464 -2.2491 -0.125631 50
-0.479641 -2.26662 -0.0398351 49
-0.904467 -2.24686 -0.292679 53
-0.479086 -2.26588 -0.199188 44
-0.905035 -2.2449 -0.462833 52
-0.478577 -2.27121 -0.362545 44
-0.910371 -2.25363 -0.641453 61
-0.472995 -2.25606 -0.523343 45
-2.2764 -5.57355 1.37967 15
-1.22401 -5.79464 1.57545 4
-2.27364 -5.56953 0.945123 26
-1.2345 -5.79457 1.14383 9
-0.897796 -2.20255 0.205034 3
-0.914664 -2.24275 0.0416676 52
-0.48817 -2.25429 0.119064 2
-0.917173 -2.24665 -0.125762 50
-0.491632 -2.2666 -0.0398787 47
-0.918099 -2.24669 -0.293288 53
-0.49199 -2.26821 -0.199623 44
-0.917317 -2.24256 -0.463309 52
-0.489946 -2.26626 -0.362153 42
-0.919931 -2.24452 -0.64016 59
-0.484801 -2.25355 -0.523343 45
-2.2778 -5.54928 1.37462 17
-1.23462 -5.79486 1.57609 20
-2.27585 -5.54728 0.942001 26
-1.2374 -5.75379 1.1362 14
-0.90353 -2.20559 0.20547 3
-0.918019 -2.23867 0.041624 52
-0.492103 -2.25343 0.119064 2
-0.921092 -2.24504 -0.125762 50
-0.496116 -2.26819 -0.0399224 47
-0.919187 -2.2382 -0.292375 52
-0.496475 -2.26978 -0.199841 44
-0.922164 -2.24323 -0.463785 50
-0.493901 -2.2654 -0.362153 42
-0.926082 -2.24722 -0.641453 59
-0.488733 -2.2527 -0.523343 44
-2.3031 -5.52564 1.37181 18
-1.25516 -5.73854 1.56252 12
-2.30298 -5.52804 0.940831 26
-1.25645 -5.69689 1.12619 24
-0.918324 -2.20756 0.206123 3
-0.931651 -2.23845 0.0417112 52
-0.506451 -2.26049 0.119588 2
-0.935718 -2.2471 -0.126156 50
-0.507839 -2.26303 -0.0398787 45
-0.934153 -2.24006 -0.293288 55
-0.507813 -2.26472 -0.199623 44
-0.937127 -2.245 -0.465214 52
-0.504155 -2.25555 -0.360979 42
-0.937835 -2.24234 -0.641453 59
-0.500915 -2.25003 -0.523343 41
-2.31272 -5.52426 1.37237 18
-1.25378 -5.68445 1.54831 23
-2.3069 -5.51303 0.938879 24
-0.923137 -2.20826 0.206341 3
-0.938454 -2.24374 0.0418421 52
-0.510546 -2.26212 0.119718 3
-0.941568 -2.25007 -0.126418 50
-0.510148 -2.25482 -0.0397479 35
-0.94055 -2.24546 -0.2942 52
-0.510676 -2.25897 -0.199188 21
-0.941044 -2.24336 -0.465214 52
-0.507015 -2.24985 -0.360196 14
-0.944559 -2.24738 -0.643393 65
-0.50392 -2.24686 -0.522782 8
-2.34352 -5.51656 1.3735 14
-2.33766 -5.50542 0.93966 15
-0.935276 -2.20585 0.206559 3
-0.952731 -2.24586 0.041973 52
-0.520712 -2.25212 0.119326 3
-0.951968 -2.24298 -0.126287 50
-0.519877 -2.2449 -0.039617 35
-0.954238 -2.24507 -0.294809 52
-0.519878 -2.24665 -0.198319 21
-0.952387 -2.23857 -0.465214 53
-0.518238 -2.24476 -0.359804 14
-0.955921 -2.24257 -0.643393 59
-0.512434 -2.22994 -0.519413 2
-2.37896 -5.5756 1.38922 14
-2.39284 -5.60807 0.958 26
-0.940102 -2.2065 0.206777 3
-0.954686 -2.2396 0.0418858 52
-0.524641 -2.25121 0.119326 3
-0.957843 -2.2459 -0.12655 50
-0.523795 -2.24399 -0.039617 9
-0.958155 -2.2434 -0.294809 53
-0.524359 -2.24816 -0.198536 9
-0.958224 -2.24141 -0.466166 52
-0.520491 -2.23663 -0.35863 9
-0.958882 -2.23868 -0.642746 59
-0.51796 -2.23616 -0.521097 8
-2.42944 -5.60959 1.40101 20
-2.42315 -5.59773 0.958391 26
-0.957579 -2.21526 0.208084 3
-0.968387 -2.23915 0.041973 52
-0.532975 -2.23385 0.118541 11
-0.971966 -2.24527 -0.126812 50
-0.533233 -2.23149 -0.0394424 12
-0.971864 -2.2429 -0.295417 52
-0.533646 -2.23318 -0.197449 9
-0.971903 -2.24087 -0.467119 52
-0.530493 -2.22667 -0.357455 9
-0.973481 -2.24027 -0.644686 59
-0.528547 -2.22868 -0.519974 8
-2.43728 -5.60087 1.39989 17
-2.42898 -5.58444 0.95683 26
-0.962437 -2.21587 0.208302 3
-0.533305 -2.22475 0.27625 8
-0.975677 -2.24417 0.0421039 52
-0.536873 -2.23292 0.118541 12
-0.975884 -2.24357 -0.126812 50
-0.537707 -2.23298 -0.0394861 11
-0.974786 -2.23893 -0.295113 52
-0.538121 -2.23466 -0.197666 11
-0.977776 -2.24367 -0.468071 50
-0.537236 -2.23775 -0.359413 9
-0.978749 -2.24061 -0.645333 58
-0.533558 -2.23249 -0.521097 8
-2.46656 -5.58538 1.39933 17
-2.45716 -5.5667 0.956049 23
-0.971395 -2.2038 0.207649 3
-0.548267 -2.23389 0.277771 8
-0.988424 -2.24131 0.0421476 52
-0.548355 -2.22755 0.11841 11
-0.989636 -2.243 -0.127075 50
-0.549781 -2.23004 -0.0394861 12
-0.988893 -2.23816 -0.295722 52
-0.549814 -2.23182 -0.197666 11
-0.990895 -2.24059 -0.468547 50
-0.547777 -2.23011 -0.35863 9
-0.992426 -2.23987 -0.646626 58
-0.545629 -2.22957 -0.521097 8
-2.46743 -5.56368 1.39483 15
-2.45989 -5.54928 0.953708 23
-0.550004 -2.2258 0.276859 8
-0.991321 -2.2373 0.0421039 52
-0.553044 -2.23154 0.118672 11
-0.993549 -2.24127 -0.127075 50
-0.553672 -2.22908 -0.0394861 12
-0.994423 -2.24114 -0.29633 52
-0.554898 -2.23569 -0.198101 11
-0.995802 -2.2411 -0.469023 50
-0.552257 -2.23154 -0.359021 9
-0.999284 -2.24475 -0.648566 59
-0.549709 -2.23108 -0.521659 8
-2.49153 -5.53958 1.39203 15
-2.48182 -5.52057 0.950976 18
-0.561048 -2.22048 0.276554 9
-1.00468 -2.23681 0.0421912 52
-0.565329 -2.23103 0.118803 11
-1.0104 -2.24742 -0.127731 49
-0.566777 -2.23352 -0.039617 12
-1.00716 -2.23817 -0.296634 52
-0.565381 -2.22792 -0.197666 11
-1.00814 -2.23826 -0.469499 50
-0.562732 -2.22383 -0.358238 9
-1.01063 -2.23966 -0.648566 58
-0.562563 -2.2329 -0.522782 4
-2.49517 -5.5219 1.38866 15
-2.49451 -5.52298 0.952147 24
-0.564316 -2.21709 0.27625 9
-1.01001 -2.23716 0.0422348 52
-0.566773 -2.22036 0.118279 11
-1.01226 -2.2411 -0.127469 50
-0.57006 -2.23011 -0.0395733 12
-1.01414 -2.24319 -0.297547 53
-0.571104 -2.23418 -0.198319 11
-1.01711 -2.24768 -0.47188 52
-0.567822 -2.22763 -0.359021 8
-1.01593 -2.23991 -0.649213 58
-0.567054 -2.23427 -0.523343 4
-2.52501 -5.50832 1.38866 15
-2.52538 -5.51164 0.952537 21
-0.580023 -2.22842 0.278076 8
-1.02171 -2.23184 0.0422348 50
-0.58128 -2.22693 0.118803 9
-1.02398 -2.23577 -0.127469 49
-0.584626 -2.23667 -0.0397479 11
-1.02315 -2.2309 -0.296634 50
-0.582795 -2.23115 -0.198319 9
-1.02516 -2.23322 -0.469976 50
-0.58172 -2.2317 -0.360196 8
-1.02562 -2.23018 -0.647919 59
-0.577313 -2.2241 -0.521659 3
-2.54589 -5.5309 1.3954 14
-2.58665 -5.61937 0.972049 26
-1.02151 -2.2222 0.210917 3
-0.583912 -2.22741 0.278076 8
-1.02978 -2.23913 0.0424093 50
-0.585795 -2.22833 0.118933 9
-1.03101 -2.24078 -0.127862 50
-0.586635 -2.22839 -0.039617 11
-1.0312 -2.23812 -0.297851 52
-0.587945 -2.23495 -0.198754 9
-1.03214 -2.23812 -0.471404 50
-0.584992 -2.22829 -0.359804 4
-1.03661 -2.24373 -0.652446 58
-0.580583 -2.22073 -0.521097 3
-2.61913 -5.61241 1.41954 15
-2.6161 -5.60845 0.972439 26
-1.03064 -2.21249 0.210481 3
-0.596451 -2.22922 0.278684 4
-1.04216 -2.23616 0.042453 52
-0.597066 -2.22534 0.118933 8
-1.04273 -2.23535 -0.127862 50
-0.599837 -2.23264 -0.0397479 11
-1.04357 -2.23512 -0.298155 52
-0.597074 -2.22222 -0.197884 8
-1.0445 -2.23509 -0.47188 50
-0.597531 -2.23008 -0.360587 4
-1.04693 -2.23626 -0.651799 58
-2.61858 -5.58578 1.41393 15
-2.61436 -5.57928 0.968146 18
-1.03662 -2.2152 0.210917 3
-0.5997 -2.22578 0.27838 4
-1.04857 -2.23868 0.0425402 50
-0.600949 -2.22429 0.118933 9
-1.05087 -2.24257 -0.128388 50
-0.600494 -2.21951 -0.0395297 9
-1.05169 -2.24228 -0.299372 50
-0.602888 -2.22839 -0.198536 3
-1.05153 -2.23992 -0.473309 49
-0.59887 -2.21949 -0.359021 4
-1.05122 -2.23425 -0.651799 56
-0.595058 -2.21437 -0.520536 2
-2.62993 -5.53193 1.40382 14
-2.62224 -5.51822 0.959952 15
-1.05607 -2.2253 0.212442 3
-0.612388 -2.22489 0.278684 3
-1.0635 -2.23993 0.0426711 52
-0.610338 -2.21137 0.11841 12
-1.06046 -2.23253 -0.128125 47
-0.612494 -2.21623 -0.0395297 4
-1.06274 -2.23432 -0.299068 50
-0.611257 -2.21319 -0.197449 4
-1.06469 -2.23641 -0.473785 50
-0.610218 -2.21383 -0.35863 4
-1.06707 -2.23743 -0.654386 56
-0.60703 -2.21112 -0.520536 4
-2.63756 -5.52559 1.40326 14
-2.62548 -5.50026 0.95761 17
-1.05995 -2.22345 0.212442 3
-0.612981 -2.21186 0.277163 3
-1.06741 -2.23807 0.0426711 52
-0.614197 -2.21031 0.11841 9
-1.06758 -2.23743 -0.128519 50
-0.613036 -2.20311 -0.0393115 11
-1.06985 -2.23918 -0.299981 52
-0.613133 -2.20492 -0.196796 11
-1.06965 -2.23677 -0.474261 50
-0.608839 -2.19372 -0.355498 9
-1.07306 -2.23992 -0.655679 56
-0.605092 -2.18891 -0.515482 4
-2.65999 -5.49589 1.39933 14
-2.65747 -5.49311 0.958781 20
-1.07483 -2.2246 0.213096 3
-0.624554 -2.20862 0.277163 8
-1.08129 -2.23695 0.0427584 52
-0.623058 -2.19745 0.117887 11
-1.08146 -2.2363 -0.128781 50
-0.621852 -2.19025 -0.039137 9
-1.08481 -2.24024 -0.300894 52
-0.623994 -2.19928 -0.196579 9
-1.08456 -2.23776 -0.47569 50
-0.621936 -2.19774 -0.356672 8
-1.08794 -2.24079 -0.657619 55
-0.620483 -2.19979 -0.518851 4
-2.66649 -5.48733 1.3982 15
-2.67257 -5.50225 0.961122 23
-1.08089 -2.2272 0.213532 3
-0.624653 -2.19569 0.275642 9
-1.08629 -2.23731 0.042802 50
-0.623789 -2.18686 0.117363 9
-1.08754 -2.2389 -0.129044 49
-0.625674 -2.18916 -0.039137 9
-1.08833 -2.23854 -0.300894 52
-0.627153 -2.19579 -0.196362 9
-1.08847 -2.23586 -0.47569 50
-0.627786 -2.20378 -0.357847 8
-1.09185 -2.23888 -0.657619 55
-0.626577 -2.20819 -0.521097 4
-2.70595 -5.49514 1.40382 15
-2.69698 -5.47932 0.959561 24
-1.09655 -2.23064 0.214403 3
-1.0976 -2.23178 0.042802 52
-0.635924 -2.18596 0.117494 9
-1.10146 -2.23766 -0.129306 49
-0.641604 -2.20277 -0.0394424 9
-1.10223 -2.23726 -0.301502 52
-0.640024 -2.19726 -0.196796 9
-1.10085 -2.23253 -0.476166 49
-0.640684 -2.20521 -0.35863 4
-1.10638 -2.23982 -0.659559 56
-0.640148 -2.2119 -0.522782 4
-2.70797 -5.47513 1.39989 14
-2.71311 -5.48789 0.961903 23
-1.09823 -2.22426 0.213967 4
-1.10742 -2.24087 0.0430202 52
-0.640434 -2.18724 0.117625 9
-1.10536 -2.23573 -0.129306 50
-0.645448 -2.20165 -0.0394424 8
-1.10503 -2.23311 -0.301198 52
-0.653598 -2.22962 -0.199841 8
-1.10693 -2.235 -0.477118 49
-0.652788 -2.23255 -0.363328 4
-1.11068 -2.2377 -0.659559 56
-0.650095 -2.23185 -0.527836 8
-2.75612 -5.49741 1.40943 15
-2.75494 -5.49741 0.966195 21
-1.11471 -2.22719 0.214839 4
-1.12026 -2.23728 0.0430638 50
-0.658644 -2.20529 0.118803 8
-1.12041 -2.23661 -0.1297 50
-0.666596 -2.22928 -0.0400096 11
-1.12044 -2.23375 -0.302111 52
-0.666679 -2.23095 -0.200276 14
-1.12231 -2.23555 -0.478547 50
-0.66587 -2.23383 -0.364111 15
-1.12455 -2.23616 -0.660852 56
-0.666984 -2.24465 -0.531766 26
-2.77352 -5.51048 1.41393 14
-2.778 -5.52175 0.971268 20
-1.12196 -2.23191 0.215493 4
-1.12529 -2.23755 0.0431074 52
