# .PCD v0.7 - Point Cloud Data file format
VERSION 0.7
FIELDS x y z intensity
SIZE 4 4 4 4
TYPE F F F F
COUNT 1 1 1 1
WIDTH 1516
HEIGHT 1
VIEWPOINT 0 0 0 1 0 0 0
POINTS 1516
DATA ascii
-7.0143 -0.909906 0.615755 1
-7.26317 -2.28921 0.929454 35
-3.11336 -0.404095 0.0541897 32
-1.69653 -0.529574 0.0913262 50
-0.66091 -0.0867651 -0.0332127 55
-1.69159 -0.527375 -0.0303236 53
-0.819593 -0.106832 -0.0970526 53
-0.830287 -0.256448 -0.0728473 53
-0.818331 -0.106385 -0.153325 52
-0.82564 -0.255586 -0.13155 47
-0.815429 -0.105452 -0.2108 47
-0.812521 -0.252178 -0.188112 45
-7.07145 -0.903531 1.63517 27
-6.99303 -2.21453 1.95348 1
-7.02033 -0.898243 1.11292 1
-7.23602 -2.27782 1.46648 38
-7.00846 -0.896715 0.615102 1
-7.32357 -2.29565 0.936756 32
-3.11654 -0.398977 0.0542333 18
-1.69975 -0.527655 0.0914571 50
-0.663537 -0.085927 -0.033344 55
-1.6949 -0.525168 -0.0303672 53
-0.817298 -0.105231 -0.0967484 55
-0.828357 -0.254255 -0.0726299 53
-0.823385 -0.105573 -0.154278 52
-0.821373 -0.252666 -0.130767 49
-0.813215 -0.103728 -0.210153 47
-0.812916 -0.250902 -0.188112 45
-6.8512 -0.839 1.58295 1
-7.24624 -2.2546 2.02133 35
-7.02003 -0.860873 1.11214 1
-7.23339 -2.23681 1.46362 32
-7.00797 -0.860625 0.614666 1
-7.326 -2.25435 0.935539 32
-3.11108 -0.382286 0.0541025 23
-1.69771 -0.51728 0.0911954 50
-0.666456 -0.0827541 -0.0334753 55
-1.69992 -0.517317 -0.0304108 55
-0.822764 -0.10155 -0.0973569 55
-0.822535 -0.24772 -0.0719775 55
-0.819036 -0.100812 -0.153325 52
-0.822685 -0.248362 -0.130767 49
-0.818525 -0.100189 -0.211447 49
-0.816546 -0.247362 -0.188673 47
-7.06791 -0.852976 1.63292 27
-7.24324 -2.23981 2.01939 39
-7.01662 -0.848027 1.11136 1
-7.22829 -2.22003 1.46171 32
-7.00451 -0.847795 0.61423 1
-7.32044 -2.23865 0.934322 32
-3.10933 -0.376014 0.0540588 29
-1.69861 -0.514316 0.0911954 50
-0.661642 -0.0809944 -0.0332127 55
-1.69126 -0.511429 -0.0302363 53
-0.820476 -0.0998185 -0.0970526 55
-0.82773 -0.247738 -0.0724124 53
-0.81921 -0.0993826 -0.153325 52
-0.820756 -0.246203 -0.130375 47
-0.818716 -0.0986172 -0.211447 50
-0.812319 -0.244505 -0.18755 47
-6.85218 -0.789397 1.58182 1
-7.24601 -2.19777 2.0168 33
-7.01865 -0.809769 1.11097 1
-7.22102 -2.17648 1.4579 30
-7.00405 -0.809314 0.613794 1
-7.31581 -2.19401 0.932192 32
-3.11374 -0.360014 0.0541025 30
-1.69659 -0.503684 0.0909337 49
-0.657097 -0.0769585 -0.0329502 56
-1.68921 -0.500837 -0.030149 53
-0.816074 -0.0948134 -0.0964442 55
-0.829015 -0.243401 -0.0724124 53
-0.822175 -0.0952271 -0.153802 52
-0.819669 -0.241192 -0.129984 47
-0.819221 -0.094329 -0.211447 50
-0.808965 -0.238701 -0.186427 47
-7.06885 -0.803064 1.6318 26
-7.23596 -2.18093 2.01293 33
-7.01256 -0.797907 1.1098 1
-7.22951 -2.16528 1.45885 32
-7.00545 -0.797088 0.613794 1
-7.31925 -2.18252 0.932192 32
-3.10691 -0.353734 0.0539716 29
-1.69498 -0.500305 0.0908029 50
-0.664672 -0.0766542 -0.033344 55
-1.69967 -0.500739 -0.0303236 55
-0.816222 -0.0935314 -0.0964442 55
-0.817504 -0.2384 -0.0713251 52
-0.817462 -0.093244 -0.152849 52
-0.824821 -0.241173 -0.130767 49
-0.819384 -0.0928991 -0.211447 50
-0.814006 -0.238828 -0.18755 47
-7.06811 -0.765517 1.63068 26
-7.23765 -2.14153 2.01034 33
-7.01173 -0.760647 1.10902 1
-7.23567 -2.12727 1.4579 33
-7.0094 -0.76162 0.613794 1
-7.32343 -2.14207 0.931279 32
-3.10617 -0.337735 0.0539279 26
-1.69279 -0.490022 0.0905412 50
-0.662582 -0.0729051 -0.0332127 56
-1.69498 -0.490028 -0.0301927 56
-0.811766 -0.0887256 -0.0958357 55
-0.816351 -0.233419 -0.0711077 52
-0.815483 -0.0888436 -0.152373 53
-0.823703 -0.236157 -0.130375 49
-0.817443 -0.0884949 -0.2108 50
-0.815245 -0.234563 -0.18755 47
-7.06217 -0.752407 1.62899 27
-7.23674 -2.12753 2.00905 33
-7.2856 -0.77744 1.15233 38
-7.22796 -2.10993 1.45552 33
-7.00576 -0.748857 0.613359 1
-7.31763 -2.12651 0.930062 32
-3.10682 -0.331771 0.0539279 21
-1.69364 -0.487067 0.0905412 50
-0.655261 -0.0709578 -0.0328189 56
-1.69103 -0.485676 -0.0301054 55
-0.814387 -0.0875698 -0.0961399 55
-0.82154 -0.233381 -0.0715426 52
-0.820518 -0.087935 -0.153325 53
-0.821743 -0.23403 -0.129984 49
-0.820013 -0.0871765 -0.211447 50
-0.808638 -0.231091 -0.185866 44
-7.06614 -0.714186 1.62899 26
-7.24119 -2.08634 2.00711 33
-7.00471 -0.709212 1.10707 1
-7.23419 -2.0707 1.45457 33
-7.2798 -0.73828 0.637109 36
-7.31709 -2.08348 0.928541 32
-3.10105 -0.314746 0.053797 17
-1.69385 -0.477213 0.0904104 49
-0.658107 -0.0677765 -0.0329502 56
-1.69364 -0.476519 -0.0301054 59
-0.81238 -0.0829145 -0.0958357 55
-0.825147 -0.229758 -0.07176 52
-0.816098 -0.0830059 -0.152373 53
-0.820582 -0.229047 -0.129592 49
-0.813249 -0.082166 -0.209507 49
-0.814561 -0.228053 -0.186989 47
-6.8515 -0.681664 1.57901 1
-7.23089 -2.0697 2.00323 33
-7.00581 -0.698208 1.10707 1
-7.22835 -2.05538 1.45266 35
-7.28603 -0.726066 0.637544 30
-7.3132 -2.06995 0.927629 33
-3.10657 -0.309827 0.0538843 14
-1.6922 -0.473872 0.0902795 50
-0.653256 -0.0661353 -0.0326876 56
-1.69447 -0.473563 -0.0301054 74
-0.80757 -0.0811506 -0.0952272 55
-0.820753 -0.226963 -0.0713251 52
-0.818684 -0.0818214 -0.152849 52
-0.81623 -0.226268 -0.128809 49
-0.815794 -0.0809808 -0.210153 52
-0.812575 -0.226106 -0.186427 45
-6.85255 -0.645553 1.57845 1
-7.23895 -2.03242 2.00259 33
-6.99462 -0.660127 1.10472 1
-7.23866 -2.01877 1.45266 35
-7.27473 -0.687775 0.636237 36
-7.32393 -2.03163 0.927629 35
-3.10063 -0.293396 0.0537534 12
-1.69947 -0.466339 0.0905412 50
-1.69684 -0.46498 -0.0301054 90
-0.810455 -0.077152 -0.0955314 55
-0.82193 -0.222663 -0.0713251 52
-0.811756 -0.0769939 -0.151421 52
-0.819782 -0.222652 -0.129201 49
-0.813789 -0.0766285 -0.209507 52
-0.816094 -0.222503 -0.186989 47
-6.92886 -0.640528 1.59586 1
-7.23318 -2.01718 2 33
-6.99822 -0.648145 1.10512 1
-7.22834 -2.00093 1.4498 35
-7.28088 -0.675537 0.636673 36
-7.31312 -2.01488 0.925803 33
-3.09372 -0.286754 0.0536225 11
-1.69065 -0.460721 0.0900178 52
-1.69524 -0.461355 -0.0300618 90
-0.817515 -0.219907 -0.0708902 50
-0.816778 -0.0760236 -0.152373 52
-0.817789 -0.220564 -0.128809 49
-0.81634 -0.0752836 -0.210153 50
-0.807091 -0.218477 -0.184742 44
-7.06814 -0.614825 1.62731 1
-7.237 -1.9761 1.99806 33
-6.98933 -0.609202 1.10316 1
-7.23398 -1.96177 1.44885 33
-7.27203 -0.635053 0.635583 36
-7.31673 -1.97334 0.92489 33
-3.10016 -0.270984 0.0537098 11
-1.69553 -0.452217 0.0901487 52
-0.646554 -0.057502 -0.0322938 56
-1.70012 -0.452826 -0.0301054 85
-0.81625 -0.214975 -0.0706728 50
-0.812287 -0.0711832 -0.151421 52
-0.823738 -0.217423 -0.129592 49
-0.811911 -0.0705982 -0.20886 50
-0.815314 -0.21602 -0.186427 47
-7.07395 -0.604136 1.62843 1
-7.23111 -1.96094 1.99548 33
-7.00514 -0.59826 1.10551 1
-7.22554 -1.94594 1.44646 35
-7.2756 -0.622572 0.635801 36
-7.31297 -1.95864 0.923978 33
-3.09316 -0.264936 0.0535789 11
-1.68908 -0.447319 0.0897562 52
-0.651628 -0.0567965 -0.0325564 56
-1.6985 -0.449212 -0.0300618 82
-0.818527 -0.0705618 -0.0964442 55
-0.814218 -0.212906 -0.0704553 50
-0.814855 -0.0699712 -0.151897 52
-0.816962 -0.214067 -0.128418 49
-0.814439 -0.0693819 -0.209507 50
-0.810986 -0.21333 -0.185304 47
-7.07226 -0.565466 1.62731 1
-7.22961 -1.91994 1.99225 32
-7.00079 -0.560983 1.10433 1
-7.23089 -1.90683 1.44551 33
-7.27876 -0.584468 0.635801 36
-7.32072 -1.91969 0.923673 35
-3.0945 -0.248737 0.0535789 11
-1.6914 -0.438469 0.0897562 52
-0.651917 -0.0533838 -0.0325564 56
-1.69357 -0.438414 -0.0299309 74
-0.813938 -0.0658831 -0.0958357 56
-0.810504 -0.207378 -0.0700204 50
-0.810317 -0.0653177 -0.150945 53
-0.818035 -0.209929 -0.128418 49
-0.819606 -0.065493 -0.2108 52
-0.812092 -0.209081 -0.185304 45
-7.078 -0.554736 1.62843 9
-7.23062 -1.9067 1.9916 33
-6.99182 -0.549214 1.10277 1
-7.21996 -1.89047 1.44265 35
-7.27977 -0.571764 0.635801 36
-7.31173 -1.90505 0.922152 33
-3.08995 -0.242946 0.0534916 11
-1.68967 -0.435183 0.0896253 52
-0.652009 -0.0522459 -0.0325564 56
-1.68466 -0.432942 -0.0297564 74
-0.809093 -0.0642203 -0.0952272 56
-0.808454 -0.205336 -0.069803 50
-0.815324 -0.0642808 -0.151897 52
-0.8184 -0.208501 -0.128418 49
-0.80768 -0.0631423 -0.207567 50
-0.810062 -0.207187 -0.184742 47
-7.06866 -0.516782 1.62562 1
-7.23316 -1.86826 1.98966 33
-6.99706 -0.512778 1.10316 1
-7.22469 -1.85268 1.4417 35
-7.27761 -0.534546 0.635365 35
-7.31679 -1.86551 0.921544 33
-3.12355 -0.229672 0.0540588 8
-1.68951 -0.425713 0.0894945 52
-0.654763 -0.0490124 -0.0326876 56
-1.67229 -0.420711 -0.0294946 15
-0.811893 -0.0601622 -0.0955314 55
-0.807104 -0.200486 -0.0695855 50
-0.815639 -0.0601532 -0.151897 52
-0.817088 -0.203602 -0.128026 49
-0.812807 -0.0593971 -0.20886 50
-0.813496 -0.203548 -0.185304 47
-7.07441 -0.50479 1.62674 1
-7.22238 -1.85203 1.98579 32
-6.98809 -0.499862 1.1016 1
-7.21872 -1.83638 1.43979 35
-7.27853 -0.521844 0.635365 35
-7.31282 -1.85091 0.920631 33
-1.68783 -0.422151 0.0893636 52
-0.649867 -0.0475161 -0.0324251 58
-0.814472 -0.0589199 -0.0958357 56
-0.807453 -0.199077 -0.0695855 50
-0.818191 -0.0589016 -0.152373 53
-0.819836 -0.202783 -0.128418 49
-0.812919 -0.0578366 -0.20886 50
-0.806767 -0.200325 -0.183619 47
-7.07947 -0.466667 1.62731 1
-7.22293 -1.81057 1.9832 33
-6.99562 -0.462371 1.10238 1
-7.21871 -1.79618 1.43788 35
-7.28125 -0.482456 0.635365 35
-7.3131 -1.80893 0.919414 35
-1.69008 -0.413013 0.0893636 52
-0.657581 -0.0446039 -0.0328189 58
-0.814779 -0.0545124 -0.0958357 56
-0.808484 -0.194846 -0.0695855 49
-0.813599 -0.0541563 -0.151421 53
-0.816093 -0.197299 -0.127635 49
-0.813211 -0.0535794 -0.20886 52
-0.812567 -0.197134 -0.184742 49
-7.07533 -0.455234 1.62618 1
-7.2167 -1.79562 1.98062 33
-6.99881 -0.45154 1.10277 1
-7.21945 -1.78299 1.43741 35
-7.28208 -0.469747 0.635365 35
-7.3087 -1.79565 0.918501 35
-1.68346 -0.408571 0.0889711 52
-0.655166 -0.0432968 -0.0326876 56
-0.812387 -0.0530749 -0.0955314 56
-0.799148 -0.191062 -0.0687157 47
-0.813693 -0.0527363 -0.151421 53
-0.818834 -0.196464 -0.128026 49
-0.810893 -0.0520096 -0.208214 50
-0.805781 -0.194104 -0.183058 47
-6.96332 -0.411451 1.59979 1
-7.22101 -1.75793 1.97932 35
-6.99861 -0.414743 1.10238 1
-7.21407 -1.74296 1.43455 35
-7.27442 -0.432294 0.634494 33
-7.30835 -1.75504 0.917284 33
-1.688 -0.400334 0.089102 53
-0.647907 -0.0394268 -0.0322938 58
-1.56133 -0.369352 -0.0274003 17
-0.810177 -0.048676 -0.0952272 56
-0.800137 -0.186875 -0.0687157 45
-0.813949 -0.0486171 -0.151421 53
-0.819851 -0.192174 -0.128026 49
-0.815968 -0.048181 -0.209507 52
-0.811522 -0.191026 -0.184181 47
-6.86431 -0.3936 1.57677 1
-7.21467 -1.74305 1.97674 33
-7.2779 -0.418492 1.14648 38
-7.20786 -1.72681 1.43264 33
-7.27765 -0.41974 0.634712 33
-7.3114 -1.74228 0.917284 33
-1.68384 -0.39623 0.0888403 53
-0.647975 -0.0382959 -0.0322938 59
-1.55954 -0.366048 -0.0273566 20
-0.807783 -0.0471216 -0.094923 56
-0.790771 -0.183173 -0.0678459 45
-0.811582 -0.0470586 -0.150945 53
-0.81298 -0.189024 -0.126852 50
-0.811236 -0.0463473 -0.208214 50
-0.811855 -0.189609 -0.184181 47
-6.8639 -0.356329 1.57621 1
-7.224 -1.70398 1.97674 33
-7.27759 -0.378981 1.14609 38
-7.22158 -1.69017 1.4336 36
-7.28479 -0.380617 0.635147 33
-7.30381 -1.69875 0.915155 32
-1.68353 -0.386548 0.0887094 55
-0.65066 -0.0350315 -0.0324251 59
-1.55906 -0.35704 -0.027313 23
-0.808026 -0.0427504 -0.094923 56
-0.786867 -0.177903 -0.0674109 44
-0.809374 -0.0425423 -0.150468 53
-0.818801 -0.185743 -0.127635 50
-0.809056 -0.0419781 -0.207567 50
-0.808124 -0.184104 -0.183058 47
-6.87418 -0.346034 1.57845 1
-7.21991 -1.68972 1.9748 33
-7.27085 -0.365908 1.14492 36
-7.21018 -1.67422 1.43074 35
-7.28544 -0.367902 0.635147 33
-7.08918 -1.63565 0.887773 1
-1.68663 -0.384171 0.0888403 55
-0.64324 -0.0335221 -0.0320313 59
-1.56699 -0.356001 -0.0274439 21
-0.810578 -0.0414626 -0.0952272 56
-0.782323 -0.175411 -0.066976 44
-0.811898 -0.0412499 -0.150945 53
-0.816718 -0.183757 -0.127243 50
-0.809128 -0.040566 -0.207567 50
-0.808445 -0.182693 -0.183058 49
-6.87109 -0.308619 1.57733 1
-7.2216 -1.65027 1.97286 33
-7.27266 -0.327833 1.14492 36
-7.21406 -1.63536 1.42978 35
-7.28478 -0.329639 0.63493 33
-7.29855 -1.64389 0.913025 33
-1.68131 -0.373689 0.0884478 55
-0.648394 -0.0303767 -0.0322938 59
-1.59078 -0.352726 -0.0278366 21
-0.808305 -0.0371084 -0.094923 56
-0.78323 -0.171312 -0.066976 42
-0.809651 -0.0368908 -0.150468 52
-0.81282 -0.178534 -0.12646 50
-0.816567 -0.0366411 -0.209507 50
-0.80939 -0.178458 -0.183058 49
-6.86913 -0.297721 1.57677 1
-7.21269 -1.63499 1.96963 33
-7.27563 -0.316516 1.14531 38
-7.21212 -1.62168 1.42883 35
-7.29281 -0.317247 0.635583 32
-7.2987 -1.63188 0.912721 33
-1.6819 -0.371047 0.0884478 55
-0.648446 -0.029245 -0.0322938 59
-0.810841 -0.0359443 -0.0952272 56
-0.776236 -0.168317 -0.0663237 42
-0.812167 -0.0355808 -0.150945 53
-0.81554 -0.177655 -0.126852 49
-0.814217 -0.035116 -0.20886 50
-0.812046 -0.177721 -0.183619 47
-6.87546 -0.261934 1.57789 1
-7.22087 -1.59846 1.96963 33
-7.26979 -0.278134 1.14414 36
-7.21784 -1.58463 1.42835 35
-7.29183 -0.280236 0.635365 32
-7.07685 -1.54326 0.883818 1
-3.11218 -0.119856 0.0537534 9
-1.68138 -0.361704 0.0883169 55
-0.648591 -0.0258494 -0.0322938 59
-0.811018 -0.0316982 -0.0952272 55
-0.774673 -0.163721 -0.0661062 41
-0.812336 -0.0314696 -0.150945 52
-0.814047 -0.172855 -0.12646 50
-0.814385 -0.0309944 -0.20886 49
-0.805827 -0.1719 -0.181935 47
-7.06094 -0.256622 1.62057 21
-7.21658 -1.5843 1.96769 35
-7.27273 -0.265536 1.14453 36
-7.20888 -1.56816 1.42597 35
-7.28484 -0.267236 0.634712 30
-7.07469 -1.52986 0.883209 1
-3.12739 -0.114423 0.0540152 9
-1.68445 -0.359297 0.0884478 55
-0.643645 -0.0245379 -0.0320313 59
-0.811072 -0.0302827 -0.0952272 55
-0.809937 -0.0299653 -0.150468 52
-0.814347 -0.171434 -0.12646 50
-0.812029 -0.0293478 -0.208214 49
-0.808506 -0.171011 -0.182496 49
-6.86742 -0.212429 1.57565 1
-7.2156 -1.5432 1.96511 33
-7.27653 -0.226259 1.14492 38
-7.20979 -1.52886 1.42454 35
-7.28867 -0.227895 0.63493 29
-7.30136 -1.53772 0.910591 35
-3.11046 -0.097506 0.0537098 9
-1.68393 -0.349663 0.0883169 55
-0.648755 -0.0213208 -0.0322938 59
-1.66649 -0.345391 -0.0291019 52
-0.808744 -0.025819 -0.094923 56
-0.812541 -0.0256559 -0.150945 52
-0.815234 -0.167168 -0.12646 50
-0.809758 -0.0250253 -0.207567 49
-0.804653 -0.165624 -0.181373 49
-6.86288 -0.201499 1.57452 1
-7.21828 -1.53061 1.96511 33
-7.26947 -0.214611 1.14375 36
-7.21244 -1.51627 1.42454 35
-7.28906 -0.215174 0.63493 30
-7.06577 -1.47636 0.880776 1
-3.10063 -0.0917857 0.0535353 11
-1.67958 -0.345997 0.0880552 55
-0.643801 -0.0200438 -0.0320313 59
-1.67688 -0.344522 -0.0292764 56
-0.808784 -0.0245486 -0.094923 56
-0.812584 -0.0242377 -0.150945 52
-0.813107 -0.165239 -0.126069 50
-0.804972 -0.0234796 -0.206274 50
-0.807297 -0.164861 -0.181935 49
-6.8614 -0.165505 1.57396 1
-7.21648 -1.49209 1.96252 33
-7.27296 -0.176605 1.14414 36
-7.21522 -1.47876 1.42359 35
-7.29254 -0.178338 0.635147 29
-7.07097 -1.43885 0.880471 1
-3.10355 -0.0761511 0.0535789 12
-1.68382 -0.337695 0.0881861 55
-0.648888 -0.0167911 -0.0322938 59
-1.6786 -0.33603 -0.0292764 59
-0.808901 -0.0203135 -0.094923 56
-0.807789 -0.0200115 -0.149992 52
-0.813962 -0.160979 -0.126069 49
-0.812324 -0.0195669 -0.208214 50
-0.805762 -0.160143 -0.181373 49
-6.87142 -0.153745 1.57621 1
-7.2167 -1.47901 1.96188 33
-7.27079 -0.163856 1.14375 35
-7.20842 -1.46294 1.42168 35
-7.28039 -0.16533 0.634058 30
-7.0686 -1.42552 0.879863 1
-3.10369 -0.0701926 0.0535789 15
-1.68441 -0.334756 0.0881861 56
-0.643925 -0.0155488 -0.0320313 59
-1.67918 -0.3331 -0.0292764 62
-0.808935 -0.0189017 -0.094923 58
-0.810277 -0.0186539 -0.150468 52
-0.81236 -0.0180073 -0.208214 50
-0.808428 -0.159221 -0.181935 50
-6.88921 -0.116851 1.58014 1
-7.2175 -1.43852 1.95994 35
-7.27157 -0.124515 1.14375 35
-7.21599 -1.42518 1.42168 35
-7.28865 -0.126065 0.634712 30
-7.07134 -1.38629 0.879254 1
-3.09902 -0.0538561 0.0534916 29
-1.68129 -0.324677 0.0879244 56
-0.643997 -0.012177 -0.0320313 59
-1.67851 -0.323529 -0.0292328 64
-0.809026 -0.0145247 -0.094923 56
-0.807912 -0.0142306 -0.149992 53
-0.812443 -0.0137536 -0.208214 50
-6.90887 -0.106325 1.58463 1
-7.21289 -1.42451 1.958 33
-7.26682 -0.113017 1.14297 35
-7.21365 -1.41164 1.42073 35
-7.07108 -1.37471 0.87895 1
-3.10161 -0.0484852 0.0535353 35
-1.6769 -0.321083 0.0876627 56
-0.64901 -0.0111279 -0.0322938 59
-1.68398 -0.321551 -0.02932 62
-0.806566 -0.0132175 -0.0946187 56
-0.810389 -0.0128552 -0.150468 53
-0.810488 -0.152926 -0.125285 50
-0.807636 -0.0122706 -0.20692 50
-7.21526 -1.38707 1.95671 33
-7.21106 -1.37327 1.41882 35
-7.06599 -1.33535 0.877429 1
-3.09431 -0.0327101 0.0534044 23
-1.67856 -0.312299 0.0876627 56
-0.646562 -0.00781803 -0.0321625 59
-1.67085 -0.310244 -0.0290583 64
-0.806624 -0.00899415 -0.0946187 58
-0.812898 -0.0087756 -0.150945 53
-0.811278 -0.14868 -0.125285 50
-0.810103 -0.00820292 -0.207567 52
-0.803133 -0.147966 -0.18025 49
-7.20107 -1.3713 1.95218 35
-7.20621 -1.35931 1.41739 35
-3.10062 -0.027903 0.268222 8
-7.07075 -1.32348 0.877733 1
-3.09187 -0.0272885 0.0533607 23
-1.67665 -0.308909 0.0875319 56
-0.646574 -0.00668956 -0.0321625 59
-1.6591 -0.305032 -0.0288401 58
-0.80912 -0.00760537 -0.094923 58
-0.809109 -0.146809 -0.124894 50
-0.802871 -0.00674096 -0.205627 52
-0.805784 -0.147015 -0.180812 47
-7.20815 -1.33358 1.95218 33
-3.11175 -0.0111736 0.486219 4
-7.2084 -1.32067 1.41644 35
-3.08578 -0.0116184 0.266914 9
-7.06782 -1.28466 0.876516 1
-3.07947 -0.01106 0.0531426 14
-1.6807 -0.300572 0.0876627 53
-0.641608 -0.00317723 -0.0319 59
-0.806668 -0.00336268 -0.0946187 58
-0.814725 -0.143455 -0.125677 49
-0.80531 -0.00254044 -0.206274 52
-0.806543 -0.142794 -0.180812 49
-7.21047 -1.321 1.95218 33
-3.0772 -0.00569429 0.480756 2
-6.97913 -1.26466 1.37068 1
-3.07085 -0.00620919 0.265607 9
-7.06516 -1.27144 0.875908 1
-3.07699 -0.00514476 0.0530989 1
-1.66893 -0.295428 0.0870085 39
-0.639116 -0.00205479 -0.0317687 59
-0.806672 -0.00195477 -0.0946187 58
-0.706613 -0.122019 -0.0595826 36
-0.805581 -0.00167891 -0.149516 53
-0.812544 -0.141595 -0.125285 50
-0.807729 -0.000993085 -0.20692 50
-0.809188 -0.141821 -0.181373 47
-7.208 -1.28027 1.9496 35
-3.04261 0.0108162 0.475293 9
-7.20558 -1.26692 1.41405 35
-3.04842 0.0103196 0.263646 14
-7.06949 -1.23276 0.875603 1
-3.04947 0.0108559 0.052619 20
-0.649104 0.00133346 -0.0322938 59
-0.806671 0.00240975 -0.0946187 59
-0.709695 -0.118745 -0.0598 36
-0.808033 0.00269213 -0.149992 55
-0.805978 -0.136062 -0.124111 49
-0.802893 0.00320835 -0.205627 50
-0.805145 -0.136597 -0.18025 49
-7.19833 -1.26559 1.94637 35
-3.04506 0.0156093 0.475683 9
-7.20778 -1.25434 1.41405 35
-3.0484 0.0156401 0.263646 15
-7.06164 -1.21996 0.874387 1
-3.05195 0.0161926 0.0526626 23
-0.644108 0.00243672 -0.0320313 59
-0.700084 -0.115814 -0.0589302 36
-0.810481 0.00411911 -0.150468 53
-0.808647 -0.135077 -0.124502 50
-0.805301 0.00462778 -0.206274 52
-0.805358 -0.135332 -0.18025 49
-7.20702 -1.22954 1.94701 36
-3.04987 0.0316063 0.476464 9
-7.2092 -1.21703 1.4131 36
-3.05077 0.0310957 0.263864 14
-7.06304 -1.18215 0.873778 1
-3.04433 0.0315585 0.0525317 30
-1.72659 -0.284082 0.089887 14
-0.64159 0.00578133 -0.0319 59
-0.695768 -0.111326 -0.0584953 36
-0.805541 0.008163 -0.149516 55
-0.811778 -0.131249 -0.124894 50
-0.802853 0.00867335 -0.205627 52
-0.81086 -0.131925 -0.181373 50
-7.19963 -1.21535 1.94443 36
-3.05228 0.0369603 0.476854 8
-7.20184 -1.20156 1.4112 35
-3.0557 0.036482 0.2643 14
-7.06509 -1.16982 0.873778 1
-3.04926 0.0374669 0.052619 23
-1.75171 -0.285146 0.0911954 14
-0.646572 0.00696559 -0.0321625 61
-1.69718 -0.275516 -0.0294073 11
-0.693504 -0.109706 -0.0582778 38
-0.810434 0.00963574 -0.150468 56
-0.804699 -0.12862 -0.123719 50
-0.805249 0.0102497 -0.206274 52
-7.2061 -1.17638 1.94443 36
-3.08167 0.0540068 0.481537 1
-7.20319 -1.16305 1.41024 35
-3.07288 0.0533246 0.265825 3
-7.06397 -1.13039 0.872865 1
-3.06902 0.0537916 0.052968 3
-1.77542 -0.279214 0.092373 14
-0.64403 0.0103056 -0.0320313 61
-1.70112 -0.266723 -0.0294509 11
-0.791673 0.0133944 -0.0927933 62
-0.696528 -0.106466 -0.0584953 41
-0.805462 0.0139271 -0.149516 55
-0.810237 -0.125187 -0.124502 50
-0.800355 0.0143705 -0.20498 53
-7.19623 -1.16187 1.9412 36
-7.19794 -1.14931 1.40881 33
-3.08524 0.0589311 0.266914 11
-7.05838 -1.11813 0.871953 1
-3.08392 0.0594438 0.0532298 14
-1.80051 -0.28033 0.0936814 14
-0.649003 0.011529 -0.0322938 67
-1.71146 -0.265313 -0.0296255 15
-0.78917 0.0145877 -0.092489 70
-0.805437 0.0153329 -0.149516 56
-0.808015 -0.123386 -0.124111 50
-0.807572 0.0159229 -0.20692 52
-0.804764 -0.12369 -0.179689 49
-7.19724 -1.12468 1.93991 35
-6.96357 -1.07561 1.36163 1
-7.06169 -1.08078 0.871648 1
-3.08607 0.075114 0.0532735 14
-0.646438 0.0148642 -0.0321625 65
-0.789083 0.0187195 -0.092489 70
-0.807802 0.0194727 -0.149992 56
-0.80865 -0.119154 -0.124111 49
-0.807481 0.0200102 -0.20692 52
-0.8054 -0.119475 -0.179689 49
-7.15322 0.189651 1.64134 33
-7.19681 -1.11175 1.93926 35
-7.25531 0.191123 1.14141 36
-6.9632 -1.06187 1.36115 1
-7.05375 -1.06696 0.870431 1
-3.09842 0.0813724 0.0534916 12
-0.651402 0.0161267 -0.0324251 73
-0.789049 0.0200967 -0.092489 70
-0.81022 0.0209502 -0.150468 56
-0.806416 -0.117372 -0.123719 49
-0.8002 0.0213543 -0.20498 52
-0.805608 -0.118069 -0.179689 49
-7.14722 0.228195 1.64022 33
-7.19794 -1.07208 1.93797 33
-7.25416 0.230375 1.14141 36
-6.95895 -1.02396 1.35925 1
-7.27366 0.229739 0.633622 26
-7.05942 -1.02878 0.870431 1
-3.09295 0.0974348 0.0534044 11
-0.6563 0.0196975 -0.0326876 79
-0.788929 0.0243656 -0.092489 71
-0.805189 0.0251717 -0.149516 56
-0.807039 -0.113007 -0.123719 50
-0.800077 0.0255439 -0.20498 52
-0.803824 -0.113354 -0.179127 49
-7.14929 0.239503 1.64078 33
-7.19502 -1.05881 1.93668 33
-7.26116 0.243285 1.14258 36
-7.19628 -1.04622 1.40548 36
-7.27574 0.242517 0.63384 27
-7.2896 -1.04949 0.898726 35
-3.13275 0.10418 0.0541025 11
-0.653769 0.0207584 -0.0325564 74
-0.791365 0.0258278 -0.0927933 71
-0.81005 0.0267475 -0.150468 56
-0.802347 -0.110893 -0.122936 50
-0.804858 0.0271113 -0.206274 52
-0.804021 -0.111951 -0.179127 49
-7.14789 0.278181 1.64078 33
-7.18852 -1.01942 1.93344 32
-7.25731 0.281205 1.14219 36
-6.95621 -0.973984 1.35734 1
-7.27935 0.280802 0.634276 29
-7.05168 -0.977418 0.868606 1
-3.11717 0.119998 0.0538407 3
-0.656146 0.0242788 -0.0326876 82
-0.791219 0.029971 -0.0927933 74
-0.669001 -0.0877582 -0.0558859 45
-0.809899 0.0309885 -0.150468 58
-0.802898 -0.106831 -0.122936 50
-0.802292 0.031227 -0.205627 52
-0.802184 -0.107402 -0.178566 49
-7.15231 0.289606 1.64191 33
-7.18789 -1.00653 1.9328 33
-7.2544 0.292504 1.1418 35
-6.95304 -0.961166 1.35639 1
-7.26889 0.293104 0.633404 32
-7.03846 -0.964309 0.866781 1
-3.05262 -0.413329 0.159625 9
-0.658597 0.0255259 -0.0328189 85
-0.788691 0.0311116 -0.092489 76
-0.671621 -0.0869276 -0.0561033 45
-0.809843 0.032402 -0.150468 56
-0.800638 -0.105093 -0.122545 50
-0.797411 0.0324224 -0.204334 52
-0.804764 -0.106475 -0.179127 49
-7.15313 0.327163 1.64247 35
-7.19289 -0.970137 1.9328 32
-7.2577 0.33071 1.14258 33
-6.95295 -0.925311 1.35543 1
-7.28722 0.330798 0.635147 27
-7.04341 -0.927442 0.866781 1
-3.05969 -0.397991 0.159886 9
-0.658455 0.0289739 -0.0328189 88
-0.790996 0.0353559 -0.0927933 77
-0.667128 -0.0827614 -0.0556684 47
-0.807217 0.0363858 -0.149992 58
-0.803625 -0.101223 -0.122936 50
-0.799649 0.0365726 -0.20498 52
-0.802896 -0.101939 -0.178566 49
-6.88244 0.326768 1.58014 1
-7.1874 -0.956621 1.93086 32
-7.26698 0.343845 1.14414 35
-6.94742 -0.910998 1.354 1
-7.27419 0.342927 0.634058 27
-7.03518 -0.913863 0.865564 1
-3.05048 -0.391364 0.159363 9
-0.655909 0.0300037 -0.0326876 90
-0.790933 0.0367364 -0.0927933 79
-0.664801 -0.081277 -0.0554509 47
-0.80225 0.0375565 -0.14904 58
-0.798903 -0.0991824 -0.122153 50
-0.801989 0.038227 -0.205627 52
-0.800657 -0.10022 -0.178004 52
-7.18767 -0.917105 1.92957 32
-7.26008 0.382897 1.14336 35
-6.94722 -0.873993 1.35305 1
-7.28964 0.383198 0.635583 27
-7.2764 -0.905353 0.894771 33
-3.05503 -0.375162 0.159494 9
-0.655743 0.0334377 -0.0326876 90
-0.785767 0.0407494 -0.0921848 80
-0.66769 -0.078102 -0.0556684 49
-0.806936 0.0421611 -0.149992 58
-0.801862 -0.095304 -0.122545 50
-0.804189 0.0425575 -0.206274 52
-0.801188 -0.0958869 -0.178004 50
-7.18447 -0.903953 1.92827 32
-7.26687 0.394704 1.14453 38
-6.95361 -0.862474 1.354 1
-7.27901 0.395378 0.634712 27
-7.27288 -0.893314 0.894162 33
-3.05314 -0.370059 0.159363 11
-0.655684 0.0345821 -0.0326876 90
-0.790658 0.0422572 -0.0927933 82
-0.660409 -0.0760286 -0.055016 49
-0.806862 0.0435694 -0.149992 58
-0.799576 -0.0936026 -0.122153 50
-0.796502 -0.0940277 -0.176881 52
-7.14057 0.426568 1.64078 33
-7.18416 -0.866995 1.92698 32
-7.25484 0.432158 1.14297 38
-6.94813 -0.826102 1.3521 1
-7.2794 0.432363 0.63493 30
-7.04335 -0.827554 0.865259 1
-3.05007 -0.353485 0.159101 11
-0.657986 0.0381646 -0.0328189 90
-0.787949 0.0462467 -0.092489 85
-0.663271 -0.0728593 -0.0552335 49
-0.806631 0.0476527 -0.149992 58
-0.800055 -0.0894148 -0.122153 50
-0.799403 -0.0901436 -0.177443 50
-7.14711 0.43948 1.64247 33
-7.18806 -0.854742 1.92763 32
-7.25654 0.444971 1.14336 36
-6.94727 -0.812475 1.35162 1
-7.27864 0.445067 0.63493 32
-7.27648 -0.842231 0.893858 33
-3.05317 -0.348448 0.159232 11
-0.652935 0.0390046 -0.0325564 90
-0.787867 0.0476219 -0.092489 83
-0.660923 -0.0714162 -0.055016 50
-0.808996 0.0492138 -0.150468 58
-0.795305 -0.087449 -0.12137 50
-0.794147 0.0489621 -0.203687 52
-0.804398 -0.089315 -0.178566 50
-7.13976 0.477816 1.64134 33
-7.18298 -0.814743 1.92504 32
-7.2491 0.483896 1.14258 38
-7.18555 -0.802391 1.39737 36
-7.2637 0.483612 0.63384 33
-7.26366 -0.800934 0.891728 33
-3.05501 -0.331924 0.159232 11
-0.650231 0.0422556 -0.0324251 90
-0.795025 0.0523864 -0.0934018 86
-0.661288 -0.0679547 -0.055016 50
-0.803821 0.0532571 -0.149516 58
-0.795752 -0.0832836 -0.12137 50
-0.796289 0.0532851 -0.204334 52
-0.800028 -0.0844209 -0.177443 52
-7.13657 0.488864 1.64078 33
-7.18439 -0.802205 1.92504 32
-7.25818 0.495958 1.14414 38
-6.94546 -0.763145 1.35019 1
-7.25787 0.495949 0.633404 33
-7.26738 -0.789793 0.892032 32
-3.05304 -0.326855 0.159101 11
-0.652646 0.043562 -0.0325564 95
-0.792466 0.0534638 -0.0930975 86
-0.666358 -0.0673366 -0.0554509 50
-0.803726 0.05466 -0.149516 58
-0.793441 -0.0816271 -0.120979 52
-0.793786 0.0545051 -0.203687 53
-0.802581 -0.0834306 -0.178004 50
-7.13878 0.526583 1.64191 33
-7.18116 -0.765059 1.92311 32
-7.25302 0.533773 1.14375 38
-6.94923 -0.727981 1.35019 1
-7.25775 0.53286 0.633622 33
-7.27882 -0.752501 0.892945 35
-3.04975 -0.310351 0.15884 11
-0.652418 0.0468647 -0.0325564 99
-0.792175 0.0576124 -0.0930975 88
-0.66669 -0.063963 -0.0554509 50
-0.803439 0.0587273 -0.149516 58
-0.793858 -0.0774716 -0.120979 50
-0.7935 0.058522 -0.203687 53
-0.798161 -0.0787196 -0.176881 50
-7.14766 0.53853 1.64415 36
-7.18489 -0.752778 1.92375 32
-7.25208 0.546431 1.14375 38
-6.94317 -0.715092 1.34876 1
-7.25433 0.54534 0.633404 33
-7.27272 -0.739039 0.892032 33
-3.05028 -0.305028 0.15884 11
-0.654824 0.0481918 -0.0326876 101
-0.789599 0.0588062 -0.0927933 88
-0.661845 -0.0622968 -0.055016 50
-0.800889 0.059942 -0.14904 58
-0.793992 -0.0760859 -0.120979 50
-0.798212 0.0602791 -0.20498 53
-0.798297 -0.0773264 -0.176881 49
-7.14464 0.577195 1.64415 36
-7.17912 -0.714185 1.92117 30
-7.24666 0.584196 1.14336 38
-6.94437 -0.678488 1.34828 1
-7.24393 0.582715 0.632751 33
-7.28143 -0.701428 0.892641 35
-3.05184 -0.289053 0.15884 11
-0.654554 0.051734 -0.0326876 104
-0.786807 0.0627382 -0.092489 88
-0.662172 -0.058715 -0.055016 50
-0.80301 0.0643349 -0.149516 58
-0.794379 -0.0719275 -0.120979 50
-0.797885 0.0644577 -0.20498 53
-0.793842 -0.0726717 -0.175758 50
-6.87413 0.567365 1.58182 1
-7.17554 -0.701181 1.91987 30
-7.24317 0.59664 1.14297 38
-6.93833 -0.664447 1.34686 1
-7.25035 0.595971 0.633404 33
-7.27276 -0.687778 0.891424 33
-3.05234 -0.283726 0.15884 11
-0.656951 0.0530827 -0.0328189 108
-0.786697 0.0641113 -0.092489 88
-0.662274 -0.0575592 -0.055016 52
-0.800451 0.0655318 -0.14904 58
-0.796962 -0.0707742 -0.12137 50
-0.800166 0.0661927 -0.205627 52
-0.796392 -0.0715187 -0.17632 50
-7.1379 0.628091 1.64359 36
-7.17923 -0.662348 1.91987 30
-7.24229 0.636037 1.14336 38
-6.93927 -0.627887 1.34638 1
-7.24453 0.634972 0.633186 33
-7.27637 -0.648418 0.891424 33
-3.05631 -0.267429 0.15897 12
-0.659151 0.056741 -0.0329502 111
-0.791282 0.0688053 -0.0930975 89
-0.662566 -0.0540908 -0.055016 52
-0.802529 0.0700794 -0.149516 59
-0.797321 -0.0666004 -0.12137 52
-0.797403 0.0701655 -0.20498 53
-0.794342 -0.0669893 -0.175758 52
-7.12477 0.638214 1.64078 23
-7.18038 -0.649817 1.91987 32
-7.23637 0.646971 1.14258 32
-6.93791 -0.615556 1.3459 1
-7.24838 0.64806 0.633622 33
-7.2675 -0.636116 0.890207 33
-3.05673 -0.262627 0.15897 12
-0.656564 0.0576677 -0.0328189 115
-0.78623 0.0696019 -0.092489 89
-0.66266 -0.0529343 -0.055016 53
-0.799961 0.0712579 -0.14904 58
-0.792517 -0.0647766 -0.120587 50
-0.799685 0.0717773 -0.205627 52
-0.792019 -0.0655258 -0.175197 50
-7.17395 -0.612637 1.91729 30
-6.94339 -0.580638 1.34638 1
-7.2732 -0.59826 0.890511 33
-3.05309 -0.24621 0.158709 12
-0.661224 0.061578 -0.0330815 121
-0.788325 0.0739537 -0.0927933 89
-0.662928 -0.0494639 -0.055016 53
-0.802033 0.0755403 -0.149516 58
-0.795306 -0.0608293 -0.120979 52
-0.794504 0.0753593 -0.204334 52
-0.794779 -0.0615809 -0.175758 50
-7.16298 -0.5991 1.91406 27
-6.9396 -0.566904 1.34543 1
-7.27423 -0.585565 0.890511 33
-3.04605 -0.24028 0.158316 12
-0.653661 0.0620089 -0.0326876 126
-0.788195 0.0753295 -0.0927933 90
-0.658048 -0.0479091 -0.0545811 53
-0.8019 0.07694 -0.149516 58
-0.790489 -0.0590433 -0.120196 50
-0.791954 0.0766476 -0.203687 55
-0.792457 -0.0599949 -0.175197 50
-2.85826 0.290931 0.654179 45
-7.16852 -0.560526 1.9147 29
-6.93024 -0.529617 1.34304 1
-7.27729 -0.546199 0.890511 33
-0.644152 0.0643786 0.0106896 3
-3.05477 -0.224356 0.158709 12
-0.655811 0.0656847 -0.0328189 131
-0.790244 0.0798467 -0.0930975 90
-0.660773 -0.0446488 -0.0547986 55
-0.799031 0.0810257 -0.14904 58
-0.793249 -0.0550895 -0.120587 52
-0.80115 0.0817912 -0.206274 53
-0.797628 -0.0560777 -0.17632 50
-2.85538 0.295169 0.653618 47
-7.15745 -0.547085 1.91147 29
-6.93604 -0.517889 1.344 1
-7.27072 -0.534217 0.889599 33
-0.644038 0.0655028 0.0106896 3
-3.04765 -0.219009 0.158316 12
-0.660661 0.0673459 -0.0330815 134
-0.790118 0.0810879 -0.0930975 90
-0.663334 -0.043677 -0.055016 55
-0.796447 0.0821641 -0.148564 58
-0.793344 -0.053705 -0.120587 52
-0.798605 0.0829356 -0.205627 53
-0.795286 -0.0546429 -0.175758 50
-2.85138 0.309851 0.653056 47
-7.15531 -0.510504 1.91018 27
-6.93368 -0.482432 1.34304 1
-7.27589 -0.496311 0.889903 33
-0.638729 0.06822 0.0106023 3
-3.05374 -0.203388 0.158578 12
-0.660299 0.0708042 -0.0330815 135
-0.792149 0.0854944 -0.0934018 90
-0.658584 -0.0398661 -0.0545811 55
-0.8009 0.0867311 -0.149516 58
-0.793615 -0.0495503 -0.120587 52
-0.793374 0.086445 -0.204334 53
-0.797992 -0.0506471 -0.17632 50
-2.84841 0.314558 0.652495 47
-7.16101 -0.498354 1.91147 29
-6.93459 -0.46912 1.34304 1
-7.26932 -0.483113 0.88899 33
-3.0516 -0.197893 0.158447 14
-0.655212 0.0714051 -0.0328189 140
-0.791998 0.0868768 -0.0934018 90
-0.661138 -0.0388808 -0.0547986 55
-0.798309 0.0878561 -0.14904 56
-0.796163 -0.0483296 -0.120979 52
-0.790807 0.0876975 -0.203687 53
-0.793218 -0.0489246 -0.175197 52
-2.84425 0.329683 0.651933 47
-7.15396 -0.458977 1.90889 27
-2.85074 0.329948 0.447977 50
-6.93696 -0.432804 1.34304 1
-2.86747 0.331398 0.249483 62
-7.26687 -0.443469 0.888382 33
-3.05511 -0.181531 0.158578 14
-0.65483 0.0748348 -0.0328189 146
-0.789052 0.0908724 -0.0930975 90
-0.658846 -0.0352674 -0.0545811 55
-0.802697 0.0927459 -0.149992 58
-0.793949 -0.0438701 -0.120587 52
-0.792735 0.09212 -0.204334 53
-0.800765 -0.0450873 -0.176881 50
-2.84614 0.334436 0.652495 50
-7.15716 -0.446642 1.90953 26
-2.85507 0.335502 0.448758 55
-6.93035 -0.420245 1.34161 1
-2.86442 0.33611 0.249265 88
-7.26516 -0.430637 0.888077 33
-3.05044 -0.175903 0.158316 14
-0.659657 0.0765636 -0.0330815 148
-0.788892 0.0922494 -0.0930975 90
-0.658907 -0.0341175 -0.0545811 55
-0.795223 0.0932762 -0.148564 58
-0.791559 -0.0423375 -0.120196 50
-0.792573 0.0935034 -0.204334 55
-0.798411 -0.0435421 -0.17632 50
-2.8371 0.348439 0.65081 50
-6.9785 -0.399921 1.86107 1
-2.84843 0.349344 0.447977 53
-6.92994 -0.385025 1.34114 1
-2.86762 0.351212 0.249701 90
-7.26229 -0.393588 0.887469 33
-3.05379 -0.160597 0.158447 14
-0.659247 0.0800165 -0.0330815 146
-0.790878 0.0965462 -0.0934018 90
-0.66405 -0.0309346 -0.055016 55
-0.799611 0.097905 -0.149516 58
-0.791764 -0.0383305 -0.120196 50
-0.794486 0.0978131 -0.20498 53
-0.798621 -0.0395005 -0.17632 50
-2.83649 0.353391 0.65081 52
-6.97678 -0.387605 1.86042 1
-2.85272 0.354928 0.448758 56
-6.92822 -0.371586 1.34066 1
-2.86206 0.3556 0.249265 90
-7.2704 -0.381307 0.888382 33
-3.05157 -0.155136 0.158316 14
-0.656629 0.0808567 -0.0329502 141
-0.790708 0.0979263 -0.0934018 90
-0.656642 -0.0293872 -0.0543637 55
-0.797004 0.0989937 -0.14904 55
-0.789363 -0.0368185 -0.119804 50
-0.796692 0.0996421 -0.205627 52
-0.786526 -0.0374521 -0.173512 50
-2.84178 0.369679 0.652495 52
-6.97395 -0.349607 1.85913 1
-2.84586 0.369718 0.447977 55
-6.92026 -0.334824 1.33875 1
-2.8601 0.37108 0.249265 71
-7.26492 -0.34161 0.887469 33
-3.04987 -0.138506 0.158185 14
-0.656196 0.0842936 -0.0329502 133
-0.795088 0.102848 -0.0940102 90
-0.661762 -0.0261815 -0.0547986 56
-0.803757 0.104264 -0.150468 56
-0.792012 -0.0328021 -0.120196 50
-0.793766 0.103496 -0.20498 52
-0.78915 -0.0333138 -0.174073 50
-2.83878 0.373823 0.651933 50
-6.97696 -0.337553 1.85978 1
-2.84772 0.374511 0.448368 55
-6.93064 -0.32321 1.34066 1
-2.84957 0.374767 0.248394 56
-7.26545 -0.330198 0.887469 33
-3.05757 -0.134055 0.158578 14
-0.651098 0.0847836 -0.0326876 124
-0.785086 0.102791 -0.0927933 88
-0.661807 -0.0250265 -0.0547986 56
-0.801141 0.105343 -0.149992 58
-0.789601 -0.0313068 -0.119804 50
-0.793584 0.104881 -0.20498 52
-0.791635 -0.0321881 -0.174635 50
-2.83196 0.388018 0.65081 52
-6.97134 -0.301916 1.85784 1
-2.84572 0.389417 0.448368 53
-6.92483 -0.287816 1.33923 1
-2.85504 0.390201 0.249048 55
-7.27204 -0.292355 0.888077 32
-3.05573 -0.117943 0.158447 15
-0.648188 0.0877379 -0.0325564 116
-0.721666 -0.0239514 -0.0119985 11
-0.784537 0.1069 -0.0927933 88
-0.656948 -0.0214774 -0.0543637 56
-0.800597 0.109396 -0.149992 58
-0.789754 -0.0271721 -0.119804 50
-0.790651 0.108564 -0.204334 53
-0.796661 -0.028245 -0.175758 49
-2.83135 0.392466 0.65081 50
-6.96945 -0.289647 1.85719 1
-2.84259 0.394043 0.447977 50
-7.16318 -0.285366 1.38546 35
-2.85189 0.39484 0.24883 53
-7.27254 -0.279662 0.888077 33
-3.05344 -0.112514 0.158316 15
-0.645561 0.0885246 -0.0324251 110
-0.719209 -0.0225968 -0.0119549 9
-0.784349 0.10827 -0.0927933 86
-0.661962 -0.0205211 -0.0547986 56
-0.797975 0.110453 -0.149516 58
-0.789801 -0.0257937 -0.119804 50
-0.797634 0.110954 -0.206274 52
-0.794275 -0.0267576 -0.175197 49
-2.82195 0.406733 0.649126 49
-6.97328 -0.25324 1.85784 1
-2.84049 0.408921 0.447977 50
-7.17929 -0.248375 1.38832 35
-2.84731 0.409412 0.248612 50
-7.27142 -0.241495 0.887773 33
-3.04899 -0.0963593 0.158055 15
-0.652501 0.0929757 -0.0328189 106
-0.783771 0.112375 -0.0927933 85
-0.659571 -0.0169727 -0.0545811 58
-0.797386 0.114629 -0.149516 58
-0.787457 -0.0215752 -0.119413 50
-0.794653 0.11478 -0.205627 52
-0.784665 -0.0222617 -0.17295 50
-2.82613 0.41187 0.650249 49
-6.9713 -0.240984 1.85719 1
-2.83489 0.413163 0.447197 49
-7.1699 -0.235515 1.38641 35
-2.84413 0.414021 0.248394 50
-7.26935 -0.228724 0.887469 33
-3.05165 -0.0911161 0.158185 15
-0.649868 0.0937527 -0.0326876 103
-0.786029 0.114103 -0.0930975 82
-0.657111 -0.0157437 -0.0543637 58
-0.792328 0.115305 -0.148564 58
-0.789961 -0.0202792 -0.119804 53
-0.794451 0.116166 -0.205627 53
-0.789572 -0.0210521 -0.174073 50
-2.81904 0.426423 0.649126 49
-6.97971 -0.204697 1.85913 1
-2.8278 0.427261 0.446416 49
-7.16613 -0.197832 1.38546 35
-2.83946 0.428534 0.248176 50
-7.26797 -0.190593 0.887165 33
-3.05209 -0.0751365 0.158185 17
-0.651836 0.0975287 -0.0328189 100
-0.778061 0.117097 -0.0921848 79
-0.659674 -0.0123677 -0.0545811 56
-0.798992 0.120564 -0.149992 58
-0.787589 -0.0160772 -0.119413 52
-0.793832 0.120324 -0.205627 52
-0.787237 -0.0168504 -0.173512 50
-2.81837 0.430851 0.649126 50
-6.97523 -0.192378 1.85784 1
-2.82705 0.432196 0.446416 50
-7.17383 -0.185519 1.38689 35
-2.83379 0.432735 0.24774 52
-7.27325 -0.178032 0.887773 33
-3.04972 -0.0697485 0.158055 15
-0.649197 0.0982873 -0.0326876 98
-0.775403 0.118076 -0.0918806 76
-0.659694 -0.0112163 -0.0545811 58
-0.801206 0.122333 -0.150468 56
-0.790084 -0.0147638 -0.119804 52
-0.786462 0.120599 -0.203687 52
-0.784829 -0.0154135 -0.17295 50
-2.81599 0.446093 0.649126 49
-6.97372 -0.155798 1.85719 1
-2.82231 0.446605 0.446026 50
-7.16734 -0.147798 1.38546 33
-2.8364 0.448346 0.248176 53
-7.26912 -0.139848 0.887165 32
-3.05004 -0.0537793 0.158055 15
-0.64619 0.101406 -0.0325564 97
-0.774774 0.122135 -0.0918806 77
-0.657255 -0.00759992 -0.0543637 58
-0.795707 0.125751 -0.149516 58
-0.79015 -0.0106268 -0.119804 52
-0.790588 0.125481 -0.20498 52
-0.789771 -0.0114043 -0.174073 50
-2.81281 0.450621 0.648564 49
-6.98123 -0.14378 1.85913 1
-2.82153 0.45153 0.446026 50
-7.17006 -0.134085 1.38594 33
-2.82824 0.452113 0.247522 55
-7.25199 -0.126846 0.885035 29
-3.04764 -0.0484123 0.157924 20
-0.646012 0.102534 -0.0325564 95
-0.77946 0.124277 -0.092489 76
-0.657268 -0.00645278 -0.0543637 58
-0.795487 0.12714 -0.149516 56
-0.790168 -0.00924766 -0.119804 53
-0.79273 0.127386 -0.205627 52
-0.782482 -0.0098881 -0.172389 52
-2.81033 0.465833 0.648564 50
-7.00847 -0.106428 1.86624 1
-2.81417 0.46598 0.445246 50
-2.82575 0.467409 0.247522 58
-3.04785 -0.0319224 0.157924 21
-0.647929 0.106324 -0.0326876 91
-0.778776 0.128492 -0.092489 74
-0.654802 -0.00298171 -0.0541462 58
-0.794787 0.131442 -0.149516 55
-0.787736 -0.00507922 -0.119413 52
-0.792052 0.131535 -0.205627 52
-0.78496 -0.00568707 -0.17295 50
-2.80479 0.46944 0.647441 50
-2.81587 0.470808 0.445636 52
-2.8323 0.473576 0.248176 83
-3.05289 -0.0271871 0.158185 23
-0.645281 0.107041 -0.0325564 90
-0.783467 0.13054 -0.0930975 71
-0.657297 -0.00186407 -0.0543637 58
-0.794557 0.132829 -0.149516 55
-0.792682 -0.00375779 -0.120196 52
-0.796583 0.133725 -0.20692 52
-0.782532 -0.00442514 -0.172389 50
-2.79989 0.483704 0.646879 50
-2.80363 0.483861 0.444075 50
-3.10719 -0.0179391 0.596696 9
-2.83723 0.489178 0.24883 90
-3.09173 -0.0135451 0.374824 8
-3.0505 -0.0111888 0.158055 23
-0.642252 0.109992 -0.0324251 90
-0.782773 0.13464 -0.0930975 73
-0.654807 0.00158971 -0.0541462 58
-0.793874 0.136849 -0.149516 55
-0.790222 0.000406503 -0.119804 52
-0.791138 0.136923 -0.205627 50
-0.784981 -0.00034393 -0.17295 52
-2.80144 0.48901 0.647441 50
-2.81008 0.49003 0.445246 55
-3.08268 -0.011841 0.59193 2
-2.83637 0.494129 0.24883 99
-3.05701 -0.00800344 0.370565 3
-3.04552 -0.00584726 0.157793 17
-0.642059 0.111112 -0.0324251 90
-0.782536 0.136006 -0.0930975 70
-0.657293 0.00272474 -0.0543637 56
-0.796051 0.13866 -0.149992 55
-0.787751 0.00179518 -0.119413 53
-0.793252 0.138862 -0.206274 53
-0.78498 0.00102612 -0.17295 52
-2.79875 0.50416 0.647441 52
-2.8001 0.503911 0.444075 53
-3.07288 0.00430172 0.590024 8
-2.83365 0.509468 0.24883 90
-3.04212 0.00851842 0.368739 11
-0.696351 0.124262 0.0117367 8
-3.0455 0.0106306 0.157793 18
-0.648838 0.115804 -0.0328189 90
-0.779347 0.139796 -0.0927933 70
-0.659761 0.00617148 -0.0545811 58
-0.792875 0.142526 -0.149516 55
-0.790198 0.00606115 -0.119804 53
-0.787762 0.142147 -0.20498 52
-0.782527 0.00527196 -0.172389 52
-2.79556 0.508119 0.646879 52
-2.80893 0.510568 0.445636 55
-3.06306 0.00964949 0.588117 4
-2.82541 0.513075 0.248176 83
-3.04458 0.0138353 0.369043 11
-0.696133 0.125477 0.0117367 8
-3.05047 0.0159643 0.158055 24
-0.646179 0.116488 -0.0326876 90
-0.774221 0.140262 -0.0921848 64
-0.657259 0.00731341 -0.0543637 58
-0.79021 0.143467 -0.14904 55
-0.790187 0.0074403 -0.119804 53
-0.789888 0.143959 -0.205627 52
-0.782517 0.00663772 -0.172389 50
-2.79038 0.522787 0.646318 52
-2.80622 0.525269 0.445636 49
-3.06542 0.0257041 0.588594 4
-2.81534 0.526484 0.247522 59
-3.04695 0.0297967 0.369348 11
-0.688097 0.127737 0.0116058 9
-3.05035 0.0319362 0.158055 26
-0.645561 0.11987 -0.0326876 90
-0.654721 0.0107321 -0.0541462 58
-0.79186 0.148058 -0.149516 55
-0.790139 0.0114397 -0.119804 53
-0.791496 0.148543 -0.206274 52
-0.782471 0.0107349 -0.172389 52
-2.78955 0.527169 0.646318 52
-2.79811 0.528298 0.444465 42
-3.06537 0.0310542 0.588594 3
-2.81442 0.531397 0.247522 56
-3.04442 0.0345586 0.369043 11
-0.687873 0.128938 0.0116058 11
-3.05029 0.0367277 0.158055 23
-0.647803 0.121462 -0.0328189 90
-0.659682 0.0119287 -0.0545811 58
-0.78919 0.14898 -0.14904 53
-0.787649 0.0127937 -0.119413 55
-0.793608 0.150378 -0.20692 52
-0.780017 0.0119418 -0.171827 52
-2.78914 0.542234 0.646879 52
-2.79531 0.542942 0.444465 38
-3.07499 0.0467026 0.5905 2
-2.80436 0.544209 0.246869 53
-3.08885 0.051169 0.37452 2
-0.689665 0.132896 0.0116495 12
-3.04008 0.0525415 0.157531 21
-0.639807 0.123418 -0.0324251 90
-0.639401 0.0150459 -0.0105587 3
-0.782217 0.15148 -0.0934018 61
-0.65463 0.0153026 -0.0541462 58
-0.790834 0.153445 -0.149516 55
-0.792509 0.0169935 -0.120196 55
-0.790467 0.153927 -0.206274 50
-0.777508 0.015991 -0.171266 52
-2.78819 0.547101 0.646879 49
-2.79436 0.54782 0.444465 47
-2.80585 0.549582 0.247087 55
-0.694314 0.135184 0.0117367 12
-3.04497 0.0579345 0.157793 23
-0.64449 0.125499 -0.0326876 90
-0.639374 0.0161619 -0.0105587 4
-0.779517 0.152365 -0.0930975 61
-0.654602 0.0164451 -0.0541462 58
-0.790565 0.154825 -0.149516 53
-0.792478 0.0183767 -0.120196 55
-0.79017 0.155444 -0.206274 52
-0.779915 0.017387 -0.171827 52
-2.77803 0.560729 0.645195 49
-2.79135 0.562931 0.444465 50
-2.80527 0.565248 0.247304 55
-0.688696 0.137827 0.0116495 12
-3.04212 0.0743514 0.157662 21
-0.643824 0.128872 -0.0326876 88
-0.629281 0.0193889 -0.0103842 4
-0.783545 0.157567 -0.093706 59
-0.649527 0.0197576 -0.0537113 58
-0.792121 0.159589 -0.149992 53
-0.789898 0.0226085 -0.119804 55
-0.786979 0.159097 -0.205627 52
-0.774938 0.0215019 -0.170704 52
-2.77715 0.565092 0.645195 49
-2.79279 0.568295 0.444856 49
-7.15712 0.166007 1.38355 32
-2.79696 0.568651 0.246651 55
-7.25587 0.178331 0.885643 29
-0.683556 0.13803 0.0115622 9
-3.04448 0.0797222 0.157793 23
-0.641152 0.129496 -0.0325564 83
-0.634244 0.0206119 -0.0104714 4
-0.783268 0.158934 -0.093706 59
-0.654471 0.0210147 -0.0541462 59
-0.791841 0.160971 -0.149992 53
-0.794794 0.0241069 -0.120587 56
-0.789065 0.160957 -0.206274 50
-0.779771 0.0229675 -0.171827 52
-2.77415 0.579625 0.645195 50
-6.89334 0.182995 1.83587 1
-2.78746 0.581918 0.444465 50
-7.1611 0.202366 1.38451 30
-2.79649 0.58331 0.246869 56
-7.25735 0.215126 0.885948 30
-0.685295 0.142 0.0116058 8
-3.04404 0.0951306 0.157793 23
-0.642909 0.133363 -0.0326876 82
-0.631633 0.0237468 -0.0104278 4
-0.784882 0.163406 -0.0940102 59
-0.654352 0.0244412 -0.0541462 59
-0.791016 0.164977 -0.149992 53
-0.794662 0.0281294 -0.120587 55
-0.790603 0.165447 -0.20692 52
-0.779644 0.026914 -0.171827 52
-2.76837 0.583459 0.644072 50
-6.92922 0.196024 1.84556 1
-2.7816 0.585762 0.443685 53
-7.15333 0.215897 1.38308 30
-2.7979 0.588704 0.247087 59
-7.26193 0.227945 0.886556 30
-0.685022 0.143315 0.0116058 4
-3.04137 0.100365 0.157662 23
-0.63779 0.133452 -0.0324251 74
-0.634089 0.0249286 -0.0104714 4
-0.784596 0.164776 -0.0940102 59
-0.654309 0.0255832 -0.0541462 62
-0.788326 0.165848 -0.149516 53
-0.799548 0.0296697 -0.12137 58
-0.785561 0.165958 -0.205627 52
-0.779596 0.0282747 -0.171827 53
-2.76755 0.598945 0.644633 50
-6.92082 0.233273 1.84362 1
-2.78322 0.601849 0.444465 53
-7.16192 0.253689 1.38498 33
-2.79468 0.603834 0.247087 64
-7.26803 0.267501 0.887469 33
-0.676933 0.145311 0.011475 4
-3.04078 0.116819 0.157662 23
-0.634642 0.136261 -0.0322938 70
-0.631447 0.0282661 -0.0104278 4
-0.781268 0.168491 -0.093706 59
-0.654166 0.0290088 -0.0541462 64
-0.792213 0.171155 -0.150468 55
-0.794441 0.0338151 -0.120587 56
-0.78704 0.170585 -0.206274 50
-0.776997 0.032406 -0.171266 52
-2.76661 0.603292 0.644633 50
-6.9204 0.245352 1.84362 1
-2.77493 0.605124 0.443295 36
-7.15656 0.26601 1.38403 30
-2.79118 0.608179 0.246869 64
-7.25763 0.27981 0.886252 33
-0.681562 0.14756 0.0115622 3
-3.04307 0.122222 0.157793 23
-0.631965 0.136835 -0.0321625 64
-0.636392 0.0295626 -0.0105151 4
-0.783397 0.170386 -0.0940102 59
-0.646648 0.029861 -0.0534938 65
-0.789516 0.172011 -0.149992 53
-0.796848 0.0352959 -0.120979 56
-0.784383 0.171438 -0.205627 52
-0.781808 0.0339431 -0.172389 52
-2.76568 0.618785 0.645195 50
-6.92143 0.28168 1.84427 1
-2.77654 0.620725 0.444075 52
-7.16488 0.303887 1.38594 32
-2.78553 0.622241 0.246651 58
-7.25607 0.317806 0.886252 33
-3.04239 0.138154 0.157793 23
-0.626368 0.139049 -0.0319 61
-0.638726 0.0330047 -0.0105587 8
-0.787336 0.175574 -0.0946187 59
-0.648971 0.033356 -0.0537113 70
-0.790999 0.176682 -0.150468 53
-0.799126 0.0394355 -0.12137 58
-0.788186 0.176607 -0.20692 52
-0.776752 0.0378296 -0.171266 53
-2.76233 0.622592 0.644633 50
-6.92817 0.294062 1.84621 1
-2.76834 0.623454 0.442904 50
-7.16433 0.316391 1.38594 33
-2.77715 0.625457 0.245997 55
-7.25556 0.329204 0.886252 33
-3.04466 0.143046 0.157924 24
-0.628559 0.140693 -0.0320313 61
-0.633673 0.03389 -0.0104714 8
-0.779799 0.175167 -0.093706 59
-0.648912 0.0344886 -0.0537113 73
-0.79069 0.178062 -0.150468 53
-0.796589 0.0407191 -0.120979 58
-0.787876 0.177983 -0.20692 52
-0.779125 0.0391568 -0.171827 52
-2.75191 0.635399 0.642949 50
-6.92659 0.329124 1.84621 1
-2.76503 0.637941 0.442904 52
-7.15529 0.352292 1.38451 32
-2.78851 0.642869 0.247304 56
-7.25126 0.367065 0.885948 33
-0.632678 0.145108 -0.0322938 61
-0.633493 0.0370969 -0.0104714 8
-0.783705 0.180369 -0.0943145 58
-0.648722 0.0378858 -0.0537113 74
-0.789778 0.182062 -0.150468 53
-0.796365 0.0448894 -0.120979 58
-0.786965 0.181968 -0.20692 50
-0.781343 0.0433556 -0.172389 52
-2.75554 0.641308 0.644072 52
-6.92118 0.340979 1.84491 1
-2.76873 0.643887 0.443685 55
-7.1546 0.366029 1.38451 35
-2.78496 0.64717 0.247087 73
-7.2506 0.379721 0.885948 33
-0.629993 0.145645 -0.0321625 59
-0.630932 0.0380708 -0.0104278 9
-0.783389 0.181736 -0.0943145 58
-0.648655 0.039018 -0.0537113 79
-0.78707 0.18288 -0.149992 53
-0.796285 0.0462793 -0.120979 58
-0.788965 0.184031 -0.207567 50
-0.781266 0.0447192 -0.172389 53
-2.74729 0.655075 0.642949 52
-6.91924 0.378421 1.84491 1
-2.7628 0.658284 0.443295 47
-7.14768 0.403212 1.38355 35
-2.77415 0.660494 0.246433 97
-7.24349 0.418661 0.885339 33
-0.629221 0.148941 -0.0321625 61
-0.630716 0.0414839 -0.0104278 9
-0.787221 0.187128 -0.094923 58
-0.645956 0.0422695 -0.0534938 79
-0.790842 0.188281 -0.150945 53
-0.793558 0.0504452 -0.120587 58
-0.787991 0.18816 -0.207567 50
-0.776148 0.048671 -0.171266 52
-2.751 0.660529 0.644072 52
-6.92098 0.390631 1.84556 1
-2.75925 0.662527 0.442904 44
-7.14697 0.415686 1.38355 33
-2.78026 0.667082 0.247087 159
-7.25266 0.431886 0.886556 33
-0.626533 0.149455 -0.0320313 61
-0.625653 0.0422855 -0.0103405 8
-0.789305 0.189084 -0.0952272 58
-0.645881 0.0433969 -0.0534938 85
-0.790512 0.189661 -0.150945 53
-0.791004 0.0516841 -0.120196 58
-0.787661 0.189535 -0.207567 50
-0.776062 0.0500256 -0.171266 53
-2.74265 0.674238 0.642949 44
-6.91161 0.426423 1.84362 1
-2.75814 0.677556 0.443295 56
-7.14959 0.453409 1.38451 35
-2.77189 0.68044 0.246651 143
-7.24782 0.469696 0.886252 33
-0.63059 0.153928 -0.0322938 61
-0.627917 0.0457235 -0.0103842 8
-0.781077 0.19143 -0.0943145 58
-0.650616 0.0471013 -0.0539288 85
-0.787126 0.193208 -0.150468 53
-0.798124 0.0561625 -0.12137 58
-0.791346 0.194819 -0.20886 52
-0.778221 0.0542426 -0.171827 53
-2.74159 0.678546 0.642949 44
-6.91567 0.438787 1.84491 1
-2.75707 0.681887 0.443295 56
-7.14879 0.465887 1.38451 33
-2.77553 0.686475 0.247087 116
-7.24707 0.481081 0.886252 35
-3.041 0.206777 0.157924 18
-0.627898 0.154427 -0.0321625 59
-0.622848 0.0464854 -0.0102969 8
-0.780775 0.192656 -0.0943145 56
-0.648047 0.0480708 -0.0537113 88
-0.786787 0.194582 -0.150468 53
-0.793098 0.0572298 -0.120587 58
-0.783976 0.194444 -0.20692 50
-0.773272 0.0551488 -0.170704 53
-2.738 0.692891 0.642949 38
-6.90854 0.473458 1.84362 1
