# .PCD v0.7 - Point Cloud Data file format
VERSION 0.7
FIELDS x y z intensity
SIZE 4 4 4 4
TYPE F F F F
COUNT 1 1 1 1
WIDTH 1518
HEIGHT 1
VIEWPOINT 0 0 0 1 0 0 0
POINTS 1518
DATA ascii
-3.10657 -0.309827 0.0538843 14
-1.6946 -0.474551 0.0904104 50
-0.65574 -0.0663816 -0.0328189 58
-1.69438 -0.473858 -0.0301054 74
-0.812509 -0.0816383 -0.0958357 55
-0.813563 -0.224931 -0.0706728 52
-0.813785 -0.0814836 -0.151897 52
-0.820981 -0.227614 -0.129592 49
-0.820602 -0.0814496 -0.211447 50
-0.814918 -0.226773 -0.186989 47
-6.85509 -0.644584 1.57901 1
-7.2393 -2.03116 2.00259 33
-6.99228 -0.658675 1.10433 1
-7.24138 -2.01817 1.45314 35
-7.27485 -0.686506 0.636237 36
-7.1115 -1.97122 0.900551 1
-3.10317 -0.293089 0.053797 12
-1.69473 -0.464709 0.0902795 52
-1.69933 -0.465351 -0.030149 90
-0.810468 -0.0770106 -0.0955314 55
-0.81953 -0.221998 -0.0711077 52
-0.809326 -0.0766251 -0.150945 52
-0.824541 -0.223973 -0.129984 49
-0.818612 -0.0769301 -0.2108 50
-0.816133 -0.22236 -0.186989 47
-6.93372 -0.640976 1.59698 1
-7.23818 -2.01722 2.0013 33
-7.00068 -0.648372 1.10551 1
-7.22834 -2.00093 1.4498 33
-7.27852 -0.674037 0.636455 36
-7.32029 -2.01686 0.926716 35
-3.10119 -0.287443 0.0537534 11
-1.69546 -0.462047 0.0902795 52
-1.69291 -0.460397 -0.0300181 90
-0.808117 -0.0755108 -0.0952272 55
-0.815114 -0.219246 -0.0706728 50
-0.816791 -0.0758811 -0.152373 52
-0.817789 -0.220564 -0.128809 49
-0.81153 -0.0748484 -0.20886 50
-0.814134 -0.220428 -0.186427 47
-7.07289 -0.616481 1.62843 1
-7.24597 -1.97992 2.00065 33
-6.9966 -0.611065 1.10433 1
-7.23364 -1.96303 1.44885 35
-7.27936 -0.636972 0.636237 36
-7.31878 -1.97527 0.925195 33
-3.08766 -0.27044 0.0534916 11
-1.69545 -0.452512 0.0901487 52
-0.656492 -0.05848 -0.0328189 55
-1.69763 -0.452473 -0.0300618 85
-0.808502 -0.0712785 -0.0952272 55
-0.818617 -0.215766 -0.0708902 50
-0.812274 -0.071325 -0.151421 52
-0.821317 -0.216923 -0.129201 50
-0.809492 -0.0705345 -0.208214 49
-0.812926 -0.215524 -0.185866 47
-7.07142 -0.605163 1.62787 1
-7.23776 -1.9641 1.99742 33
-7.00504 -0.599483 1.10551 1
-7.22757 -1.94784 1.44694 35
-7.2755 -0.623841 0.635801 36
-7.31502 -1.96056 0.924282 33
-3.0956 -0.265689 0.0536225 11
-1.69382 -0.448906 0.0900178 52
-0.659081 -0.0575461 -0.0329502 58
-1.69842 -0.449509 -0.0300618 80
-0.811097 -0.0700766 -0.0955314 55
-0.806964 -0.211116 -0.069803 52
-0.817289 -0.0703196 -0.152373 52
-0.816925 -0.21421 -0.128418 49
-0.816833 -0.0697252 -0.210153 50
-0.813301 -0.214105 -0.185866 47
-7.07459 -0.566894 1.62787 1
-7.23628 -1.92307 1.99419 35
-7.00069 -0.562205 1.10433 1
-7.22819 -1.90746 1.44503 35
-7.28363 -0.586137 0.636237 36
-7.30839 -1.91781 0.922152 33
-3.09695 -0.249477 0.0536225 11
-1.68891 -0.438131 0.0896253 52
-0.659383 -0.0539793 -0.0329502 58
-1.68866 -0.437443 -0.0298436 73
-0.811453 -0.0658288 -0.0955314 56
-0.810504 -0.207378 -0.0700204 49
-0.812752 -0.0656525 -0.151421 52
-0.822811 -0.211184 -0.129201 49
-0.81478 -0.0652587 -0.209507 50
-0.809699 -0.208601 -0.184742 47
-7.06828 -0.553976 1.62618 1
-7.21628 -1.90426 1.98773 32
-6.99428 -0.549407 1.10316 1
-7.22471 -1.89171 1.4436 35
-7.27719 -0.572839 0.635583 36
-7.31653 -1.90631 0.922761 33
-3.09244 -0.243141 0.0535353 11
-1.69209 -0.435812 0.0897562 52
-0.661965 -0.0530225 -0.0330815 58
-1.68216 -0.432607 -0.0297127 73
-0.816515 -0.0647966 -0.0961399 56
-0.815685 -0.207217 -0.0704553 50
-0.815313 -0.0644231 -0.151897 52
-0.816011 -0.207878 -0.128026 49
-0.814904 -0.0636944 -0.209507 52
-0.812419 -0.207805 -0.185304 49
-7.06632 -0.515372 1.62506 1
-7.21712 -1.86277 1.98514 32
-6.99715 -0.511557 1.10316 1
-7.22263 -1.85081 1.44122 35
-7.2777 -0.533276 0.635365 36
-7.31952 -1.86485 0.921848 33
-3.11611 -0.228582 0.0539279 8
-1.68958 -0.425418 0.0894945 50
-0.657253 -0.0491935 -0.0328189 58
-1.66994 -0.419803 -0.0294509 15
-0.819328 -0.0605566 -0.0964442 56
-0.807104 -0.200486 -0.0695855 50
-0.819481 -0.204213 -0.128418 49
-0.812817 -0.0592553 -0.20886 52
-0.813531 -0.203406 -0.185304 47
-7.07198 -0.504617 1.62618 1
-7.21569 -1.84896 1.98385 32
-6.99302 -0.500214 1.10238 1
-7.21634 -1.83577 1.43931 33
-7.27614 -0.520396 0.635147 36
-7.31523 -1.85152 0.920935 33
-1.69025 -0.422763 0.0894945 52
-0.659828 -0.0482231 -0.0329502 58
-0.809521 -0.0585703 -0.0952272 56
-0.805038 -0.198467 -0.069368 49
-0.817442 -0.202176 -0.128026 50
-0.81051 -0.0576694 -0.208214 50
-0.816211 -0.202729 -0.185866 47
-7.07695 -0.467742 1.62674 1
-7.21558 -1.81006 1.98126 32
-6.99308 -0.463429 1.10199 1
-7.22554 -1.79922 1.43931 35
-7.28116 -0.483726 0.635365 36
-7.31278 -1.8102 0.919414 33
-1.68759 -0.412708 0.0892328 52
-0.652598 -0.0442764 -0.0325564 58
-0.809817 -0.0543308 -0.0952272 56
-0.806067 -0.194249 -0.069368 49
-0.811141 -0.0541391 -0.150945 52
-0.820886 -0.198487 -0.128418 49
-0.810792 -0.0535663 -0.208214 52
-0.810169 -0.196687 -0.184181 49
-7.07533 -0.455234 1.62618 1
-7.22107 -1.79805 1.98191 33
-6.99634 -0.451381 1.10238 1
-7.21707 -1.7824 1.43693 35
-7.27702 -0.470697 0.63493 33
-7.3087 -1.79565 0.918501 33
-1.68831 -0.409762 0.0892328 52
-0.655166 -0.0432968 -0.0326876 58
-0.809911 -0.0529174 -0.0952272 56
-0.816133 -0.0530332 -0.151897 53
-0.816436 -0.195875 -0.127635 49
-0.815713 -0.0523103 -0.209507 52
-0.810511 -0.195273 -0.184181 47
-6.96339 -0.410235 1.59979 1
-7.21427 -1.75495 1.97739 33
-6.99868 -0.413521 1.10238 1
-7.21915 -1.74285 1.4355 35
-7.27698 -0.431171 0.634712 33
-7.09153 -1.70151 0.889903 1
-1.68807 -0.400039 0.089102 53
-0.655384 -0.0398657 -0.0326876 58
-1.56139 -0.36908 -0.0274003 17
-0.815139 -0.0488228 -0.0958357 56
-0.813958 -0.0484751 -0.151421 53
-0.822252 -0.192752 -0.128418 49
-0.811154 -0.0477631 -0.208214 50
-0.811556 -0.190884 -0.184181 49
-6.86431 -0.3936 1.57677 1
-7.21498 -1.74179 1.97674 33
-7.27051 -0.418068 1.14531 38
-7.20786 -1.72681 1.43264 33
-7.27523 -0.418327 0.634494 33
-7.30899 -1.7417 0.91698 33
-1.68384 -0.39623 0.0888403 53
-0.655452 -0.0387218 -0.0326876 59
-1.56203 -0.366354 -0.0274003 20
-0.807783 -0.0471216 -0.094923 56
-0.814041 -0.0470544 -0.151421 53
-0.815382 -0.189597 -0.127243 49
-0.81847 -0.0467479 -0.210153 52
-0.809486 -0.189042 -0.183619 49
-6.86141 -0.357401 1.57565 1
-7.2237 -1.70525 1.97674 35
-7.27259 -0.379995 1.14531 36
-7.20934 -1.68862 1.43121 35
-7.28969 -0.382148 0.635583 33
-7.30109 -1.69946 0.91485 32
-1.68589 -0.387408 0.0888403 53
-0.65564 -0.0354038 -0.0326876 58
-1.559 -0.357312 -0.027313 23
-0.810497 -0.0430187 -0.0952272 56
-0.814269 -0.0429336 -0.151421 53
-0.811554 -0.184204 -0.12646 50
-0.809049 -0.0421193 -0.207567 50
-0.810464 -0.1848 -0.183619 47
-6.86926 -0.346989 1.57733 1
-7.21726 -1.69043 1.97416 33
-7.27818 -0.367549 1.14609 36
-7.20989 -1.67548 1.43074 35
-7.28786 -0.369299 0.635365 32
-7.2968 -1.68504 0.913938 33
-1.68657 -0.384465 0.0888403 55
-0.653207 -0.0341344 -0.0325564 59
-1.56693 -0.356275 -0.0274439 21
-0.81057 -0.0416041 -0.0952272 56
-0.811891 -0.0413916 -0.150945 52
-0.816686 -0.1839 -0.127243 50
-0.813945 -0.0409414 -0.20886 50
-0.810786 -0.183386 -0.183619 47
-6.87109 -0.308619 1.57733 1
-7.2263 -1.65135 1.97416 33
-7.27266 -0.327833 1.14492 38
-7.20688 -1.63372 1.42835 35
-7.28229 -0.329526 0.634712 33
-7.08071 -1.59468 0.885643 1
-1.68619 -0.374786 0.0887094 55
-0.648394 -0.0303767 -0.0322938 59
-1.59078 -0.352726 -0.0278366 21
-0.810784 -0.0372179 -0.0952272 56
-0.812103 -0.0369982 -0.150945 53
-0.81282 -0.178534 -0.12646 50
-0.816567 -0.0366411 -0.209507 50
-0.80939 -0.178458 -0.183058 47
-6.874 -0.29793 1.57789 1
-7.21504 -1.63552 1.97028 33
-7.27317 -0.316409 1.14492 36
-7.20972 -1.62114 1.42835 35
-7.28783 -0.317032 0.635147 32
-7.07836 -1.58247 0.885035 1
-1.68434 -0.371592 0.0885786 55
-0.653435 -0.0294593 -0.0325564 59
-0.81332 -0.0360499 -0.0955314 56
-0.778667 -0.16886 -0.0665411 42
-0.809714 -0.0354776 -0.150468 53
-0.81554 -0.177655 -0.126852 50
-0.814217 -0.035116 -0.20886 50
-0.812046 -0.177721 -0.183619 49
-6.8706 -0.26175 1.57677 1
-7.22559 -1.59951 1.97092 33
-7.27472 -0.278322 1.14492 36
-7.21544 -1.5841 1.42788 35
-7.28685 -0.280045 0.63493 32
-7.07201 -1.5422 0.883209 1
-3.12467 -0.120332 0.0539716 9
-1.68382 -0.362236 0.0884478 55
-0.648586 -0.0259626 -0.0322938 59
-0.811018 -0.0316982 -0.0952272 56
-0.774644 -0.163856 -0.0661062 41
-0.817241 -0.0316512 -0.151897 52
-0.821284 -0.174436 -0.127635 49
-0.814385 -0.0309944 -0.20886 50
-0.810586 -0.172944 -0.183058 47
-7.06576 -0.258031 1.62169 21
-7.21658 -1.5843 1.96769 33
-7.27026 -0.265446 1.14414 36
-7.211 -1.56994 1.42645 35
-7.28733 -0.267327 0.63493 32
-7.29051 -1.57668 0.910287 33
-3.11987 -0.114697 0.0538843 9
-1.68445 -0.359297 0.0884478 55
-0.646136 -0.0247404 -0.0321625 59
-1.66215 -0.353875 -0.0290583 52
-0.808593 -0.0301944 -0.094923 56
-0.81239 -0.0300518 -0.150945 52
-0.81676 -0.171957 -0.126852 50
-0.807197 -0.0293227 -0.20692 49
-0.806126 -0.170493 -0.181935 49
-6.87956 -0.214004 1.57845 1
-7.21769 -1.54497 1.96575 33
-7.27402 -0.227452 1.14453 36
-7.21192 -1.53063 1.42502 35
-7.29361 -0.229323 0.635365 29
-7.30352 -1.53951 0.910895 35
-3.12043 -0.0983594 0.0538843 11
-1.68386 -0.349957 0.0883169 55
-0.648755 -0.0213208 -0.0322938 59
-1.67621 -0.34774 -0.0292764 55
-0.81122 -0.0260355 -0.0952272 55
-0.810083 -0.0257241 -0.150468 52
-0.812818 -0.166658 -0.126069 50
-0.812167 -0.0252374 -0.208214 50
-0.807008 -0.16627 -0.181935 49
-6.86531 -0.20157 1.57508 1
-7.20856 -1.52986 1.96252 33
-7.27441 -0.214756 1.14453 38
-7.21485 -1.51678 1.42502 35
-7.28902 -0.216446 0.63493 30
-7.06819 -1.47687 0.88108 1
-3.11062 -0.0920771 0.0537098 11
-1.68447 -0.347018 0.0883169 55
-0.646296 -0.0201161 -0.0321625 59
-1.67437 -0.344304 -0.0292328 56
-0.806303 -0.0244776 -0.0946187 56
-0.81258 -0.0243795 -0.150945 52
-0.810691 -0.164733 -0.125677 49
-0.8098 -0.023612 -0.207567 50
-0.807297 -0.164861 -0.181935 49
-6.85656 -0.164191 1.57284 1
-7.21674 -1.49083 1.96252 33
-7.26806 -0.175218 1.14336 36
-7.21548 -1.4775 1.42359 35
-7.28759 -0.176945 0.634712 29
-7.06879 -1.43712 0.880167 1
-3.10606 -0.0756692 0.0536225 12
-1.68388 -0.337401 0.0881861 56
-0.646393 -0.0167319 -0.0321625 59
-1.67866 -0.335737 -0.0292764 61
-0.803943 -0.0200572 -0.0943145 56
-0.807793 -0.0198705 -0.149992 53
-0.809123 -0.159993 -0.125285 50
-0.814741 -0.0194786 -0.20886 50
-0.810563 -0.160979 -0.182496 49
-6.8763 -0.153853 1.57733 1
-7.2146 -1.47726 1.96123 33
-7.27079 -0.163856 1.14375 35
-7.20842 -1.46294 1.42168 35
-7.28291 -0.164115 0.634276 30
-7.06617 -1.42503 0.879559 1
-3.10619 -0.070248 0.0536225 15
-1.68441 -0.334756 0.0881861 56
-0.648917 -0.0156586 -0.0322938 61
-1.68169 -0.333299 -0.02932 62
-0.806454 -0.018848 -0.0946187 56
-0.81028 -0.0185124 -0.150468 53
-0.80698 -0.158092 -0.124894 50
-0.814774 -0.0180566 -0.20886 50
-0.808428 -0.159221 -0.181935 49
-6.88431 -0.117971 1.57901 1
-7.21251 -1.43883 1.95865 33
-7.26908 -0.125742 1.14336 35
-7.21092 -1.42548 1.42073 35
-7.28365 -0.127251 0.634276 30
-7.06623 -1.38657 0.878646 1
-3.09901 -0.054397 0.0534916 29
-1.67879 -0.32449 0.0877936 56
-0.64899 -0.0122606 -0.0322938 59
-1.67845 -0.323822 -0.0292328 64
-0.806542 -0.0146252 -0.0946187 58
-0.807909 -0.0143716 -0.149992 53
-0.812643 -0.154817 -0.125677 49
-0.81244 -0.0138953 -0.208214 52
-0.804471 -0.154041 -0.180812 47
-6.92348 -0.106547 1.588 1
-7.21264 -1.42577 1.958 33
-7.25941 -0.112903 1.1418 35
-7.21365 -1.41164 1.42073 35
-7.06377 -1.37328 0.878037 1
-3.10411 -0.0485232 0.0535789 35
-1.6769 -0.321083 0.0876627 56
-0.646514 -0.0110905 -0.0321625 59
-1.67901 -0.320892 -0.0292328 62
-0.809048 -0.0132539 -0.094923 56
-0.810387 -0.0129967 -0.150468 53
-0.810488 -0.152926 -0.125285 50
-0.817295 -0.0124005 -0.209507 50
-0.802348 -0.152169 -0.18025 47
-7.21313 -1.38535 1.95606 33
-7.2113 -1.37201 1.41882 35
-7.0711 -1.33505 0.878037 1
-3.09682 -0.0321949 0.053448 23
-1.68107 -0.312469 0.0877936 56
-0.64906 -0.00772958 -0.0322938 59
-1.66844 -0.309489 -0.0290146 64
-0.806626 -0.00885337 -0.0946187 58
-0.810445 -0.00861188 -0.150468 53
-0.81613 -0.149599 -0.126069 49
-0.807689 -0.00804172 -0.20692 50
-0.807945 -0.148736 -0.181373 49
-7.20842 -1.3714 1.95412 35
-7.20645 -1.35805 1.41739 35
-3.10062 -0.0273619 0.268222 8
-7.06587 -1.32256 0.877125 1
-3.09937 -0.0268104 0.0534916 23
-1.68401 -0.310287 0.0879244 56
-0.646576 -0.00657671 -0.0321625 59
-1.6567 -0.304284 -0.0287965 64
-0.804158 -0.00756726 -0.0943145 58
-0.808005 -0.00717981 -0.149992 53
-0.813963 -0.147719 -0.125677 49
-0.812532 -0.00666321 -0.208214 50
-0.805784 -0.147015 -0.180812 49
-7.2129 -1.33446 1.95348 33
-3.10681 -0.0111581 0.485439 4
-7.21081 -1.32111 1.41691 35
-3.08578 -0.0116184 0.266914 9
-7.06537 -1.28421 0.876212 1
-3.09947 -0.0111228 0.0534916 14
-1.67824 -0.300126 0.0875319 53
-0.644104 -0.00329662 -0.0320313 59
-1.66805 -0.29768 -0.028971 45
-0.804186 -0.00335662 -0.0943145 59
-0.805577 -0.00308491 -0.149516 53
-0.814725 -0.143455 -0.125677 49
-0.807725 -0.00254381 -0.20692 50
-0.806543 -0.142794 -0.180812 47
-7.20097 -1.31925 1.9496 35
-3.09448 -0.00571842 0.483488 2
-7.20104 -1.30633 1.41453 35
-3.07334 -0.00621311 0.265825 9
-7.06272 -1.271 0.875603 1
-3.08198 -0.00568877 0.0531862 14
-1.67385 -0.296312 0.0872702 38
-0.641612 -0.00216939 -0.0319 59
-1.64889 -0.291234 -0.0286219 45
-0.799228 -0.00194958 -0.093706 59
-0.812944 -0.00168148 -0.150945 55
-0.810114 -0.141157 -0.124894 49
-0.810143 -0.00113322 -0.207567 52
-0.804394 -0.140952 -0.18025 49
-7.20777 -1.28153 1.9496 33
-3.05002 0.0103136 0.476464 9
-7.20294 -1.26775 1.41358 35
-3.05092 0.00979672 0.263864 14
-7.06439 -1.23314 0.874995 1
-3.07947 0.0104389 0.0531426 20
-1.68275 -0.288832 0.0876627 18
-0.651601 0.00134391 -0.0324251 61
-1.63315 -0.279594 -0.0283165 12
-0.801709 0.00224644 -0.0940102 59
-0.808033 0.0025511 -0.149992 56
-0.810842 -0.136913 -0.124894 50
-0.807723 0.00309519 -0.20692 52
-0.805121 -0.136738 -0.18025 49
-7.19811 -1.26684 1.94637 33
-3.05247 0.0156506 0.476854 9
-7.20536 -1.25392 1.41358 35
-3.05089 0.0151216 0.263864 15
-7.06164 -1.21996 0.874387 1
-3.04695 0.0161638 0.0525754 23
-1.6931 -0.287594 0.0881861 14
-0.646604 0.00245154 -0.0321625 59
-1.65827 -0.280989 -0.0287528 11
-0.804185 0.00366127 -0.0943145 59
-0.810482 0.00397766 -0.150468 55
-0.81108 -0.135498 -0.124894 50
-0.802886 0.00460966 -0.205627 52
-0.807758 -0.13575 -0.180812 47
-7.20248 -1.22747 1.94572 36
-3.03999 0.03203 0.474903 9
-7.19973 -1.21413 1.4112 35
-3.05326 0.0316551 0.264082 14
-7.05835 -1.18009 0.87317 1
-3.04682 0.0321173 0.0525754 30
-1.72418 -0.283369 0.0897562 14
-0.646583 0.0058371 -0.0321625 61
-1.66963 -0.273658 -0.0289274 11
-0.801672 0.00798324 -0.0940102 59
-0.700681 -0.112146 -0.0589302 38
-0.80554 0.00830359 -0.149516 55
-0.804473 -0.130024 -0.123719 49
-0.805266 0.00884424 -0.206274 50
-0.803677 -0.130568 -0.179689 49
-7.19985 -1.21409 1.94443 36
-3.05722 0.0370224 0.477634 8
-7.19942 -1.20116 1.41072 36
-3.05569 0.0370153 0.2643 14
-7.06264 -1.16941 0.873474 1
-3.04926 0.0374669 0.052619 23
-1.75171 -0.285146 0.0911954 14
-0.649068 0.00699784 -0.0322938 61
-1.69477 -0.274813 -0.0293637 11
-0.794215 0.00914375 -0.0930975 61
-0.695961 -0.110111 -0.0584953 38
-0.80307 0.00967567 -0.14904 55
-0.807134 -0.129024 -0.124111 50
-0.805249 0.0102497 -0.206274 52
-0.806284 -0.129707 -0.18025 49
-7.2059 -1.17764 1.94443 35
-3.08908 0.0536008 0.482707 1
-6.96074 -1.12499 1.36258 1
-3.06293 0.0526127 0.264953 2
-7.05887 -1.13084 0.872257 1
-3.06903 0.053256 0.052968 3
-1.7729 -0.279129 0.0922421 14
-0.649022 0.0103962 -0.0322938 61
-1.70107 -0.26702 -0.0294509 11
-0.796637 0.013348 -0.0934018 62
-0.69161 -0.10568 -0.0580604 39
-0.807919 0.0138328 -0.149992 55
-0.805361 -0.124405 -0.123719 50
-0.800358 0.0142309 -0.20498 52
-0.804547 -0.125095 -0.179689 49
-7.19364 -1.16274 1.94055 35
-6.975 -1.11356 1.36497 1
-3.08027 0.0582962 0.266479 11
-7.06328 -1.11891 0.872561 1
-3.07392 0.0592466 0.0530553 14
-1.79311 -0.279158 0.0932888 14
-0.649003 0.011529 -0.0322938 61
-1.71141 -0.265612 -0.0296255 15
-0.794132 0.0146882 -0.0930975 67
-0.691793 -0.104473 -0.0580604 39
-0.810347 0.0152934 -0.150468 56
-0.808015 -0.123386 -0.124111 50
-0.805158 0.0158711 -0.206274 52
-0.802358 -0.123306 -0.179127 49
-7.19983 -1.1238 1.94055 35
-6.96376 -1.0744 1.36163 1
-7.05942 -1.07917 0.871344 1
-3.09606 0.0759021 0.053448 14
-0.646438 0.0148642 -0.0321625 65
-0.796521 0.0190482 -0.0934018 68
-0.689868 -0.100473 -0.0578429 42
-0.810252 0.0196775 -0.150468 58
-0.806231 -0.118638 -0.123719 50
-0.805064 0.0200866 -0.206274 52
-0.805421 -0.119334 -0.179689 49
-7.16053 0.189846 1.64303 33
-7.19223 -1.10975 1.93797 35
-7.26021 0.192521 1.14219 36
-6.97048 -1.06298 1.36258 1
-7.05394 -1.06573 0.870431 1
-3.09842 0.0813724 0.0534916 12
-0.653898 0.0161937 -0.0325564 70
-0.801448 0.0205744 -0.0940102 70
-0.80531 0.0209554 -0.149516 58
-0.806436 -0.117231 -0.123719 50
-0.8002 0.0213543 -0.20498 53
-0.800812 -0.117194 -0.178566 49
-7.14235 0.228038 1.6391 33
-7.19794 -1.07208 1.93797 33
-7.25663 0.230454 1.1418 38
-6.96381 -1.02468 1.3602 1
-7.27615 0.229818 0.63384 27
-7.05696 -1.02842 0.870127 1
-3.08796 0.0972752 0.0533171 11
-0.653804 0.0196173 -0.0325564 74
-0.812548 0.0254146 -0.150945 58
-0.802153 -0.112293 -0.122936 50
-0.801414 -0.112999 -0.178566 49
-7.15172 0.239585 1.64134 33
-7.19741 -1.05916 1.93732 35
-7.26116 0.243285 1.14258 38
-6.96073 -1.01181 1.35925 1
-7.27325 0.242434 0.633622 27
-7.05138 -1.01504 0.869214 1
-3.10027 0.103085 0.0535353 9
-0.658759 0.0209274 -0.0328189 82
-0.807597 0.0266622 -0.149992 58
-0.802347 -0.110893 -0.122936 50
-0.804021 -0.111951 -0.179127 49
-7.14789 0.278181 1.64078 33
-7.19569 -1.02044 1.93538 33
-7.24991 0.280916 1.14102 36
-6.96107 -0.974668 1.35829 1
-7.27437 0.28061 0.63384 29
-7.04677 -0.976733 0.867997 1
-3.12966 0.120484 0.0540588 3
-0.656146 0.0242788 -0.0326876 83
-0.793698 0.0300693 -0.0930975 73
-0.669001 -0.0877582 -0.0558859 45
-0.812351 0.0310865 -0.150945 56
-0.805344 -0.107171 -0.123328 50
-0.807118 0.0314233 -0.20692 52
-0.804596 -0.107739 -0.179127 49
-7.15231 0.289606 1.64191 33
-7.19268 -1.0072 1.93409 33
-7.25933 0.292704 1.14258 35
-6.9579 -0.961842 1.35734 1
-7.27387 0.293305 0.63384 30
-7.036 -0.96397 0.866476 1
-3.06251 -0.414684 0.160148 9
-0.658597 0.0255259 -0.0328189 83
-0.796129 0.0314182 -0.0934018 74
-0.666685 -0.0862533 -0.0556684 45
-0.809843 0.032402 -0.150468 58
-0.800638 -0.105093 -0.122545 50
-0.802236 0.0326272 -0.205627 52
-0.802351 -0.106141 -0.178566 47
-7.14583 0.326828 1.64078 33
-7.19289 -0.970137 1.9328 32
-7.26263 0.330935 1.14336 32
-6.95538 -0.925636 1.35591 1
-7.28473 0.330685 0.63493 27
-7.04341 -0.927442 0.866781 1
-3.06217 -0.398317 0.160017 9
-0.653467 0.0287439 -0.0325564 89
-0.793475 0.0354711 -0.0930975 77
-0.664659 -0.0824372 -0.0554509 47
-0.804766 0.036271 -0.149516 58
-0.803625 -0.101223 -0.122936 50
-0.804473 0.0368018 -0.206274 52
-0.800481 -0.101618 -0.178004 50
-7.15011 0.339531 1.64191 35
-7.1874 -0.956621 1.93086 32
-7.26204 0.343611 1.14336 33
-6.95471 -0.91196 1.35543 1
-7.28414 0.343398 0.63493 27
-7.03764 -0.914184 0.865868 1
-3.048 -0.391043 0.159232 9
-0.655909 0.0300037 -0.0326876 90
-0.793412 0.0368559 -0.0930975 77
-0.667271 -0.0815969 -0.0556684 47
-0.80225 0.0375565 -0.14904 56
-0.806249 -0.100139 -0.123328 50
-0.799577 0.0381078 -0.20498 53
-0.795827 -0.099586 -0.176881 50
-7.14817 0.378212 1.64191 33
-7.18767 -0.917105 1.92957 32
-7.26008 0.382897 1.14336 36
-6.95696 -0.875225 1.35496 1
-7.28466 0.382935 0.635147 27
-7.28378 -0.906277 0.895683 33
-3.05255 -0.374854 0.159363 9
-0.65325 0.0333053 -0.0325564 90
-0.790723 0.0410152 -0.0927933 77
-0.660275 -0.0771811 -0.055016 47
-0.802035 0.0418965 -0.14904 58
-0.804312 -0.0956101 -0.122936 50
-0.804189 0.0425575 -0.206274 52
-0.798771 -0.0955828 -0.177443 50
-7.14027 0.389041 1.64022 35
-7.18927 -0.904559 1.92957 32
-7.257 0.394166 1.14297 38
-6.95361 -0.862474 1.354 1
-7.27901 0.395378 0.634712 27
-7.03893 -0.864422 0.865259 1
-3.04818 -0.36945 0.159101 9
-0.658177 0.0347188 -0.0328189 90
-0.790658 0.0422572 -0.0927933 80
-0.662881 -0.0763312 -0.0552335 49
-0.801961 0.0432963 -0.14904 58
-0.799576 -0.0936026 -0.122153 50
-0.801703 0.043825 -0.205627 53
-0.79892 -0.094328 -0.177443 50
-7.14786 0.427005 1.64247 35
-7.18656 -0.867286 1.92763 32
-7.24991 0.431863 1.14219 36
-6.95301 -0.826685 1.35305 1
-7.2794 0.432363 0.63493 29
-7.04582 -0.827846 0.865564 1
-3.05007 -0.353485 0.159101 11
-0.653002 0.0378649 -0.0325564 90
-0.787949 0.0462467 -0.092489 83
-0.660798 -0.0725696 -0.055016 49
-0.799282 0.0472058 -0.148564 58
-0.797603 -0.0891259 -0.121762 50
-0.80147 0.0478822 -0.205627 53
-0.801822 -0.0904312 -0.178004 50
-7.14224 0.43918 1.64134 33
-7.18806 -0.854742 1.92763 32
-7.259 0.445123 1.14375 36
-6.95215 -0.813048 1.35257 1
-7.27118 0.44461 0.634276 32
-7.03739 -0.814399 0.864347 1
-3.04573 -0.347587 0.15884 11
-0.647951 0.0386963 -0.0322938 90
-0.787867 0.0476219 -0.092489 83
-0.660923 -0.0714162 -0.055016 49
-0.804097 0.0489073 -0.149516 58
-0.802663 -0.0883029 -0.122545 50
-0.798967 0.0492679 -0.20498 52
-0.801979 -0.0890316 -0.178004 52
-7.13733 0.477653 1.64078 33
-7.18778 -0.815291 1.92634 32
-7.25156 0.484061 1.14297 38
-6.95143 -0.776088 1.35162 1
-7.26618 0.483778 0.634058 32
-7.0417 -0.776312 0.864347 1
-3.05253 -0.33165 0.159101 11
-0.655212 0.04259 -0.0326876 90
-0.792549 0.0522189 -0.0930975 86
-0.661288 -0.0679547 -0.055016 50
-0.798923 0.0529241 -0.148564 58
-0.795752 -0.0832836 -0.12137 50
-0.79388 0.0531196 -0.203687 53
-0.797606 -0.0841506 -0.176881 50
-7.139 0.489031 1.64134 33
-7.18199 -0.801936 1.9244 32
-7.25572 0.495789 1.14375 38
-6.9479 -0.763415 1.35067 1
-7.26284 0.496289 0.63384 33
-7.27478 -0.790603 0.892945 33
-3.04808 -0.326315 0.15884 11
-0.652646 0.043562 -0.0325564 95
-0.792466 0.0534638 -0.0930975 86
-0.663882 -0.0670685 -0.0552335 50
-0.803726 0.05466 -0.149516 58
-0.798351 -0.0821621 -0.121762 50
-0.796195 0.0546748 -0.204334 53
-0.800159 -0.0831641 -0.177443 50
-7.1412 0.526763 1.64247 33
-7.18596 -0.765574 1.9244 32
-7.25056 0.533591 1.14336 39
-7.19085 -0.753462 1.39737 35
-7.25527 0.532678 0.633404 33
-7.27142 -0.751731 0.892032 33
-3.04478 -0.309838 0.158578 11
-0.654899 0.0471632 -0.0326876 98
-0.787226 0.0572437 -0.092489 88
-0.664224 -0.0635915 -0.0552335 50
-0.805887 0.0589104 -0.149992 58
-0.79877 -0.0779809 -0.121762 50
-0.798316 0.0588859 -0.20498 53
-0.800584 -0.0789734 -0.177443 50
-7.1427 0.53941 1.64303 35
-7.18489 -0.752778 1.92375 32
-7.24962 0.546245 1.14336 38
-6.94329 -0.71388 1.34876 1
-7.24688 0.544778 0.632751 35
-7.27518 -0.739291 0.892337 33
-3.05028 -0.305028 0.15884 11
-0.659795 0.048684 -0.0329502 101
-0.789599 0.0588062 -0.0927933 88
-0.666812 -0.062683 -0.0554509 50
-0.803336 0.0601294 -0.149516 58
-0.801361 -0.076837 -0.122153 52
-0.798201 0.0604184 -0.20498 53
-0.79345 -0.0768273 -0.175758 49
-7.14454 0.578442 1.64415 36
-7.18164 -0.713172 1.92181 30
-7.24902 0.58566 1.14375 38
-6.94693 -0.677516 1.34876 1
-7.24631 0.58418 0.632969 33
-7.27414 -0.69944 0.891728 33
-3.05189 -0.28852 0.15884 11
-0.786796 0.0628755 -0.092489 88
-0.662172 -0.058715 -0.055016 50
-0.800552 0.0642743 -0.14904 58
-0.796837 -0.072165 -0.12137 52
-0.795467 0.0643978 -0.204334 53
-0.798704 -0.0730061 -0.176881 52
-6.87413 0.567365 1.58182 1
-7.17567 -0.699929 1.91987 30
-7.24071 0.596437 1.14258 38
-6.94811 -0.66539 1.34876 1
-7.25024 0.597236 0.633404 33
-7.27029 -0.687542 0.89112 33
-3.04737 -0.283256 0.158578 11
-0.78917 0.0643172 -0.0927933 88
-0.667233 -0.0580263 -0.0554509 50
-0.802885 0.0658764 -0.149516 58
-0.796962 -0.0707742 -0.12137 50
-0.79776 0.0659894 -0.20498 53
-0.801242 -0.071984 -0.177443 49
-7.14043 0.627059 1.64415 36
-7.18152 -0.663825 1.92052 30
-7.23994 0.634557 1.14297 38
-6.94161 -0.629321 1.34686 1
-7.24713 0.633925 0.633404 33
-7.27626 -0.649688 0.891424 33
-3.06124 -0.268406 0.159232 12
-0.65169 0.0560831 -0.0325564 110
-0.793765 0.0688861 -0.0934018 90
-0.662566 -0.0540908 -0.055016 52
-0.804986 0.0701566 -0.149992 58
-0.797321 -0.0666004 -0.12137 52
-0.797416 0.0700264 -0.20498 53
-0.801608 -0.0677878 -0.177443 50
-7.18027 -0.65107 1.91987 32
-7.23637 0.646971 1.14258 32
-6.94036 -0.615774 1.34638 1
-7.24849 0.646795 0.633622 33
-7.27491 -0.63677 0.89112 33
-3.05673 -0.262627 0.15897 12
-0.654078 0.0574441 -0.0326876 115
-0.791173 0.0700482 -0.0930975 90
-0.665141 -0.0531505 -0.0552335 53
-0.804862 0.0715615 -0.149992 58
-0.794977 -0.0649926 -0.120979 52
-0.794875 0.071337 -0.204334 53
-0.794446 -0.0657415 -0.175758 50
-7.17165 -0.611178 1.91664 29
-6.94593 -0.579632 1.34686 1
-7.27825 -0.5974 0.89112 35
-3.05313 -0.245677 0.158709 12
-0.653768 0.060868 -0.0326876 120
-0.790782 0.0743278 -0.0930975 90
-0.660446 -0.0492607 -0.0547986 53
-0.80202 0.0756803 -0.149516 58
-0.795306 -0.0608293 -0.120979 52
-0.799298 0.0759634 -0.205627 53
-0.799645 -0.0618473 -0.176881 52
-2.84767 0.274288 0.651372 29
-7.1703 -0.598458 1.916 29
-6.93715 -0.566702 1.34495 1
-7.27423 -0.585565 0.890511 33
-0.649456 0.0614867 0.0107769 3
-3.05102 -0.24068 0.158578 12
-0.65863 0.062491 -0.0329502 126
-0.795604 0.0760507 -0.093706 90
-0.660531 -0.048108 -0.0547986 53
-0.799444 0.0768409 -0.14904 58
-0.788028 -0.0588445 -0.119804 52
-0.796761 0.0771214 -0.20498 53
-0.797313 -0.0603924 -0.17632 52
-2.85105 0.28969 0.652495 47
-7.16361 -0.561397 1.91341 29
-6.94238 -0.531772 1.34543 1
-7.27472 -0.547281 0.890207 33
-0.649136 0.0647731 0.0107769 3
-3.04975 -0.224515 0.158447 12
-0.655811 0.0656847 -0.0328189 130
-0.792726 0.0799621 -0.0934018 90
-0.660773 -0.0446488 -0.0547986 53
-0.803928 0.0813891 -0.149992 58
-0.790787 -0.0549036 -0.120196 50
-0.793958 0.0809041 -0.204334 53
-0.790332 -0.0556587 -0.174635 50
-2.84811 0.294414 0.651933 47
-7.16217 -0.548707 1.91277 29
-6.93115 -0.517521 1.34304 1
-7.27319 -0.5344 0.889903 33
-0.646525 0.065761 0.0107332 3
-3.05014 -0.219192 0.158447 12
-0.658178 0.0670875 -0.0329502 130
-0.790118 0.0810879 -0.0930975 90
-0.66085 -0.0434954 -0.0547986 55
-0.796462 0.0820251 -0.148564 58
-0.790882 -0.0535233 -0.120196 52
-0.796203 0.0826819 -0.20498 53
-0.790428 -0.0542793 -0.174635 50
-2.84648 0.309819 0.651933 47
-7.16262 -0.509775 1.91212 29
-6.93621 -0.481394 1.34352 1
-7.2735 -0.494871 0.889599 33
-0.646171 0.0691453 0.0107332 3
-3.05128 -0.202686 0.158447 12
-0.657818 0.0705328 -0.0329502 135
-0.663554 -0.0402032 -0.055016 55
-0.798446 0.086602 -0.14904 58
-0.793615 -0.0495503 -0.120587 52
-0.790959 0.0863172 -0.203687 53
-0.79314 -0.0501705 -0.175197 52
-2.84114 0.313753 0.65081 47
-7.15387 -0.496597 1.90953 29
-6.93704 -0.469287 1.34352 1
-7.26684 -0.482946 0.888686 33
-0.641081 0.0697218 0.010646 3
-3.05409 -0.198058 0.158578 12
-0.657694 0.0716808 -0.0329502 140
-0.661138 -0.0388808 -0.0547986 55
-0.795854 0.0877223 -0.148564 58
-0.790807 0.0876975 -0.203687 53
-0.798079 -0.0492543 -0.17632 52
-2.83704 0.328343 0.650249 49
-7.1587 -0.460539 1.91018 27
-2.8508 0.32945 0.447977 55
-6.94178 -0.434325 1.344 1
-2.86258 0.330324 0.249048 71
-7.27175 -0.445044 0.88899 33
-3.05757 -0.182217 0.158709 14
-0.654843 0.0747205 -0.0328189 144
-0.793997 0.0913103 -0.093706 90
-0.666298 -0.0358372 -0.0552335 55
-0.797838 0.0920348 -0.14904 58
-0.792751 0.0919816 -0.204334 53
-0.798326 -0.0450749 -0.17632 52
-2.83652 0.332799 0.650249 50
-7.15467 -0.447739 1.90889 26
-2.85513 0.335003 0.448758 55
-6.93028 -0.421455 1.34161 1
-2.86448 0.33561 0.249265 90
-7.27251 -0.432352 0.88899 33
-3.05789 -0.17688 0.158709 14
-0.654711 0.0758633 -0.0328189 144
-0.791373 0.0924038 -0.0934018 90
-0.656415 -0.0340852 -0.0543637 55
-0.800113 0.0937169 -0.149516 58
-0.786622 -0.042181 -0.119413 50
-0.792589 0.0933651 -0.204334 53
-0.79354 -0.0433857 -0.175197 52
-2.82737 0.34774 0.648564 49
-7.15217 -0.408743 1.9076 26
-2.84837 0.349842 0.447977 55
-6.93001 -0.383815 1.34114 1
-2.86756 0.351712 0.249701 90
-7.26979 -0.392727 0.888382 33
-3.05132 -0.159929 0.158316 14
-0.654291 0.0794045 -0.0328189 146
-0.790861 0.0966842 -0.0934018 90
-0.659077 -0.030667 -0.0545811 55
-0.799594 0.0980445 -0.149516 58
-0.791764 -0.0383305 -0.120196 52
-0.794469 0.0979518 -0.20498 52
-0.798628 -0.0393611 -0.17632 50
-2.83165 0.352786 0.649687 52
-7.14564 -0.395854 1.90566 26
-2.84537 0.354009 0.447587 56
-6.93557 -0.371986 1.34209 1
-2.86447 0.356408 0.249483 90
-7.27288 -0.381438 0.888686 33
-3.05655 -0.155397 0.158578 14
-0.651674 0.080236 -0.0326876 141
-0.790708 0.0979263 -0.0934018 90
-0.659129 -0.0295166 -0.0545811 55
-0.799422 0.0994399 -0.149516 58
-0.794295 -0.0370787 -0.120587 50
-0.796692 0.0996421 -0.205627 52
-0.791391 -0.0377139 -0.174635 50
-2.8346 0.368237 0.65081 52
-6.9763 -0.350947 1.85978 1
-2.84592 0.369222 0.447977 56
-6.93246 -0.336636 1.34114 1
-2.85769 0.370259 0.249048 62
-7.27478 -0.343353 0.888686 33
-3.05483 -0.139273 0.158447 14
-0.656211 0.0841791 -0.0329502 134
-0.782803 0.101099 -0.092489 88
-0.65927 -0.0261801 -0.0545811 56
-0.801342 0.103804 -0.149992 58
-0.796939 -0.0331755 -0.120979 50
-0.798572 0.103989 -0.206274 52
-0.791578 -0.0335697 -0.174635 50
-2.82919 0.372052 0.649687 52
-6.98173 -0.339008 1.86107 1
-2.84534 0.373692 0.447977 56
-7.17572 -0.336065 1.38832 36
-2.84963 0.37427 0.248394 56
-7.27283 -0.33181 0.888382 33
-3.05255 -0.134361 0.158316 14
-0.658538 0.0856514 -0.0330815 125
-0.782644 0.102328 -0.092489 88
-0.659315 -0.0250294 -0.0545811 56
-0.798727 0.104879 -0.149516 58
-0.789596 -0.0314446 -0.119804 50
-0.793602 0.104742 -0.20498 52
-0.791629 -0.0323262 -0.174635 50
-2.8272 0.38686 0.649687 52
-6.96888 -0.303027 1.85719 1
-2.83845 0.387913 0.447197 53
-6.92478 -0.289024 1.33923 1
-2.85511 0.389702 0.249048 55
-7.26703 -0.29342 0.887469 33
-3.05322 -0.118376 0.158316 15
-0.655607 0.0887582 -0.0329502 115
-0.729155 -0.024377 -0.0121294 11
-0.787013 0.107102 -0.0930975 88
-0.656948 -0.0214774 -0.0543637 56
-0.798185 0.10892 -0.149516 58
-0.78975 -0.0273099 -0.119804 50
-0.795454 0.10909 -0.205627 52
-0.791788 -0.0281808 -0.174635 49
-2.82893 0.39213 0.650249 50
-6.97422 -0.291068 1.85848 1
-2.83777 0.392867 0.447197 52
-7.17299 -0.285763 1.38737 35
-2.84702 0.393658 0.248394 52
-7.26753 -0.280737 0.887469 33
-3.05092 -0.112951 0.158185 15
-0.652979 0.0895579 -0.0328189 111
-0.729196 -0.0231044 -0.0121294 11
-0.779453 0.107446 -0.0921848 85
-0.656985 -0.0203308 -0.0543637 56
-0.795564 0.109973 -0.14904 58
-0.787329 -0.0258354 -0.119413 50
-0.792852 0.11028 -0.20498 52
-0.791836 -0.0267989 -0.174635 49
-2.81954 0.406384 0.648564 49
-6.96846 -0.253062 1.85655 1
-2.8356 0.408215 0.447197 50
-7.17193 -0.248115 1.38689 35
-2.84238 0.4087 0.248176 50
-7.27142 -0.241495 0.887773 33
-3.0465 -0.0962765 0.157924 15
-0.652501 0.0929757 -0.0328189 106
-0.726812 -0.0190767 -0.0120858 9
-0.783771 0.112375 -0.0927933 83
-0.657082 -0.0168906 -0.0543637 56
-0.792528 0.113922 -0.148564 58
-0.782522 -0.0214098 -0.11863 50
-0.792263 0.11443 -0.20498 52
-0.791969 -0.0225143 -0.174635 50
-2.8213 0.411165 0.649126 49
-6.97371 -0.241069 1.85784 1
-2.83244 0.412806 0.446807 49
-7.16255 -0.235268 1.38498 36
-2.84413 0.414021 0.248394 50
-7.27183 -0.228804 0.887773 33
-3.05165 -0.0911161 0.158185 17
-0.644927 0.0930293 -0.0324251 103
-0.778664 0.113021 -0.0921848 83
-0.657111 -0.0157437 -0.0543637 56
-0.792328 0.115305 -0.148564 55
-0.789961 -0.0202792 -0.119804 52
-0.794451 0.116166 -0.205627 52
-0.787138 -0.0209721 -0.173512 49
-2.81663 0.426058 0.648564 49
-6.98212 -0.204769 1.85978 1
-2.83024 0.427631 0.446807 49
-7.17104 -0.19797 1.38641 35
-2.83207 0.427415 0.247522 50
-7.26797 -0.190593 0.887165 33
-3.05458 -0.0752018 0.158316 17
-0.646899 0.0967794 -0.0325564 100
-0.780514 0.11747 -0.092489 80
-0.657184 -0.0123029 -0.0543637 56
-0.789288 0.119082 -0.148088 55
-0.790057 -0.0161427 -0.119804 50
-0.791445 0.119958 -0.20498 53
-0.787237 -0.0168504 -0.173512 50
-2.81355 0.430112 0.648003 49
-6.9704 -0.192241 1.85655 1
-2.82461 0.431821 0.446026 49
-7.17383 -0.185519 1.38689 35
-2.83625 0.433112 0.247958 53
-7.27325 -0.178032 0.887773 32
-3.04722 -0.0696875 0.157924 15
-0.646729 0.0979083 -0.0325564 98
-0.782761 0.11921 -0.0927933 77
-0.657205 -0.0111559 -0.0543637 58
-0.796355 0.121583 -0.149516 56
-0.787615 -0.0147026 -0.119413 52
-0.793621 0.12171 -0.205627 52
-0.792135 -0.0156022 -0.174635 50
-2.81118 0.445329 0.648003 50
-6.96407 -0.155575 1.85461 1
-2.81743 0.445831 0.445246 50
-7.16979 -0.14785 1.38594 35
-2.82902 0.447176 0.247522 53
-7.2716 -0.139898 0.887469 32
-3.05254 -0.0538272 0.158185 17
-0.651121 0.102191 -0.0328189 97
-0.784576 0.123698 -0.0930975 77
-0.659745 -0.00764686 -0.0545811 56
-0.798131 0.126139 -0.149992 58
-0.79015 -0.0106268 -0.119804 52
-0.788204 0.125098 -0.204334 52
-0.782464 -0.0112538 -0.172389 49
-2.8104 0.450235 0.648003 50
-6.9764 -0.143677 1.85784 1
-2.81665 0.450747 0.445246 50
-7.17497 -0.13418 1.38689 33
-2.84053 0.454085 0.248612 56
-7.24951 -0.126801 0.884731 29
-0.686269 0.108888 0.0115186 8
-3.05263 -0.0484995 0.158185 20
-0.648477 0.10293 -0.0326876 95
-0.669539 -0.0066748 -0.0110823 3
-0.77946 0.124277 -0.092489 76
-0.662248 -0.00653797 -0.0547986 58
-0.795487 0.12714 -0.149516 58
-0.790168 -0.00924766 -0.119804 52
-0.795113 0.127773 -0.206274 52
-0.787354 -0.00997993 -0.173512 52
-2.80312 0.464634 0.646879 50
-7.00847 -0.106428 1.86624 1
-2.81661 0.466385 0.445636 53
-2.83066 0.468224 0.247958 77
-0.688155 0.112889 0.0115622 4
-3.04536 -0.0318923 0.157793 21
-0.645467 0.105915 -0.0325564 91
-0.674564 -0.00311062 -0.0111695 4
-0.781223 0.128901 -0.0927933 74
-0.657292 -0.00301126 -0.0543637 58
-0.792367 0.131037 -0.14904 55
-0.790206 -0.00497233 -0.119804 53
-0.792052 0.131535 -0.205627 50
-0.782524 -0.00565434 -0.172389 52
-2.80238 0.469037 0.646879 50
-2.81822 0.471709 0.446026 53
-2.83967 0.474811 0.24883 104
-0.692887 0.114918 0.0116495 4
-3.0504 -0.0266286 0.158055 23
-0.647743 0.107455 -0.0326876 90
-0.66707 -0.00185868 -0.0110386 4
-0.776103 0.129439 -0.0921848 73
-0.654806 -0.00183886 -0.0541462 56
-0.796977 0.133238 -0.149992 55
-0.792683 -0.00361944 -0.120196 52
-0.791821 0.132917 -0.205627 52
-0.782533 -0.00428857 -0.172389 50
-2.7974 0.483776 0.646318 52
-2.81572 0.486458 0.446026 56
-3.11456 -0.0174495 0.598126 9
-2.83223 0.488824 0.248394 151
-3.08677 -0.0129769 0.374216 9
-0.68735 0.11769 0.0115622 4
-3.048 -0.0106438 0.157924 23
-0.644711 0.110418 -0.0325564 90
-0.780304 0.134351 -0.0927933 71
-0.654807 0.00158971 -0.0541462 58
-0.789015 0.136144 -0.148564 55
-0.792691 0.000392713 -0.120196 53
-0.793493 0.137477 -0.206274 52
-0.784981 -0.000206925 -0.17295 50
-2.79904 0.48859 0.646879 50
-2.81252 0.490455 0.445636 56
-3.0925 -0.0118941 0.593836 2
-2.83874 0.495053 0.249048 166
-3.05701 -0.00800344 0.370565 3
-0.692068 0.119752 0.0116495 8
-3.05051 -0.00586469 0.158055 17
-0.646977 0.111974 -0.0326876 90
-0.782536 0.136006 -0.0930975 68
-0.654803 0.00273256 -0.0541462 58
-0.786359 0.137096 -0.148088 55
-0.79022 0.0017857 -0.119804 53
-0.786118 0.1376 -0.204334 53
-0.782544 0.00103803 -0.172389 52
-2.79405 0.502806 0.646318 52
-2.80505 0.504299 0.444856 56
-3.05571 0.0037714 0.586687 8
-2.82394 0.507208 0.247958 147
-3.03716 0.00798227 0.368131 11
-0.691453 0.123253 0.0116495 8
-3.048 0.0101034 0.157924 18
-0.641468 0.114473 -0.0324251 90
-0.781814 0.140102 -0.0930975 71
-0.65727 0.00616626 -0.0543637 58
-0.790485 0.14195 -0.14904 55
-0.792669 0.00592668 -0.120196 55
-0.790163 0.142443 -0.205627 52
-0.7874 0.00513708 -0.173512 52
-2.78837 0.506808 0.645195 52
-2.80659 0.509636 0.445246 56
-3.06796 0.0096572 0.58907 4
-2.8206 0.51169 0.24774 101
-3.04458 0.0133039 0.369043 11
-0.691215 0.124581 0.0116495 8
-3.05297 0.0154406 0.158185 24
-0.643723 0.11604 -0.0325564 90
-0.78645 0.142358 -0.093706 68
-0.654768 0.00730384 -0.0541462 56
-0.79265 0.143771 -0.149516 53
-0.790188 0.00730239 -0.119804 53
-0.789888 0.143959 -0.205627 52
-0.780082 0.00649604 -0.171827 50
-2.79038 0.522787 0.646318 52
-2.80379 0.524813 0.445246 53
-3.06542 0.0257041 0.588594 4
-2.81779 0.526943 0.24774 82
-3.03951 0.0297357 0.368435 11
-0.688097 0.127737 0.0116058 9
-3.05035 0.0319362 0.158055 26
-0.640653 0.118948 -0.0324251 90
-0.78323 0.146152 -0.0934018 62
-0.657211 0.0107547 -0.0543637 58
-0.79186 0.148058 -0.149516 55
-0.790139 0.0114397 -0.119804 53
-0.786751 0.147644 -0.20498 53
-0.782471 0.0107349 -0.172389 52
-2.78477 0.526262 0.645195 52
-2.80054 0.528758 0.444856 49
-3.06046 0.0310123 0.587641 3
-2.81442 0.531397 0.247522 61
-3.0469 0.0345828 0.369348 11
-0.69524 0.130334 0.0117367 11
-3.0453 0.0366754 0.157793 23
-0.642897 0.120531 -0.0325564 90
-0.785437 0.147845 -0.093706 62
-0.654701 0.0118748 -0.0541462 58
-0.78919 0.14898 -0.14904 55
-0.78518 0.0127687 -0.119021 53
-0.791236 0.149924 -0.206274 52
-0.780017 0.0119418 -0.171827 52
-2.78436 0.541302 0.645756 50
-2.79531 0.542942 0.444465 41
-3.08235 0.0468028 0.59193 3
-2.81414 0.546111 0.24774 56
-3.08637 0.0511317 0.374216 2
-0.689665 0.132896 0.0116495 12
-3.04756 0.0526592 0.157924 23
-0.642279 0.123784 -0.0325564 90
-0.787087 0.152432 -0.0940102 59
-0.654633 0.0151883 -0.0541462 58
-0.790834 0.153445 -0.149516 55
-0.79004 0.0169556 -0.119804 53
-0.785728 0.152995 -0.20498 52
-0.78238 0.0160607 -0.172389 52
-2.7859 0.546145 0.646318 49
-2.7992 0.548772 0.445246 50
-2.80096 0.548622 0.246651 56
-0.684526 0.133135 0.0115622 12
-3.04497 0.0579345 0.157793 23
-0.644512 0.125387 -0.0326876 90
-0.781951 0.152845 -0.0934018 61
-0.649625 0.0162431 -0.0537113 58
-0.788157 0.154349 -0.14904 53
-0.792478 0.0183767 -0.120196 55
-0.787828 0.154836 -0.205627 52
-0.775043 0.0173088 -0.170704 52
-2.7829 0.56121 0.646318 50
-2.79145 0.562443 0.444465 52
-2.80537 0.564759 0.247304 56
-0.69117 0.138202 0.0116931 12
-3.03964 0.0737638 0.157531 21
-0.643846 0.12876 -0.0326876 86
-0.786004 0.157923 -0.0940102 59
-0.652021 0.0197012 -0.0539288 59
-0.787338 0.158473 -0.14904 53
-0.794839 0.0225809 -0.120587 55
-0.789373 0.159442 -0.206274 52
-0.777378 0.0214185 -0.171266 52
-2.77486 0.564121 0.644633 50
-2.78805 0.566821 0.444075 50
-7.15715 0.164758 1.38355 32
-2.80682 0.570151 0.247522 62
-7.2559 0.177065 0.885643 29
-0.693377 0.139907 0.0117367 9
-3.04699 0.0792519 0.157924 23
-0.646067 0.130382 -0.0328189 83
-0.785727 0.159295 -0.0940102 61
-0.656965 0.0209617 -0.0543637 59
-0.794273 0.161325 -0.150468 53
-0.799735 0.0240871 -0.12137 56
-0.784363 0.159846 -0.20498 52
-0.78221 0.0228875 -0.172389 52
-2.77405 0.58011 0.645195 50
-6.89572 0.184261 1.83651 1
-2.78494 0.581898 0.444075 53
-7.1537 0.203411 1.38308 29
-2.8037 0.585329 0.247522 74
-7.25236 0.216248 0.885339 30
-0.695057 0.144169 0.0117804 8
-3.03903 0.0955129 0.157531 23
-0.645352 0.133876 -0.0328189 80
-0.784854 0.163543 -0.0940102 59
-0.651863 0.0243664 -0.0539288 59
-0.788586 0.164609 -0.149516 53
-0.794662 0.0281294 -0.120587 56
-0.782075 0.0271193 -0.172389 52
-2.77552 0.58497 0.645756 52
-6.92919 0.197234 1.84556 1
-2.78644 0.586782 0.444465 55
-7.15579 0.215969 1.38355 30
-2.80267 0.590221 0.247522 90
-7.26689 0.228097 0.887165 32
-0.687467 0.143832 0.0116495 4
-3.04387 0.100443 0.157793 23
-0.640232 0.133969 -0.0325564 73
-0.789451 0.165805 -0.0946187 59
-0.656798 0.0256623 -0.0543637 62
-0.785897 0.165475 -0.14904 55
-0.794612 0.0295163 -0.120587 56
-0.777161 0.0282015 -0.171266 52
-2.77003 0.598978 0.645195 52
-6.91844 0.231986 1.84298 1
-2.78333 0.601363 0.444465 56
-7.16441 0.252524 1.38546 30
-2.80208 0.604926 0.24774 90
-7.26559 0.266143 0.887165 33
-0.681844 0.146251 0.0115622 4
-3.04579 0.116471 0.157924 24
-0.639522 0.137319 -0.0325564 70
-0.628954 0.0280634 -0.0103842 4
-0.783722 0.168882 -0.0940102 59
-0.654166 0.0290088 -0.0541462 65
-0.787447 0.169973 -0.149516 53
-0.796914 0.033766 -0.120979 56
-0.791789 0.171478 -0.207567 52
-0.777003 0.0322703 -0.171266 52
-2.76899 0.603812 0.645195 52
-6.92286 0.244227 1.84427 1
-2.77745 0.605166 0.443685 38
-7.15901 0.266099 1.38451 32
-2.79616 0.608754 0.247304 88
-7.26016 0.278636 0.886556 33
-0.676678 0.146493 0.011475 3
-3.04309 0.121691 0.157793 23
-0.634404 0.137368 -0.0322938 68
-0.631402 0.0292579 -0.0104278 8
-0.783426 0.17025 -0.0940102 59
-0.654114 0.0301505 -0.0541462 65
-0.789546 0.171873 -0.149992 53
-0.796854 0.0351569 -0.120979 56
-0.789099 0.172478 -0.20692 50
-0.776945 0.0336264 -0.171266 52
-2.7633 0.618252 0.644633 50
-6.93109 0.282066 1.84685 1
-2.77172 0.619645 0.443295 52
-7.15507 0.303477 1.38403 30
-2.79039 0.623329 0.247087 59
-7.25111 0.317593 0.885643 35
-0.68078 0.151127 0.0115622 3
-3.03989 0.138044 0.157662 23
-0.628804 0.139595 -0.0320313 61
-0.628737 0.0325633 -0.0103842 8
-0.782494 0.174486 -0.0940102 59
-0.653947 0.033575 -0.0541462 68
-0.790999 0.176682 -0.150468 53
-0.796659 0.0393287 -0.120979 58
-0.790541 0.177139 -0.207567 50
-0.776752 0.0378296 -0.171266 53
-2.75995 0.622055 0.644072 49
-6.92334 0.29386 1.84491 1
-2.77075 0.623998 0.443295 52
-7.15943 0.316178 1.38498 32
-2.78444 0.627102 0.246651 55
-7.25804 0.329315 0.886556 33
-0.680515 0.152315 0.0115622 4
-3.04716 0.143159 0.158055 24
-0.626124 0.140142 -0.0319 61
-0.633673 0.03389 -0.0104714 8
-0.782219 0.175715 -0.0940102 58
-0.6514 0.0346024 -0.0539288 71
-0.788296 0.177519 -0.149992 53
-0.794122 0.0406079 -0.120587 58
-0.787876 0.177983 -0.20692 52
-0.776692 0.0390497 -0.171266 52
-2.75428 0.635948 0.64351 50
-6.92659 0.329124 1.84621 1
-2.76744 0.638497 0.443295 52
-7.15529 0.352292 1.38451 32
-2.7788 0.640626 0.246433 56
-7.25126 0.367065 0.885948 33
-0.682171 0.15632 0.0116058 3
-0.632703 0.144998 -0.0322938 61
-0.623508 0.0365875 -0.0102969 8
-0.78854 0.18149 -0.094923 58
-0.651216 0.037899 -0.0539288 76
-0.782607 0.180395 -0.14904 55
-0.796365 0.0448894 -0.120979 58
-0.789317 0.182516 -0.207567 50
-0.776476 0.0431159 -0.171266 52
-2.75091 0.639721 0.642949 50
-6.92118 0.340979 1.84491 1
-2.76392 0.642766 0.442904 53
-7.15711 0.364903 1.38498 35
-2.78253 0.646605 0.246869 65
-7.2506 0.379721 0.885948 33
-0.632449 0.146102 -0.0322938 61
-0.628436 0.0379391 -0.0103842 8
-0.783389 0.181736 -0.0943145 58
-0.651149 0.0390355 -0.0539288 77
-0.78468 0.182321 -0.149516 55
-0.793819 0.0461509 -0.120587 58
-0.788997 0.183894 -0.207567 52
-0.778833 0.0445951 -0.171827 52
-2.74977 0.655161 0.64351 52
-6.9193 0.377213 1.84491 1
-2.76051 0.657229 0.442904 50
-7.15265 0.402236 1.38451 35
-2.78638 0.662898 0.247522 90
-7.24852 0.417679 0.885948 33
-0.634078 0.150102 -0.0324251 61
-0.628228 0.041229 -0.0103842 8
-0.782427 0.185836 -0.0943145 58
-0.648442 0.0424138 -0.0537113 79
-0.783715 0.186427 -0.149516 53
-0.796032 0.0504479 -0.120979 58
-0.788024 0.188022 -0.207567 50
-0.773724 0.0483987 -0.170704 53
-2.74863 0.659959 0.64351 52
-6.91863 0.389289 1.84491 1
-2.76176 0.662623 0.443295 44
-7.14697 0.415686 1.38355 35
-2.78279 0.667179 0.247304 104
-7.2453 0.430184 0.885643 33
-0.638669 0.152377 -0.0326876 61
-0.630651 0.0424746 -0.0104278 8
-0.786926 0.188364 -0.094923 56
-0.650853 0.043694 -0.0539288 85
-0.785774 0.18837 -0.149992 53
-0.793478 0.0516916 -0.120587 58
-0.790008 0.190104 -0.208214 50
-0.778503 0.0500312 -0.171827 53
-2.74502 0.674821 0.64351 45
-6.91402 0.42657 1.84427 1
-2.75334 0.676375 0.442514 55
-7.15694 0.45387 1.38594 35
-2.77431 0.681035 0.246869 115
-7.24287 0.469379 0.885643 33
-0.628166 0.153331 -0.0321625 61
-0.627917 0.0457235 -0.0103842 8
-0.781077 0.19143 -0.0943145 58
-0.650616 0.0471013 -0.0539288 86
-0.787126 0.193208 -0.150468 53
-0.795651 0.0561429 -0.120979 58
-0.789002 0.194238 -0.208214 52
-0.775789 0.0540884 -0.171266 52
-2.74159 0.678546 0.642949 44
-6.91085 0.438485 1.84362 1
-2.75455 0.681774 0.442904 56
-7.15859 0.466518 1.38641 33
-2.77311 0.685876 0.246869 136
-7.24451 0.482182 0.885948 33
-3.04096 0.207308 0.157924 18
-0.632744 0.15563 -0.0324251 61
-0.785558 0.193991 -0.094923 56
-0.648047 0.0480708 -0.0537113 88
-0.789169 0.195175 -0.150945 53
-0.798015 0.0576947 -0.12137 58
-0.793348 0.196785 -0.209507 50
-0.775694 0.0554423 -0.171266 53
-2.73552 0.69277 0.642387 38
-6.91087 0.474828 1.84427 1
-2.75573 0.697401 0.443685 56
-7.1536 0.503823 1.38594 35
-2.76707 0.699775 0.246651 133
-7.24189 0.520108 0.885948 33
-3.03734 0.223048 0.157793 20
-0.63192 0.15894 -0.0324251 59
-0.786936 0.198713 -0.0952272 56
-0.647787 0.0514633 -0.0537113 90
-0.785758 0.198699 -0.150468 52
-0.790324 0.061206 -0.120196 58
-0.787627 0.199741 -0.208214 52
-0.777823 0.0596742 -0.171827 52
-2.73678 0.697669 0.642949 50
-6.91485 0.487225 1.84556 1
-2.74267 0.698676 0.441734 53
-7.14781 0.515958 1.38498 35
-2.7755 0.707067 0.247522 100
-7.24106 0.531483 0.885948 35
-2.87261 0.732392 0.0511355 1
-3.03948 0.228002 0.157924 18
-0.634061 0.160661 -0.0325564 59
-0.784219 0.199333 -0.094923 56
-0.645212 0.0524106 -0.0534938 90
-0.790164 0.20129 -0.151421 52
-0.795141 0.0629453 -0.120979 58
-0.791954 0.202319 -0.209507 50
-0.770439 0.0603709 -0.170143 52
-2.73545 0.712604 0.64351 52
-6.90989 0.522038 1.84491 1
-2.74853 0.71552 0.443295 56
-7.14021 0.551755 1.38403 35
-2.77188 0.721106 0.247522 96
-7.23818 0.569389 0.885948 35
-2.83501 0.738089 0.0505247 1
-3.04073 0.244109 0.158055 20
-0.623549 0.161455 -0.0320313 59
-0.785565 0.204065 -0.0952272 56
-0.639963 0.0553956 -0.0530589 90
-0.786761 0.204664 -0.150945 52
-0.794801 0.0671077 -0.120979 58
-0.786249 0.205098 -0.208214 50
-0.770112 0.064404 -0.170143 53
-2.72949 0.716139 0.642387 36
-6.90896 0.534097 1.84491 1
-2.7425 0.719061 0.442514 56
-7.14403 0.565846 1.38498 35
-2.76821 0.725311 0.247304 108
-7.24212 0.582416 0.886556 33
-2.82875 0.742259 0.0504375 1
-3.03533 0.249016 0.157793 20
-0.62568 0.163178 -0.0321625 59
-0.790007 0.2067 -0.0958357 55
-0.647313 0.0571143 -0.0537113 90
-0.786403 0.206037 -0.150945 52
-0.794683 0.0684948 -0.120979 58
-0.783519 0.205989 -0.207567 52
-0.772427 0.06594 -0.170704 53
-2.72558 0.730896 0.642387 44
-6.90597 0.57147 1.84491 1
-2.74096 0.734529 0.442904 56
-7.14586 0.603654 1.38594 35
-2.75944 0.738987 0.246869 144
-7.23639 0.62138 0.886252 33
-2.81758 0.755116 0.0503066 9
-3.03891 0.265862 0.158055 18
-0.624817 0.166452 -0.0321625 59
-0.788877 0.210971 -0.0958357 55
-0.644524 0.0602892 -0.0534938 90
-0.782907 0.20965 -0.150468 52
-0.794313 0.0726548 -0.120979 58
-0.784761 0.210719 -0.208214 49
-0.772059 0.0701183 -0.170704 53
-2.72443 0.735176 0.642387 50
-6.91459 0.584329 1.8475 1
-2.74219 0.739478 0.443295 53
-7.15214 0.616753 1.38737 33
-2.75574 0.743152 0.246651 122
-7.23541 0.632746 0.886252 30
-2.78972 0.752856 0.0498266 11
-3.036 0.270418 0.157924 17
-0.622116 0.166891 -0.0320313 59
-0.78615 0.211561 -0.0955314 53
-0.644418 0.061414 -0.0534938 90
-0.784908 0.211659 -0.150945 52
-0.796645 0.0742554 -0.12137 58
-0.786722 0.212723 -0.20886 49
-0.767094 0.0709131 -0.169581 53
-2.72758 0.751376 0.644072 50
-2.73352 0.752512 0.442514 56
-2.75434 0.757752 0.246869 90
-2.77141 0.762978 0.0495648 14
-3.03454 0.28631 0.157924 17
-0.62364 0.17081 -0.0321625 59
-0.780248 0.214352 -0.094923 52
-0.641607 0.0645564 -0.0532764 90
-0.779096 0.214319 -0.149992 52
-0.793787 0.0781983 -0.120979 58
-0.783309 0.216056 -0.208214 49
-0.771564 0.0753718 -0.170704 52
-2.71923 0.754178 0.642387 50
-2.73458 0.757943 0.442904 55
-2.74822 0.761226 0.246433 65
-2.77235 0.768967 0.0496085 14
-0.625746 0.172567 -0.0322938 59
-0.784654 0.217044 -0.0955314 50
-0.643973 0.0659114 -0.0534938 90
-0.785813 0.217656 -0.151421 50
-0.798565 0.0800467 -0.121762 58
-0.780567 0.216908 -0.207567 47
-0.773857 0.0769442 -0.171266 52
-2.71042 0.76755 0.641264 50
-2.73756 0.774748 0.444075 56
-2.8624 0.285018 0.551896 49
-2.75125 0.778121 0.247087 73
-2.87121 0.289892 0.349572 49
-2.76829 0.783472 0.0496085 15
-0.624834 0.175841 -0.0322938 58
-0.781081 0.220608 -0.0952272 50
-0.643619 0.0692823 -0.0534938 90
-0.779903 0.220561 -0.150468 49
-0.795678 0.0839824 -0.12137 58
-0.77942 0.220992 -0.207567 47
-0.773429 0.0811301 -0.171266 53
-2.70921 0.771806 0.641264 50
-2.73159 0.777692 0.443295 53
-2.8619 0.290013 0.551896 49
-2.74988 0.782922 0.247087 117
-2.86581 0.293903 0.348964 49
-2.76211 0.78693 0.0495212 23
-2.87793 0.297138 0.149812 52
-0.624526 0.176932 -0.0322938 59
-0.780734 0.221835 -0.0952272 50
-0.645975 0.0706581 -0.0537113 90
-0.779517 0.221922 -0.150468 49
-0.793074 0.0851224 -0.120979 58
