# .PCD v0.7 - Point Cloud Data file format
VERSION 0.7
FIELDS x y z intensity
SIZE 4 4 4 4
TYPE F F F F
COUNT 1 1 1 1
WIDTH 1548
HEIGHT 1
VIEWPOINT 0 0 0 1 0 0 0
POINTS 1548
DATA ascii
-0.660085 -0.0538703 -0.0547986 53
-0.800084 0.0698616 -0.14904 58
-0.794862 -0.06638 -0.120979 52
-0.797403 0.0701655 -0.20498 52
-0.796768 -0.0672088 -0.17632 50
-7.11992 0.637778 1.63966 24
-7.17797 -0.649597 1.91923 30
-7.23883 0.647192 1.14297 35
-6.94036 -0.615774 1.34638 1
-7.24838 0.64806 0.633622 33
-7.27244 -0.636552 0.890815 33
-3.05424 -0.26241 0.15884 12
-0.661537 0.0581151 -0.0330815 115
-0.793644 0.0702714 -0.0934018 90
-0.665141 -0.0531505 -0.0552335 53
-0.799961 0.0712579 -0.14904 58
-0.794977 -0.0649926 -0.120979 52
-0.799685 0.0717773 -0.205627 53
-0.796872 -0.0659572 -0.17632 52
-7.16673 -0.612015 1.91535 29
-6.94339 -0.580638 1.34638 1
-7.2732 -0.59826 0.890511 33
-3.05558 -0.246414 0.15884 12
-0.658738 0.0613414 -0.0329502 122
-0.793265 0.0744259 -0.0934018 90
-0.662928 -0.0494639 -0.055016 53
-0.79959 0.075306 -0.14904 58
-0.792845 -0.0606261 -0.120587 50
-0.796907 0.0755916 -0.20498 55
-0.789924 -0.0611749 -0.174635 50
-7.1702 -0.599709 1.916 27
-6.93715 -0.566702 1.34495 1
-7.27176 -0.585364 0.890207 33
-3.05351 -0.240881 0.158709 12
-0.656145 0.06225 -0.0328189 126
-0.788195 0.0753295 -0.0927933 90
-0.665496 -0.0485057 -0.0552335 53
-0.799458 0.0767014 -0.14904 58
-0.790489 -0.0590433 -0.120196 52
-0.801567 0.0775952 -0.206274 52
-0.794885 -0.0601936 -0.175758 52
-2.85584 0.290683 0.653618 47
-7.16611 -0.560336 1.91406 29
-6.93513 -0.529994 1.344 1
-7.27729 -0.546199 0.890511 33
-3.05477 -0.224356 0.158709 12
-0.655811 0.0656847 -0.0328189 131
-0.792712 0.0801004 -0.0934018 90
-0.663257 -0.0448347 -0.055016 55
-0.799031 0.0810257 -0.14904 58
-0.793249 -0.0550895 -0.120587 52
-0.796346 0.0812922 -0.20498 53
-0.795199 -0.055892 -0.175758 49
-2.85538 0.295169 0.653618 47
-7.16226 -0.547457 1.91277 29
-6.93604 -0.517889 1.344 1
-7.27319 -0.5344 0.889903 33
-3.05014 -0.219192 0.158447 12
-0.658178 0.0670875 -0.0329502 134
-0.792586 0.0813455 -0.0934018 90
-0.66085 -0.0434954 -0.0547986 55
-0.796447 0.0821641 -0.148564 58
-0.793344 -0.053705 -0.120587 52
-0.7914 0.0821746 -0.203687 53
-2.84895 0.309586 0.652495 47
-7.16735 -0.511372 1.91341 30
-6.93368 -0.482432 1.34304 1
-7.27094 -0.49597 0.889294 33
-3.04626 -0.202879 0.158185 12
-0.660312 0.0706889 -0.0330815 135
-0.789682 0.0852238 -0.0930975 90
-0.666032 -0.040488 -0.0552335 55
-0.798461 0.0864626 -0.14904 56
-0.798541 -0.0498879 -0.12137 52
-0.795774 0.0867108 -0.20498 53
-2.84604 0.313793 0.651933 47
-7.1586 -0.498185 1.91083 27
-6.93696 -0.470498 1.34352 1
-7.27427 -0.483445 0.889599 33
-3.05409 -0.198058 0.158578 14
-0.657706 0.071566 -0.0329502 140
-0.789532 0.0866019 -0.0930975 90
-0.661131 -0.0389962 -0.0547986 55
-0.790992 0.0870379 -0.147611 56
-0.7937 -0.0481651 -0.120587 52
-0.795622 0.0880996 -0.20498 53
-2.83946 0.328624 0.65081 47
-7.15629 -0.460382 1.90953 27
-2.85816 0.330304 0.449148 49
-6.93198 -0.433705 1.34209 1
-2.87248 0.33147 0.249919 50
-7.2668 -0.444738 0.888382 33
-3.06007 -0.182369 0.15884 14
-0.659802 0.075297 -0.0330815 144
-0.786603 0.0904469 -0.0927933 90
-0.656354 -0.0352308 -0.0543637 55
-0.7954 0.0917493 -0.148564 55
-0.793941 -0.0440087 -0.120587 52
-0.792751 0.0919816 -0.204334 52
-0.795894 -0.0449228 -0.175758 50
-2.83894 0.333084 0.65081 50
-7.14985 -0.447434 1.9076 26
-2.86003 0.335581 0.449538 50
-6.93763 -0.421907 1.34304 1
-2.87684 0.337065 0.250355 52
-7.27499 -0.432501 0.889294 33
-3.05789 -0.17688 0.158709 14
-0.657191 0.0761559 -0.0329502 148
-0.78398 0.0915276 -0.092489 88
-0.661387 -0.0343797 -0.0547986 56
-0.795239 0.0931374 -0.148564 58
-0.791552 -0.0424756 -0.120196 50
-0.797385 0.0939386 -0.205627 53
-0.791108 -0.0432379 -0.174635 50
-2.83704 0.348935 0.65081 50
-7.1594 -0.409161 1.90953 26
-2.85327 0.350446 0.448758 53
-6.93491 -0.38409 1.34209 1
-2.87003 0.352017 0.249919 52
-7.26731 -0.392591 0.888077 33
-3.05381 -0.160064 0.158447 14
-0.656769 0.0797105 -0.0329502 146
-0.785936 0.0960734 -0.0927933 88
-0.659077 -0.030667 -0.0545811 55
-0.799594 0.0980445 -0.149516 58
-0.789298 -0.0381961 -0.119804 50
-0.791331 -0.038957 -0.174635 50
-2.83649 0.353391 0.65081 52
-6.98408 -0.386793 1.86236 1
-2.85272 0.354928 0.448758 53
-6.93067 -0.371719 1.34114 1
-2.86447 0.356408 0.249483 53
-7.2704 -0.381307 0.888382 32
-3.05406 -0.155266 0.158447 14
-0.654152 0.0805464 -0.0328189 142
-0.783322 0.0969985 -0.092489 89
-0.656642 -0.0293872 -0.0543637 55
-0.796987 0.0991328 -0.14904 58
-0.791829 -0.0369486 -0.120196 52
-0.793823 -0.0378448 -0.175197 49
-2.83701 0.368552 0.651372 52
-7.14996 -0.359805 1.9063 27
-2.85082 0.369859 0.448758 53
-6.93491 -0.336756 1.34161 1
-2.86016 0.370581 0.249265 50
-7.26734 -0.342997 0.887773 33
-3.05733 -0.139391 0.158578 14
-0.661147 0.0849402 -0.0332127 134
-0.787724 0.101743 -0.0930975 90
-0.654299 -0.0258321 -0.0541462 55
-0.796475 0.103165 -0.14904 58
-0.787079 -0.0325677 -0.119413 50
-0.786601 0.102409 -0.203041 52
-0.798877 -0.0339241 -0.17632 50
-2.83637 0.373503 0.651372 52
-6.98173 -0.339008 1.86107 1
-2.84527 0.374188 0.447977 52
-6.92819 -0.323094 1.34018 1
-2.85951 0.375572 0.249265 50
-7.27289 -0.330541 0.888382 33
-3.05008 -0.133715 0.158185 14
-0.656048 0.0854388 -0.0329502 124
-0.787545 0.103118 -0.0930975 88
-0.661807 -0.0250265 -0.0547986 56
-0.796294 0.104555 -0.14904 58
-0.792068 -0.0314197 -0.120196 50
-0.788797 0.10424 -0.203687 52
-0.791635 -0.0321881 -0.174635 50
-2.83189 0.388512 0.65081 52
-6.9714 -0.3007 1.85784 1
-2.84321 0.389577 0.447977 50
-6.92733 -0.28671 1.33971 1
-2.8525 0.39036 0.24883 49
-7.27209 -0.291085 0.888077 32
-3.04827 -0.117111 0.158055 15
-0.655592 0.0888727 -0.0329502 115
-0.784518 0.107037 -0.0927933 86
-0.656952 -0.0213628 -0.0543637 56
-0.793285 0.108525 -0.148564 55
-0.789759 -0.0270342 -0.119804 50
-0.78824 0.108368 -0.203687 53
-0.791797 -0.0279045 -0.174635 50
-2.83128 0.39296 0.65081 49
-6.97915 -0.288836 1.85978 1
-2.84008 0.394198 0.447587 50
-7.17549 -0.28461 1.38784 35
-2.85182 0.395338 0.24883 49
-7.2701 -0.278296 0.887773 33
-3.05346 -0.111981 0.158316 15
-0.655436 0.0900167 -0.0329502 111
-0.789245 0.109095 -0.0934018 86
-0.661966 -0.0204056 -0.0547986 56
-0.795525 0.110251 -0.14904 55
-0.789805 -0.0256558 -0.119804 50
-0.795224 0.110756 -0.205627 52
-0.796713 -0.0267154 -0.175758 49
-2.82429 0.407574 0.649687 47
-6.97815 -0.252201 1.85913 1
-2.84042 0.409417 0.447977 49
-7.17688 -0.247035 1.38784 35
-2.84724 0.409909 0.248612 49
-7.27642 -0.240393 0.888382 33
-3.04901 -0.0958271 0.158055 15
-0.652485 0.0930896 -0.0328189 106
-0.77884 0.111798 -0.0921848 83
-0.659574 -0.0168576 -0.0545811 56
-0.794937 0.114415 -0.14904 58
-0.792393 -0.0217407 -0.120196 50
-0.792243 0.114568 -0.20498 53
-0.791973 -0.022376 -0.174635 49
-2.81641 0.410951 0.648003 49
-6.98341 -0.240191 1.86042 1
-2.83 0.412449 0.446416 49
-7.1724 -0.234345 1.38689 35
-2.84406 0.414517 0.248394 47
-7.26935 -0.228724 0.887469 33
-3.04417 -0.0908808 0.157793 15
-0.652321 0.0942282 -0.0328189 103
-0.781119 0.113382 -0.092489 82
-0.659603 -0.0157064 -0.0545811 56
-0.797164 0.11616 -0.149516 56
-0.789961 -0.0202792 -0.119804 52
-0.794431 0.116305 -0.205627 52
-0.787138 -0.0209721 -0.173512 50
-2.81663 0.426058 0.648564 47
-6.97488 -0.204552 1.85784 1
-2.8278 0.427261 0.446416 49
-7.16613 -0.197832 1.38546 35
-2.837 0.428161 0.247958 49
-7.26797 -0.190593 0.887165 33
-3.0471 -0.0750058 0.157924 17
-0.649351 0.0972674 -0.0326876 100
-0.785421 0.118217 -0.0930975 80
-0.657186 -0.0121882 -0.0543637 56
-0.796566 0.120193 -0.149516 58
-0.787589 -0.0160772 -0.119413 50
-0.791445 0.119958 -0.20498 52
-0.792107 -0.0169848 -0.174635 50
-2.81347 0.430603 0.648003 49
-6.96557 -0.192105 1.85525 1
-2.82217 0.431447 0.445636 49
-7.18367 -0.184526 1.3888 35
-2.83379 0.432735 0.24774 50
-7.27325 -0.178032 0.887773 32
-3.04972 -0.0697485 0.158055 15
-0.651648 0.0987799 -0.0328189 98
-0.782761 0.11921 -0.0927933 77
-0.662186 -0.0111611 -0.0547986 56
-0.79878 0.121958 -0.149992 58
-0.787615 -0.0147026 -0.119413 52
-0.788827 0.121107 -0.204334 52
-0.784829 -0.0154135 -0.17295 50
-2.80148 0.444288 0.645756 49
-6.96892 -0.15447 1.8559 1
-2.81979 0.44671 0.445636 49
-7.17227 -0.146651 1.38641 35
-2.82402 0.446889 0.247087 50
-7.27163 -0.138629 0.887469 32
-3.05005 -0.053247 0.158055 17
-0.651121 0.102191 -0.0328189 97
-0.782104 0.123444 -0.0927933 77
-0.657255 -0.00759992 -0.0543637 56
-0.795686 0.12589 -0.149516 56
-0.787682 -0.0105785 -0.119413 52
-0.795335 0.126385 -0.206274 52
-0.787337 -0.0112167 -0.173512 50
-2.80559 0.449461 0.646879 49
-6.9716 -0.142358 1.85655 1
-2.81909 0.451139 0.445636 50
-7.17742 -0.134228 1.38737 33
-2.82078 0.451423 0.246869 53
-7.24951 -0.126801 0.884731 29
-0.683801 0.108491 0.011475 8
-3.05013 -0.0484559 0.158055 20
-0.643547 0.102137 -0.0324251 95
-0.77701 0.123882 -0.0921848 76
-0.654777 -0.00641018 -0.0541462 58
-0.795465 0.127279 -0.149516 56
-0.792636 -0.00929162 -0.120196 53
-0.790346 0.126998 -0.20498 50
-0.782482 -0.0098881 -0.172389 52
-2.8032 0.464145 0.646879 50
-7.0012 -0.107535 1.8643 1
-2.81182 0.465085 0.444856 50
-2.82583 0.466916 0.247522 56
-0.678311 0.111132 0.0113877 4
-3.04285 -0.0323933 0.157662 21
-0.645467 0.105915 -0.0325564 91
-0.781246 0.128764 -0.0927933 76
-0.657292 -0.00301126 -0.0543637 56
-0.79481 0.131303 -0.149516 55
-0.790205 -0.00511025 -0.119804 52
-0.792075 0.131396 -0.205627 52
-0.787395 -0.00585724 -0.173512 52
-2.79998 0.468634 0.646318 49
-2.80613 0.469175 0.444075 52
-2.82501 0.471847 0.247522 86
-0.678096 0.112435 0.0113877 4
-3.0504 -0.027161 0.158055 23
-0.650205 0.107869 -0.0328189 90
-0.785914 0.130952 -0.0934018 71
-0.654806 -0.00183886 -0.0541462 58
-0.79458 0.13269 -0.149516 55
-0.792682 -0.00375779 -0.120196 52
-0.791821 0.132917 -0.205627 52
-0.784968 -0.00445406 -0.17295 52
-2.7926 0.482943 0.645195 50
-2.80598 0.484772 0.444465 53
-3.11456 -0.0174495 0.598126 9
-2.83469 0.489249 0.248612 96
-3.09173 -0.0130055 0.374824 9
-3.0505 -0.0106564 0.158055 23
-0.647171 0.110845 -0.0326876 90
-0.787639 0.135627 -0.093706 73
-0.657297 0.00157754 -0.0543637 56
-0.789015 0.136144 -0.148564 55
-0.787753 0.000420293 -0.119413 52
-0.795872 0.137894 -0.20692 52
-0.789853 -0.000238388 -0.174073 52
-2.79664 0.48817 0.646318 50
-2.81252 0.490455 0.445636 56
-3.11704 -0.0120269 0.598602 2
-2.83138 0.493766 0.248394 106
-3.05453 -0.00799305 0.37026 3
-3.04801 -0.00585597 0.157924 17
-0.646977 0.111974 -0.0326876 90
-0.78498 0.136435 -0.0934018 71
-0.657293 0.00272474 -0.0543637 56
-0.79361 0.138373 -0.149516 58
-0.79022 0.0017857 -0.119804 53
-0.790874 0.138441 -0.205627 52
-0.789852 0.00100231 -0.174073 52
-2.78925 0.501941 0.645195 52
-2.80262 0.50386 0.444465 56
-3.07043 0.00376626 0.589547 8
-2.82884 0.508091 0.248394 100
-3.03964 0.00798487 0.368435 11
-0.706213 0.125914 0.0119113 8
-3.048 0.0101034 0.157924 20
-0.641488 0.114361 -0.0324251 90
-0.784255 0.140544 -0.0934018 71
-0.654781 0.00604677 -0.0541462 56
-0.790485 0.14195 -0.14904 55
-0.7902 0.00592324 -0.119804 53
-0.790163 0.142443 -0.205627 52
-0.784964 0.00513623 -0.17295 52
-2.78846 0.506321 0.645195 52
-2.7993 0.508309 0.444075 55
-3.0606 0.00911146 0.587641 4
-2.81815 0.511244 0.247522 89
-3.04458 0.0133039 0.369043 11
-0.701074 0.126251 0.011824 8
-3.05297 0.0154406 0.158185 24
-0.6462 0.116376 -0.0326876 90
-0.779127 0.14102 -0.0927933 67
-0.65975 0.00720782 -0.0545811 58
-0.790236 0.143329 -0.14904 55
-0.790188 0.00730239 -0.119804 53
-0.789913 0.143821 -0.205627 52
-0.784954 0.00650625 -0.17295 52
-2.78329 0.520952 0.644633 52
-2.79661 0.522959 0.444075 52
-3.05806 0.0251203 0.587164 4
-2.81298 0.525534 0.247304 64
-3.04199 0.0292251 0.368739 11
-0.700403 0.12992 0.011824 9
-3.05035 0.0314038 0.158055 26
-0.643128 0.119297 -0.0325564 90
-0.785694 0.146474 -0.093706 67
-0.657213 0.01064 -0.0543637 58
-0.789474 0.147465 -0.14904 55
-0.790139 0.0114397 -0.119804 53
-0.789149 0.147955 -0.205627 52
-0.787345 0.010634 -0.173512 52
-2.78725 0.526229 0.645756 52
-2.79326 0.52738 0.443685 44
-3.07028 0.0305603 0.589547 4
-2.80962 0.52998 0.247087 56
-3.04194 0.0345343 0.368739 11
-0.692807 0.129748 0.0116931 11
-3.04281 0.0366492 0.157662 24
-0.645371 0.120884 -0.0326876 90
-0.782999 0.147382 -0.0934018 67
-0.652213 0.011734 -0.0539288 58
-0.786805 0.148384 -0.148564 55
-0.790118 0.0128187 -0.119804 53
-0.78889 0.149333 -0.205627 52
-0.777581 0.0119197 -0.171266 52
-2.77958 0.54037 0.644633 50
-2.78804 0.541526 0.443295 39
-3.09216 0.0469365 0.593836 3
-2.80191 0.543733 0.246651 55
-3.0963 0.0512807 0.375432 2
-0.692118 0.133373 0.0116931 12
-3.04008 0.0525415 0.157531 21
-0.639829 0.123306 -0.0324251 90
-0.782217 0.15148 -0.0934018 61
-0.657123 0.0152279 -0.0543637 56
-0.788426 0.152973 -0.14904 55
-0.79004 0.0169556 -0.119804 53
-0.788097 0.153461 -0.205627 52
-0.779944 0.0160258 -0.171827 52
-2.77634 0.544265 0.644072 49
-2.78709 0.546391 0.443295 49
-2.79852 0.548142 0.246433 55
-0.691884 0.134581 0.0116931 12
-3.04996 0.0580217 0.158055 23
-0.642062 0.124905 -0.0325564 90
-0.784386 0.153325 -0.093706 59
-0.652115 0.016287 -0.0539288 58
-0.792973 0.1553 -0.149992 55
-0.792478 0.0183767 -0.120196 55
-0.790197 0.155306 -0.206274 52
-0.782351 0.0174262 -0.172389 52
-2.77335 0.559279 0.644072 49
-2.78661 0.561466 0.443685 50
-2.79317 0.562295 0.246215 55
-0.69117 0.138202 0.0116931 11
-3.04712 0.0739337 0.157924 23
-0.643846 0.12876 -0.0326876 89
-0.783572 0.15743 -0.093706 59
-0.657 0.0198151 -0.0543637 59
-0.792149 0.15945 -0.149992 55
-0.792371 0.0225258 -0.120196 55
-0.78464 0.158477 -0.20498 52
-0.782249 0.0215223 -0.172389 52
-2.77486 0.564121 0.644633 49
-7.15739 0.15232 1.9063 44
-2.78805 0.566821 0.444075 49
-7.16451 0.164923 1.38498 32
-2.79706 0.568163 0.246651 58
-7.25342 0.177006 0.885339 29
-0.693377 0.139907 0.0117367 9
-3.042 0.0791299 0.157662 23
-0.641175 0.129384 -0.0325564 83
-0.62925 0.0203774 -0.0103842 4
-0.788158 0.159792 -0.0943145 59
-0.654475 0.0209004 -0.0541462 59
-0.789465 0.16034 -0.149516 53
-0.794799 0.0239682 -0.120587 55
-0.793824 0.161792 -0.207567 52
-0.779775 0.0228314 -0.171827 52
-2.76928 0.57911 0.644072 50
-6.89572 0.184261 1.83651 1
-2.78252 0.581392 0.443685 50
-7.15861 0.203548 1.38403 30
-2.79638 0.583798 0.246869 62
-7.24988 0.216176 0.885035 30
-0.687717 0.142632 0.0116495 8
-3.04402 0.0956619 0.157793 23
-0.640465 0.132851 -0.0325564 76
-0.631629 0.0238571 -0.0104278 4
-0.782425 0.163033 -0.093706 59
-0.654352 0.0244412 -0.0541462 59
-0.790987 0.165115 -0.149992 53
-0.790575 0.165585 -0.20692 52
-0.774769 0.0269115 -0.170704 52
-2.76122 0.581949 0.642387 50
-6.92919 0.197234 1.84556 1
-2.7816 0.585762 0.443685 55
-7.15824 0.216041 1.38403 30
-2.79536 0.588678 0.246869 77
-7.27185 0.228249 0.887773 32
-0.682576 0.142798 0.0115622 4
-3.04387 0.100443 0.157793 23
-0.635347 0.132936 -0.0322938 74
-0.62659 0.0247998 -0.0103405 4
-0.777313 0.163233 -0.0930975 61
-0.654309 0.0255832 -0.0541462 62
-0.788297 0.165985 -0.149516 53
-0.787923 0.166462 -0.206274 52
-0.777161 0.0282015 -0.171266 53
-2.76289 0.59743 0.64351 52
-6.92086 0.232065 1.84362 1
-2.77367 0.599273 0.442904 53
-7.16932 0.252693 1.38641 33
-2.79478 0.603346 0.247087 82
-7.26559 0.266143 0.887165 33
-0.684287 0.146781 0.0116058 3
-3.04829 0.116563 0.158055 24
-0.632203 0.135731 -0.0321625 70
-0.628954 0.0280634 -0.0103842 4
-0.781298 0.168355 -0.093706 59
-0.654166 0.0290088 -0.0541462 64
-0.787447 0.169973 -0.149516 55
-0.794446 0.0336764 -0.120587 55
-0.78707 0.170447 -0.206274 52
-0.781872 0.0324421 -0.172389 52
-2.75709 0.601211 0.642387 50
-6.92527 0.244311 1.84491 1
-2.77021 0.603586 0.442514 38
-7.16637 0.266368 1.38594 32
-2.78886 0.607161 0.246651 74
-7.26016 0.278636 0.886556 33
-0.681562 0.14756 0.0115622 3
-3.0381 0.121499 0.157531 23
-0.636842 0.137902 -0.0324251 64
-0.623909 0.0289674 -0.0102969 4
-0.651626 0.030054 -0.0539288 65
-0.789546 0.171873 -0.149992 53
-0.799321 0.0352508 -0.12137 58
-0.786741 0.171958 -0.206274 52
-2.75142 0.615586 0.641826 50
-6.92626 0.281873 1.84556 1
-2.76208 0.617485 0.441734 53
-7.17223 0.304194 1.38737 32
-2.77824 0.620609 0.245997 58
-7.25855 0.317913 0.886556 35
-0.683219 0.151673 0.0116058 3
-3.04738 0.138372 0.158055 23
-0.628737 0.0325633 -0.0103842 8
-0.651459 0.0334655 -0.0539288 65
-0.786211 0.175603 -0.149516 53
-0.799126 0.0394355 -0.12137 58
-0.788186 0.176607 -0.20692 50
-2.7552 0.620981 0.642949 50
-6.92576 0.293961 1.84556 1
-2.76834 0.623454 0.442904 52
-7.16679 0.316498 1.38641 30
-2.77958 0.626005 0.246215 56
-7.25308 0.329093 0.885948 33
-0.673201 0.150662 0.0114313 3
-3.04217 0.142933 0.157793 24
-0.631176 0.0337753 -0.0104278 8
-0.787059 0.176811 -0.0946187 58
-0.648912 0.0344886 -0.0537113 73
-0.788296 0.177519 -0.149992 55
-0.794122 0.0406079 -0.120587 56
-0.787876 0.177983 -0.20692 52
-0.776692 0.0390497 -0.171266 52
-2.74716 0.6343 0.641826 50
-6.92418 0.329012 1.84556 1
-2.76022 0.636828 0.442124 53
-7.16509 0.352768 1.38641 33
-2.77638 0.640066 0.246215 56
-7.25621 0.367313 0.886556 33
-0.674865 0.154631 0.011475 3
-0.627814 0.143982 -0.0320313 61
-0.626004 0.0367149 -0.0103405 8
-0.786122 0.180929 -0.0946187 58
-0.648722 0.0378858 -0.0537113 76
-0.784997 0.180951 -0.149516 53
-0.801297 0.0451375 -0.121762 58
-0.791669 0.183065 -0.208214 50
-0.774043 0.042996 -0.170704 52
-2.7508 0.640201 0.642949 52
-6.92118 0.340979 1.84491 1
-2.76392 0.642766 0.442904 56
-7.15215 0.365905 1.38403 35
-2.78253 0.646605 0.246869 76
-7.24565 0.379464 0.885339 33
-0.627562 0.145077 -0.0320313 61
-0.623443 0.0376757 -0.0102969 8
-0.783389 0.181736 -0.0943145 56
-0.651142 0.0391492 -0.0539288 77
-0.78707 0.18288 -0.149992 53
-0.796285 0.0462793 -0.120979 58
-0.781913 0.182373 -0.205627 52
-0.7764 0.044471 -0.171266 53
-2.74018 0.653376 0.641264 50
-6.91924 0.378421 1.84491 1
-2.7556 0.656563 0.442124 49
-7.15013 0.403348 1.38403 35
-2.77173 0.659917 0.246215 99
-7.25099 0.417821 0.886252 33
-0.629221 0.148941 -0.0321625 61
-0.628221 0.0413387 -0.0103842 8
-0.787253 0.186991 -0.094923 56
-0.645956 0.0422695 -0.0534938 79
-0.786069 0.187136 -0.149992 53
-0.798497 0.0505892 -0.12137 58
-0.785643 0.187595 -0.20692 52
-0.776156 0.0485356 -0.171266 52
-2.73915 0.657679 0.641264 50
-6.91616 0.390362 1.84427 1
-2.75216 0.660314 0.441734 47
-7.15922 0.41639 1.38594 33
-2.77311 0.664851 0.246433 189
-7.2453 0.430184 0.885643 32
-0.626533 0.149455 -0.0320313 59
-0.628155 0.0423254 -0.0103842 8
-0.784514 0.187783 -0.0946187 58
-0.650861 0.0435804 -0.0539288 85
-0.785774 0.18837 -0.149992 53
-0.795943 0.0518372 -0.120979 58
-0.792388 0.190535 -0.20886 52
-0.768775 0.0494669 -0.169581 53
-2.74052 0.672699 0.642387 47
-6.91416 0.424156 1.84427 1
-2.75118 0.674825 0.442124 55
-7.1571 0.451372 1.38594 35
-2.76729 0.678285 0.246215 178
-7.24551 0.467008 0.885948 33
-0.630617 0.153818 -0.0322938 61
-0.627933 0.0455043 -0.0103842 8
-0.785962 0.192345 -0.094923 56
-0.648139 0.0468266 -0.0537113 85
-0.787193 0.192934 -0.150468 53
-0.798134 0.0560232 -0.12137 58
-0.786726 0.193382 -0.207567 50
-0.773377 0.0536642 -0.170704 53
-2.73461 0.676309 0.641264 44
-6.91341 0.436223 1.84427 1
-2.7524 0.680219 0.442514 56
-7.15377 0.464954 1.38546 35
-2.76852 0.683712 0.246433 142
-7.2422 0.479491 0.885643 33
-3.03854 0.206081 0.157793 18
-0.625502 0.153716 -0.0320313 59
-0.627853 0.0466002 -0.0103842 8
-0.783217 0.193118 -0.0946187 56
-0.648056 0.0479577 -0.0537113 89
-0.784473 0.193715 -0.149992 53
-0.795572 0.0572538 -0.120979 58
-0.788696 0.195477 -0.208214 50
-0.778144 0.0553291 -0.171827 53
-2.73091 0.691095 0.641264 41
-6.90854 0.473458 1.84362 1
-2.75107 0.695707 0.442904 56
-7.14389 0.501894 1.38403 35
-2.76236 0.698069 0.246215 143
-7.2395 0.518668 0.885643 33
-3.03738 0.222518 0.157793 20
-0.624688 0.156989 -0.0320313 59
-0.620112 0.0494577 -0.0102533 4
-0.782161 0.197353 -0.0946187 56
-0.645312 0.0511717 -0.0534938 90
-0.783414 0.197956 -0.149992 52
-0.792787 0.0613817 -0.120587 58
-0.790002 0.200201 -0.20886 50
-0.770543 0.0590261 -0.170143 52
-2.72983 0.695383 0.641264 50
-6.91493 0.486018 1.84556 1
-2.74506 0.699286 0.442124 55
-7.1479 0.51471 1.38498 35
-2.76114 0.70289 0.246215 195
-7.24354 0.531663 0.886252 35
-3.04197 0.228185 0.158055 18
-0.629251 0.159315 -0.0322938 59
-0.615039 0.0501721 -0.010166 4
-0.786623 0.199949 -0.0952272 55
-0.645221 0.0522979 -0.0534938 90
-0.783067 0.199323 -0.149992 53
-0.792679 0.0627653 -0.120587 58
-0.787312 0.200978 -0.208214 50
-0.775298 0.0607209 -0.171266 52
-2.72602 0.710143 0.641264 50
-6.90748 0.521857 1.84427 1
-2.73898 0.713027 0.441734 55
-7.14511 0.55213 1.38498 35
-2.76224 0.718594 0.246651 191
-7.24313 0.569775 0.886556 33
-2.79147 0.726732 0.0497394 1
-3.03576 0.243718 0.157793 20
-0.623577 0.161346 -0.0320313 59
-0.61726 0.0535887 -0.0102097 4
-0.644939 0.0556756 -0.0534938 90
-0.782013 0.203421 -0.149992 53
-0.797263 0.0673006 -0.12137 58
-0.79092 0.206325 -0.209507 50
-0.772541 0.0645918 -0.170704 53
-2.72019 0.713186 0.640141 36
-6.90896 0.534097 1.84491 1
-2.74012 0.718433 0.442124 56
-7.14413 0.564599 1.38498 35
-2.75617 0.722149 0.246215 182
-7.24707 0.582811 0.887165 35
-2.79262 0.732239 0.049783 1
-3.03533 0.249016 0.157793 20
-0.623294 0.162435 -0.0320313 59
-0.622148 0.0550686 -0.0102969 4
-0.647323 0.0570013 -0.0537113 90
-0.781657 0.204785 -0.149992 52
-0.78976 0.0681005 -0.120196 58
-0.78589 0.20647 -0.208214 50
-0.772427 0.06594 -0.170704 52
-2.72335 0.729788 0.641826 44
-6.90367 0.570067 1.84427 1
-2.74109 0.73405 0.442904 56
-7.14108 0.601998 1.38498 35
-2.75475 0.737215 0.246433 150
-7.24145 0.620538 0.88686 33
-2.7984 0.749442 0.0499575 9
-3.03398 0.264905 0.157793 18
-0.622435 0.165696 -0.0320313 59
-0.616871 0.0578966 -0.0102097 3
-0.784122 0.209544 -0.0952272 55
-0.644534 0.0601767 -0.0534938 90
-0.780574 0.208875 -0.149992 52
-0.794313 0.0726548 -0.120979 58
-0.780135 0.209322 -0.20692 49
-0.769644 0.0697788 -0.170143 52
-2.7222 0.734065 0.641826 50
-6.91229 0.582921 1.84685 1
-2.74219 0.739478 0.443295 55
-7.15469 0.615713 1.38784 33
-2.75106 0.741373 0.246215 97
-7.23788 0.632961 0.886556 32
-2.78502 0.751065 0.0497394 12
-3.036 0.270418 0.157924 17
-0.624555 0.167434 -0.0321625 59
-0.629219 0.0600668 -0.0104278 3
-0.788545 0.21221 -0.0958357 55
-0.644428 0.0613015 -0.0534938 90
-0.787314 0.212165 -0.151421 52
-0.796645 0.0742554 -0.12137 58
-0.784429 0.211951 -0.208214 50
-0.771948 0.0713309 -0.170704 53
-2.71349 0.747487 0.640703 49
-2.73113 0.751856 0.442124 55
-2.75434 0.757752 0.246869 76
-2.77141 0.762978 0.0495648 14
-3.00223 0.283312 0.156223 17
-0.626047 0.171475 -0.0322938 59
-0.623918 0.062897 -0.0103405 3
-0.785031 0.215674 -0.0955314 52
-0.646567 0.0650182 -0.0537113 90
-0.786192 0.216284 -0.151421 52
-0.798704 0.0786528 -0.121762 58
-0.783309 0.216056 -0.208214 49
-0.771564 0.0753718 -0.170704 53
-2.71688 0.753526 0.641826 50
-2.7322 0.757282 0.442514 56
-2.74582 0.76056 0.246215 64
-2.77235 0.768967 0.0496085 14
-3.03404 0.291606 0.157924 18
-0.625746 0.172567 -0.0322938 59
-0.61883 0.0635137 -0.0102533 3
-0.779873 0.215713 -0.094923 50
-0.648932 0.0663818 -0.0539288 90
-0.781085 0.216338 -0.150468 50
-0.796107 0.0798151 -0.12137 58
-0.785218 0.21821 -0.20886 47
-0.773857 0.0769442 -0.171266 52
-2.71042 0.76755 0.641264 49
-2.84905 0.278745 0.756706 36
-2.72568 0.77138 0.442124 55
-2.87217 0.285974 0.553802 45
-2.75125 0.778121 0.247087 83
-2.87861 0.290627 0.350485 39
-2.76107 0.781426 0.0494776 15
-2.90075 0.294853 0.150989 30
-0.627236 0.176523 -0.0324251 58
-0.628426 0.0678592 -0.0104278 3
-0.781081 0.220608 -0.0952272 50
-0.646097 0.0695305 -0.0537113 90
-0.786985 0.222577 -0.151897 50
-0.793221 0.0837381 -0.120979 58
-0.781743 0.221655 -0.208214 47
-0.775854 0.0813691 -0.171827 53
-2.70921 0.771806 0.641264 50
-2.88461 0.287246 0.766399 36
-2.72447 0.77566 0.442124 52
-2.90341 0.294149 0.559998 45
-2.74509 0.781556 0.246651 169
-2.87815 0.295148 0.350485 47
-2.7549 0.784872 0.0493903 23
-2.93009 0.302436 0.152559 30
-0.626927 0.177617 -0.0324251 59
-0.775962 0.22047 -0.0946187 49
-0.643497 0.0704055 -0.0534938 90
-0.786595 0.22395 -0.151897 50
-0.790617 0.0848737 -0.120587 58
-0.781355 0.223019 -0.208214 47
-0.768453 0.0818593 -0.170143 52
-2.70045 0.784619 0.640141 50
-2.85429 0.298874 0.758644 36
-2.71563 0.788535 0.441344 50
-2.87504 0.306029 0.554756 45
-2.7411 0.79544 0.246651 118
-2.8741 0.309952 0.350181 47
-2.75089 0.798806 0.0493903 30
-2.8962 0.314325 0.150858 49
-0.621226 0.179393 -0.0321625 59
-0.779561 0.225919 -0.0952272 49
-0.643133 0.0736616 -0.0534938 90
-0.790162 0.0890122 -0.120587 58
-0.772859 0.0863927 -0.171266 52
-2.69922 0.78886 0.640141 50
-2.84176 0.302597 0.755413 47
-2.71662 0.793968 0.441734 50
-2.86474 0.310006 0.552849 49
-2.7421 0.800922 0.246869 74
-2.87109 0.314702 0.349876 47
-2.74949 0.803606 0.0493903 41
-2.89068 0.31884 0.150597 49
-0.632891 0.183986 -0.0328189 58
-0.781547 0.227979 -0.0955314 45
-0.645479 0.0750534 -0.0537113 90
-0.79246 0.0906569 -0.120979 58
-0.775129 0.0880012 -0.171827 53
-2.69477 0.803923 0.640141 50
-2.84248 0.318233 0.756059 47
-2.70755 0.807241 0.440953 50
-2.86058 0.325228 0.552373 49
-2.71864 0.810048 0.245126 52
-2.86934 0.330231 0.349876 49
-2.7475 0.819185 0.0494339 49
-2.88891 0.334476 0.150597 49
-0.629494 0.186693 -0.0326876 58
-0.647538 0.0788274 -0.0539288 90
-0.791975 0.094805 -0.120979 58
-0.772221 0.0919209 -0.171266 52
-2.70284 0.81096 0.642387 49
-2.83952 0.322924 0.755413 47
-2.71101 0.812914 0.441734 55
-2.85513 0.329666 0.551419 49
-2.7196 0.815508 0.245343 52
-2.86389 0.334171 0.349268 49
-2.88342 0.338439 0.150335 49
-0.621995 0.185634 -0.0322938 58
-0.647399 0.0799575 -0.0539288 90
-0.789355 0.0959042 -0.120587 58
-0.772076 0.0931338 -0.171266 52
-2.69389 0.823674 0.641264 49
-2.83305 0.33673 0.754121 47
-2.70199 0.825652 0.440953 56
-2.85586 0.344402 0.551896 50
-2.71782 0.829991 0.245561 52
-2.85964 0.348865 0.348964 49
-2.87418 0.352632 0.149943 47
-0.621048 0.18878 -0.0322938 58
-0.644514 0.0829336 -0.0537113 90
-0.788842 0.100036 -0.120587 58
-0.773996 0.0974644 -0.171827 52
-2.69492 0.828622 0.641826 49
-2.83486 0.34196 0.754767 49
-2.70291 0.831093 0.441344 52
-2.85526 0.349386 0.551896 50
-2.71399 0.834001 0.245343 55
-2.85903 0.353856 0.348964 49
-2.87356 0.357648 0.149943 47
-0.627875 0.19207 -0.0326876 56
-0.641896 0.0837544 -0.0534938 90
-0.793568 0.102013 -0.12137 56
-0.771407 0.0985216 -0.171266 52
-2.69273 0.84392 0.642387 50
-2.83063 0.3565 0.754121 49
-2.69852 0.845234 0.441344 49
-2.85095 0.364025 0.551419 50
-2.71909 0.85118 0.246215 65
-2.85713 0.368821 0.348964 49
-2.86917 0.372372 0.149812 49
-0.624444 0.194716 -0.0325564 58
-0.636493 0.0865915 -0.0530589 90
-0.788125 0.105541 -0.120587 56
-0.773297 0.102865 -0.171827 52
-2.69357 0.849352 0.642949 52
-2.8324 0.361742 0.754767 49
-2.70175 0.85143 0.442124 47
-2.84782 0.369186 0.550943 50
-2.71285 0.854426 0.245779 132
-2.85156 0.373171 0.348355 49
-2.86852 0.377379 0.149812 49
-0.624104 0.195805 -0.0325564 58
-0.64622 0.0889888 -0.0539288 90
-0.785491 0.106599 -0.120196 55
-0.768284 0.103594 -0.170704 52
-2.69126 0.86466 0.64351 53
-2.82561 0.376432 0.753475 50
-2.69475 0.865279 0.441734 45
-2.84584 0.384092 0.550943 50
-2.70107 0.866805 0.245126 56
-2.8495 0.388594 0.348355 49
-2.86396 0.392558 0.149681 47
-0.62307 0.19907 -0.0325564 58
-0.643277 0.0920366 -0.0537113 90
-0.784922 0.11071 -0.120196 56
-0.767712 0.107749 -0.170704 52
-2.68526 0.867386 0.642387 50
-2.82495 0.381363 0.753475 49
-2.70044 0.87179 0.442904 49
-2.84517 0.389058 0.550943 47
-2.85135 0.393404 0.348659 49
-2.85839 0.396379 0.149419 47
-0.622721 0.200157 -0.0325564 56
-0.643116 0.0931592 -0.0537113 90
-0.78962 0.112748 -0.120979 56
-0.77237 0.10961 -0.171827 52
-2.68068 0.881434 0.642387 49
-2.82538 0.395987 0.754121 49
-2.69584 0.885917 0.442904 49
-2.84073 0.403113 0.550466 49
-2.84679 0.407981 0.348355 47
-2.85133 0.410636 0.149157 44
-0.619294 0.202634 -0.0324251 56
-0.645085 0.096877 -0.0539288 90
-0.789019 0.116881 -0.120979 58
-0.769373 0.113312 -0.171266 52
-2.67451 0.884579 0.641264 49
-2.8199 0.400248 0.752828 49
-2.69663 0.891397 0.443295 56
-2.83995 0.408566 0.550466 47
-2.83871 0.411892 0.347442 47
-0.639985 0.0972906 -0.0534938 90
-0.78637 0.117907 -0.120587 58
-0.771586 0.114999 -0.171827 50
-2.66969 0.899037 0.641264 47
-2.8153 0.41515 0.752182 47
-2.69177 0.905975 0.443295 55
-2.83292 0.422714 0.549513 47
-2.83153 0.426514 0.346834 47
-2.62857 0.398149 0.137513 90
-0.639466 0.10064 -0.0534938 90
-0.788162 0.122524 -0.120979 58
-0.770952 0.119172 -0.171827 52
-2.66366 0.901665 0.640141 47
-2.81457 0.420063 0.752182 47
-2.68784 0.909878 0.442904 50
-2.82732 0.426933 0.54856 47
-2.83078 0.431455 0.346834 47
-0.626959 0.211239 -0.0329502 58
-0.636827 0.101383 -0.0532764 90
-0.783064 0.123162 -0.120196 55
-0.768334 0.120156 -0.171266 52
-2.65183 0.913679 0.638457 47
-2.80279 0.433335 0.749597 45
-2.68304 0.923939 0.442904 47
-2.82505 0.441731 0.54856 49
-2.82848 0.446271 0.346834 49
-2.82058 0.447037 0.147849 42
-0.628204 0.215333 -0.0330815 58
-0.68786 0.112921 -0.0115622 4
-0.638748 0.105102 -0.0534938 90
-0.782431 0.127124 -0.120196 55
-0.767694 0.124178 -0.171266 52
-2.64809 0.917045 0.637895 49
-2.80441 0.438595 0.750244 47
-2.67459 0.925726 0.441734 45
-2.82185 0.446282 0.548083 50
-2.82042 0.449554 0.345921 49
-2.8322 0.45342 0.148503 42
-0.62311 0.214792 -0.0328189 56
-0.687662 0.114122 -0.0115622 4
-0.636104 0.105826 -0.0532764 90
-0.774891 0.127333 -0.119021 55
-0.767498 0.125383 -0.171266 52
-2.64096 0.930087 0.637333 49
-2.80216 0.452784 0.750244 49
-2.66505 0.938075 0.440953 45
-2.81955 0.460559 0.548083 50
-2.81558 0.463916 0.345617 49
-2.83718 0.469453 0.148896 67
-0.619623 0.217221 -0.0326876 56
-0.692009 0.11841 -0.0116495 4
-0.640456 0.109962 -0.0537113 90
-0.776651 0.131787 -0.119413 55
-0.766831 0.1294 -0.171266 50
-2.64163 0.93551 0.637895 50
-2.79659 0.456904 0.748951 47
-2.65875 0.941075 0.440173 45
-2.81382 0.465179 0.54713 49
-2.82211 0.47004 0.34653 55
-2.84128 0.47522 0.149157 93
-0.626301 0.220807 -0.0330815 58
-0.694267 0.120027 -0.0116931 4
-0.640264 0.11108 -0.0537113 90
-0.778856 0.133545 -0.119804 55
-0.773816 0.131922 -0.17295 50
-2.63653 0.949788 0.637895 50
-2.7917 0.47163 0.748305 49
-2.65362 0.955446 0.440173 45
-2.80651 0.479088 0.546177 49
-2.82197 0.485719 0.346834 59
-1.43949 0.517626 0.0260913 8
-2.83867 0.490586 0.149157 89
-0.627485 0.22493 -0.0332127 56
-0.693608 0.123782 -0.0116931 4
-1.43122 0.515769 -0.18224 4
-0.637218 0.11401 -0.0534938 90
-0.778146 0.137621 -0.119804 55
-0.770689 0.135699 -0.172389 52
-2.63503 0.953929 0.637895 50
-2.79325 0.476904 0.748951 49
-2.6498 0.958772 0.439783 47
-2.80809 0.484399 0.546653 52
-2.8261 0.490993 0.347442 73
-1.44328 0.521842 0.0261786 4
-2.83789 0.495044 0.149157 90
-0.624744 0.225174 -0.0330815 56
-0.693391 0.124992 -0.0116931 8
-1.42342 0.515475 -0.181327 4
-0.637019 0.115122 -0.0534938 89
-0.782771 0.139818 -0.120587 55
-2.62543 0.966028 0.636772 50
-2.78604 0.490207 0.747659 49
-2.64242 0.97178 0.439392 49
-2.80801 0.499031 0.54713 52
-2.82105 0.50535 0.347138 76
-1.45 0.532596 0.0263531 4
-2.83281 0.509459 0.149027 90
-0.692749 0.1285 -0.0116931 8
-1.42768 0.525499 -0.18224 4
-0.643762 0.119769 -0.0541462 88
-0.779597 0.143482 -0.120196 55
-2.62374 0.970609 0.636772 50
-2.78518 0.495068 0.747659 49
-2.63841 0.975533 0.439002 49
-2.80464 0.503991 0.546653 52
-2.81527 0.509397 0.34653 61
-1.44429 0.533642 0.0262659 4
-2.82454 0.513076 0.148634 55
-0.690064 0.129265 -0.0116495 8
-1.42444 0.527127 -0.181936 4
-0.641101 0.12045 -0.0539288 85
-0.779345 0.144843 -0.120196 55
-1.00182 0.371661 -0.276756 4
-0.767102 0.141857 -0.171827 50
-2.62073 0.985649 0.637333 50
-2.78009 0.509699 0.747013 49
-2.63309 0.989794 0.439002 50
-2.79713 0.517784 0.5457 50
-2.81248 0.524622 0.34653 55
-1.44382 0.542077 0.0263095 4
-2.81927 0.527895 0.148503 53
-0.691812 0.133454 -0.0116931 8
-1.43085 0.53833 -0.183153 4
-0.638013 0.123351 -0.0537113 79
-0.776123 0.148608 -0.119804 53
-1.00664 0.379465 -0.278696 4
-0.771115 0.146887 -0.17295 50
-2.6169 0.988902 0.636772 50
-2.7792 0.51455 0.747013 50
-2.62674 0.99264 0.438222 52
-2.79381 0.522218 0.545224 50
-2.80424 0.528164 0.345617 50
-1.45222 0.548136 0.026484 4
-2.81834 0.532815 0.148503 52
-0.628544 0.236527 -0.0334753 56
-0.689121 0.1342 -0.0116495 8
-1.42295 0.538186 -0.18224 4
-0.640245 0.124923 -0.0539288 79
-1.2997 0.491955 -0.262844 3
-0.778289 0.150416 -0.120196 53
-1.00372 0.380363 -0.278049 4
-0.768463 0.147788 -0.172389 50
-2.61151 1.00305 0.636772 50
-2.77884 0.529543 0.747659 50
-2.62381 1.00727 0.438612 52
-2.79827 0.538217 0.546653 52
-1.48145 0.567784 0.135745 8
-2.799 0.542372 0.345313 50
-1.44933 0.555732 0.026484 4
-2.81306 0.547092 0.148372 52
-0.622636 0.238022 -0.0332127 58
-0.693318 0.138754 -0.0117367 8
-1.42706 0.548306 -0.183153 4
-0.642027 0.128745 -0.0541462 77
-1.29253 0.496987 -0.261891 4
-0.775066 0.154022 -0.119804 53
-1.00847 0.388225 -0.279989 3
-0.765286 0.151352 -0.171827 50
-2.60766 1.00627 0.63621 50
-2.78028 0.534844 0.748305 50
-2.61975 1.01095 0.438222 52
-2.79733 0.5431 0.546653 50
-1.4851 0.572163 0.136181 8
-2.79805 0.547256 0.345313 49
-1.45302 0.560063 0.0265713 4
-2.80965 0.551524 0.148242 53
-0.690621 0.139486 -0.0116931 4
-1.42378 0.549899 -0.182848 4
-0.641802 0.129866 -0.0541462 79
-1.29852 0.501904 -0.26332 3
-0.779644 0.156316 -0.120587 55
-0.996536 0.385612 -0.276756 3
-0.767412 0.153149 -0.172389 50
-2.60009 1.01902 0.635649 50
-2.77517 0.548446 0.747659 49
-2.6123 1.0233 0.437832 52
-2.78973 0.5563 0.5457 49
-1.47059 0.575127 0.135091 8
-2.79281 0.560927 0.345008 49
-1.44551 0.565584 0.026484 4
-2.80683 0.565737 0.148242 53
-0.682553 0.141508 -0.0115622 4
-1.43253 0.561638 -0.18437 4
-0.638671 0.132736 -0.0539288 76
-1.30053 0.510267 -0.264272 4
-0.771578 0.158811 -0.119413 52
-0.999064 0.392423 -0.278049 4
-0.766627 0.157031 -0.172389 52
-2.60284 1.02534 0.636772 49
-2.77184 0.55282 0.747013 49
-2.60591 1.02604 0.437051 53
-2.78625 0.561175 0.545224 50
-1.47885 0.581345 0.135963 4
-2.79912 0.567267 0.345921 53
-1.44907 0.570193 0.0265713 4
-2.80828 0.571129 0.148372 56
-0.627502 0.246196 -0.0336066 58
-0.684755 0.143194 -0.0116058 4
-1.42231 0.56049 -0.183153 4
-0.638438 0.13385 -0.0539288 73
-1.29736 0.511633 -0.263796 4
-0.773721 0.160645 -0.119804 52
-0.993819 0.39256 -0.276756 3
-0.768741 0.158847 -0.17295 50
-2.59499 1.0385 0.63621 50
-2.76644 0.567328 0.746366 49
-2.60261 1.04105 0.437441 52
-2.78327 0.575756 0.545224 49
-1.478 0.590264 0.136181 8
-2.79601 0.582403 0.345921 55
-1.44375 0.576843 0.0265277 4
-2.81004 0.587328 0.148634 65
-0.626205 0.249479 -0.0336066 58
-0.683971 0.146896 -0.0116058 3
-1.42387 0.570026 -0.183761 4
-0.637729 0.137191 -0.0539288 73
-1.29685 0.51956 -0.264272 4
-0.772869 0.164694 -0.119804 53
-0.99175 0.397758 -0.276756 4
-0.765484 0.162513 -0.172389 52
-2.59109 1.04167 0.635649 49
-2.76308 0.57167 0.74572 49
-2.59869 1.04421 0.437051 53
-2.78707 0.581607 0.546177 52
-1.47697 0.592843 0.136181 4
-2.79267 0.586289 0.345617 56
-1.44506 0.580295 0.0265713 4
-2.80911 0.591741 0.148634 61
-0.621137 0.248706 -0.033344 58
-0.68616 0.148602 -0.0116495 3
-1.42067 0.571334 -0.183457 4
-0.637488 0.138304 -0.0539288 70
-1.29594 0.521823 -0.264272 4
-0.774997 0.166547 -0.120196 52
-0.988816 0.398582 -0.276109 4
-0.767613 0.16421 -0.17295 50
-2.59011 1.05707 0.636772 50
-2.76251 0.586145 0.746366 50
-2.59547 1.05874 0.437441 53
-2.78169 0.595197 0.5457 52
-1.47625 0.601252 0.136399 8
-2.79198 0.601421 0.345921 59
-1.44905 0.590438 0.0267022 4
-2.80598 0.606442 0.148634 65
-0.622137 0.252899 -0.0334753 58
-0.680511 0.151024 -0.0115622 3
-1.41995 0.579704 -0.183761 4
-0.641625 0.142686 -0.0543637 67
-1.29328 0.528375 -0.264272 4
-0.769286 0.169569 -0.119413 52
-0.98902 0.404499 -0.276756 4
-0.766743 0.168227 -0.17295 52
-2.58601 1.06066 0.63621 50
-2.75912 0.590465 0.74572 50
-2.5959 1.0642 0.437832 53
-2.77814 0.600022 0.545224 50
-1.46829 0.600991 0.135745 8
-2.78123 0.604203 0.344704 56
-1.44097 0.59037 0.0265713 4
-2.79759 0.609755 0.148242 56
-0.624004 0.254934 -0.0336066 58
-0.677803 0.151682 -0.0115186 3
-1.41894 0.582182 -0.183761 4
-0.636507 0.142751 -0.0539288 68
-1.29009 0.529697 -0.263796 4
-0.771402 0.171432 -0.119804 52
-0.988242 0.406397 -0.276756 3
-0.761684 0.168542 -0.171827 50
-2.58024 1.07464 0.63621 50
-2.75589 0.605384 0.74572 49
-2.58555 1.07633 0.437051 52
-2.77256 0.614033 0.544747 49
-1.46732 0.609885 0.135963 8
-2.78034 0.619777 0.345008 53
-1.44017 0.598868 0.0266149 4
-2.79182 0.624342 0.148111 53
-0.624964 0.259158 -0.0337378 58
-0.676973 0.155347 -0.0115186 3
-1.42035 0.591763 -0.18437 4
-0.640614 0.147162 -0.0543637 67
-1.28947 0.537616 -0.264272 3
-0.770494 0.175469 -0.119804 52
-0.988328 0.412499 -0.277403 4
-0.76314 0.173185 -0.172389 50
-2.75483 0.610193 0.74572 49
-2.58385 1.08039 0.437051 53
-2.76909 0.618341 0.544271 49
-1.46855 0.613407 0.136181 8
-2.77694 0.623604 0.344704 49
-1.44373 0.603312 0.0267022 4
-2.7884 0.628182 0.14798 53
-0.626814 0.261214 -0.0338691 58
-0.681579 0.157622 -0.0116058 4
-1.41026 0.590153 -0.183153 4
-0.635495 0.147191 -0.0539288 65
-1.29758 0.543669 -0.266177 4
-0.765367 0.175738 -0.119021 50
-0.98538 0.413287 -0.276756 3
-0.760489 0.173856 -0.171827 50
-2.7517 0.624129 0.74572 49
-2.57816 1.09391 0.437051 53
-2.76832 0.632891 0.544747 49
-1.46313 0.619858 0.135963 4
-2.77364 0.638136 0.344704 50
-1.43606 0.608657 0.0266149 4
-2.7875 0.643331 0.148111 55
-0.62314 0.263515 -0.0337378 58
-0.683209 0.161628 -0.0116495 3
-1.41629 0.601417 -0.18437 4
-0.644426 0.152744 -0.0547986 64
-1.28578 0.546381 -0.264272 3
-0.766843 0.180293 -0.119413 52
-0.989939 0.421113 -0.278696 3
-0.761944 0.178376 -0.172389 50
-2.7459 0.627862 0.744428 49
-2.62621 1.11974 0.445636 53
-2.7671 0.638205 0.544747 50
-1.46205 0.622411 0.135963 8
-2.77977 0.644645 0.345617 59
-1.43949 0.613377 0.0267022 8
-2.78638 0.648195 0.148111 59
-0.622679 0.264602 -0.0337378 58
-0.68049 0.162257 -0.0116058 3
-1.4198 0.60584 -0.184978 4
-0.639305 0.152746 -0.0543637 64
-1.29385 0.552488 -0.266177 3
-0.766527 0.181631 -0.119413 50
-0.978033 0.418251 -0.275463 4
-0.76638 0.180795 -0.173512 50
-2.74246 0.642709 0.744428 50
-2.59746 1.12411 0.441734 52
-2.76372 0.652685 0.544747 52
-1.46094 0.631302 0.136181 8
-2.769 0.657967 0.344704 79
-1.42937 0.617924 0.0265713 4
-2.78769 0.664411 0.148372 90
-0.618995 0.266866 -0.0336066 58
-0.682035 0.166513 -0.0116495 3
-1.41195 0.611537 -0.18437 4
-0.638496 0.156092 -0.0543637 64
-1.28634 0.557524 -0.265224 3
-0.767936 0.186344 -0.119804 50
-0.980258 0.425294 -0.276756 3
-0.770134 0.186054 -0.174635 50
-2.74134 0.647495 0.744428 50
-2.73812 1.19075 0.466318 15
-2.76019 0.656943 0.544271 50
-1.46669 0.636832 0.136835 8
-2.77268 0.663946 0.345313 83
-1.43517 0.623411 0.0267022 4
-2.77924 0.667538 0.14798 110
-0.623105 0.26994 -0.0338691 58
-1.4177 0.616977 -0.185282 4
-0.6358 0.156628 -0.0541462 64
-1.28536 0.559768 -0.265224 3
-0.765208 0.187112 -0.119413 50
-0.977302 0.426036 -0.276109 3
-0.767437 0.186836 -0.174073 50
-2.84238 1.25447 0.708086 27
-2.73791 0.66184 0.744428 44
-2.7183 1.19908 0.463977 15
-2.76387 0.673116 0.5457 52
-1.46333 0.644503 0.136835 8
-2.76916 0.678455 0.345313 82
-1.43417 0.631927 0.0267458 4
-2.77328 0.681489 0.147849 105
-0.621684 0.273199 -0.0338691 58
-1.40764 0.621379 -0.18437 4
-0.639811 0.161136 -0.0545811 62
-1.28915 0.569473 -0.266653 3
-0.764251 0.190982 -0.119413 50
-0.975057 0.431148 -0.276109 4
-0.761714 0.189703 -0.17295 50
-2.82259 1.25103 0.703594 29
-2.73675 0.666617 0.744428 33
-2.72544 1.20736 0.465537 11
-2.7603 0.677358 0.545224 52
-1.46221 0.647056 0.136835 8
-2.76809 0.682804 0.345313 62
-1.43078 0.633415 0.0267022 8
-2.77948 0.687631 0.148242 100
-0.621206 0.274284 -0.0338691 58
-1.40213 0.621574 -0.183761 4
-0.63711 0.161657 -0.0543637 62
-1.28366 0.569726 -0.265701 3
-0.768713 0.193492 -0.120196 50
-0.976509 0.433832 -0.276756 3
-0.766148 0.192055 -0.174073 50
-2.76713 1.24379 0.69124 24
-2.73568 0.68104 0.745074 49
-2.71683 1.2206 0.465147 12
-2.75684 0.691321 0.545224 50
-1.45437 0.652406 0.136399 8
-2.75967 0.696082 0.344704 80
-1.42756 0.640649 0.0267022 8
-2.771 0.700958 0.14798 102
-0.624314 0.279582 -0.0341317 58
-1.40791 0.632985 -0.184978 4
-0.63867 0.165599 -0.0545811 61
-1.283 0.577225 -0.266177 3
-0.765294 0.196914 -0.119804 50
-0.969899 0.43678 -0.275463 3
-0.767495 0.196654 -0.174635 50
-2.74054 1.23758 0.685063 53
-2.7298 0.684647 0.743782 45
-2.73045 1.23246 0.467879 18
-2.74837 0.69482 0.543794 49
-1.45777 0.656994 0.136835 8
-2.76085 0.701505 0.345008 80
-1.4286 0.644418 0.0267458 8
-2.76735 0.705181 0.147849 105
-0.623825 0.280672 -0.0341317 56
-1.4068 0.635441 -0.184978 4
-0.640794 0.167325 -0.0547986 59
-1.28423 0.580477 -0.266653 3
-0.764949 0.198249 -0.119804 50
-0.96686 0.437643 -0.274816 3
-0.767151 0.197993 -0.174635 49
-2.7338 1.25239 0.685063 47
-2.72606 0.699406 0.743782 44
-2.717 1.24413 0.466708 53
-2.74707 0.709811 0.544271 50
-1.4474 0.661759 0.136181 8
-2.75702 0.716432 0.345008 90
-1.43202 0.655015 0.0268767 4
-2.76349 0.720144 0.147849 101
-0.624616 0.284975 -0.0342629 58
-1.41462 0.648222 -0.186499 4
-0.639909 0.170678 -0.0547986 58
-1.28107 0.587416 -0.266653 3
-0.766292 0.202869 -0.120196 50
-0.975523 0.44775 -0.278049 3
-0.76135 0.200927 -0.173512 49
-2.69864 1.2414 0.67664 29
-2.72717 0.704763 0.744428 42
-2.69037 1.23703 0.462416 30
-2.74582 0.714604 0.544271 52
-1.44851 0.665326 0.136399 8
-2.75589 0.720762 0.345008 89
-1.42407 0.654376 0.0267458 4
-2.76719 0.725742 0.148111 104
-0.624118 0.286065 -0.0342629 56
-1.40909 0.648365 -0.185891 4
-0.637201 0.171166 -0.0545811 58
-1.27781 0.588622 -0.266177 4
-0.768326 0.204828 -0.120587 49
-0.970357 0.447424 -0.276756 3
-0.763392 0.202733 -0.174073 49
-2.67445 1.24726 0.672148 27
-2.72357 0.718557 0.744428 45
-2.6861 1.25215 0.462806 29
-2.74692 0.729745 0.545224 52
-1.44963 0.674755 0.136835 8
-2.75208 0.735182 0.345008 73
-1.41847 0.660519 0.0267022 8
-2.76094 0.739579 0.14798 114
-0.622611 0.289329 -0.0342629 58
-1.40568 0.655734 -0.185891 4
-0.633889 0.173859 -0.0543637 56
-1.27926 0.597163 -0.267129 4
-0.76247 0.20758 -0.119804 50
-0.96808 0.45233 -0.276756 4
-0.759965 0.206105 -0.173512 49
-2.64801 1.24055 0.665971 52
-2.72231 0.72331 0.744428 49
-2.65931 1.2453 0.458513 30
-2.75025 0.736278 0.546177 52
-1.45296 0.679397 0.13727 8
-2.75319 0.740625 0.345313 55
-1.41041 0.660056 0.0265713 4
-2.7717 0.747628 0.148634 94
-0.619845 0.289354 -0.0341317 58
-1.40902 0.660296 -0.186499 4
-0.638396 0.176256 -0.0547986 56
-1.27156 0.596262 -0.265701 3
-0.764492 0.209549 -0.120196 49
-0.965025 0.453158 -0.276109 3
-0.766666 0.209312 -0.175197 49
-2.65445 1.26114 0.669341 59
-2.71603 0.7374 0.743782 45
-2.64808 1.25755 0.457733 58
-2.73689 0.748096 0.544271 50
-1.44702 0.68618 0.137052 8
-2.75153 0.756163 0.345617 53
-1.41145 0.669579 0.0266585 8
-2.76521 0.761954 0.148503 71
-0.622831 0.294741 -0.0343942 58
-1.39647 0.663642 -0.185282 4
-0.635062 0.178938 -0.0545811 56
-1.26831 0.603133 -0.265701 3
-0.958281 0.456123 -0.274816 4
-0.763171 0.212817 -0.174635 49
-2.65906 1.26846 0.671025 59
-2.71241 0.741506 0.743135 45
-2.65033 1.2643 0.458513 58
-2.73795 0.753519 0.544747 50
-1.45031 0.69085 0.137488 4
-2.7526 0.761622 0.345921 68
-1.40351 0.668809 0.0265277 4
-2.76387 0.766779 0.148503 61
-0.61781 0.293674 -0.0341317 56
-1.39754 0.667149 -0.185587 4
-0.634749 0.180046 -0.0545811 56
-1.26504 0.604286 -0.265224 3
-0.964015 0.460929 -0.276756 4
-0.767498 0.215437 -0.175758 47
-2.65655 1.28495 0.672148 61
-2.71082 0.756343 0.743782 49
-2.65035 1.28139 0.459684 59
-2.73396 0.767845 0.544747 50
-1.43995 0.69518 0.136835 8
-2.73663 0.772673 0.3444 90
-1.40674 0.679416 0.0266585 4
-2.75502 0.779888 0.148242 58
-0.625252 0.301258 -0.0346568 58
-1.39403 0.674457 -0.185587 4
-0.636195 0.184042 -0.0547986 56
-1.25965 0.60983 -0.264748 3
-0.952901 0.461746 -0.274169 4
-0.764013 0.218796 -0.175197 45
-2.65672 1.29018 0.67271 62
-2.70717 0.760424 0.743135 49
-2.65033 1.28709 0.460074 61
-2.73026 0.771951 0.544271 49
-1.4365 0.696604 0.136617 4
-2.74244 0.779472 0.345313 61
-1.40106 0.679684 0.0265713 4
-2.75845 0.786056 0.148503 71
-0.624725 0.302349 -0.0346568 56
-1.39731 0.679063 -0.186195 4
-0.63108 0.183794 -0.0543637 55
-1.25859 0.612027 -0.264748 3
-0.956434 0.465528 -0.275463 4
-2.6543 1.30623 0.673833 71
-2.69864 0.772795 0.741843 49
-2.64599 1.30158 0.460465 67
-2.72631 0.785761 0.544271 49
-1.43072 0.702766 0.136399 4
-2.73608 0.792656 0.345008 52
-1.40657 0.691184 0.0267458 4
-2.75684 0.8007 0.148634 90
-0.620894 0.304512 -0.0345255 56
-1.40054 0.68942 -0.187108 4
-0.632502 0.187787 -0.0545811 55
-1.25547 0.61839 -0.264748 3
-0.951901 0.469292 -0.274816 4
-2.65638 1.31302 0.674956 80
-2.6996 0.778168 0.742489 49
-2.65036 1.30948 0.461635 77
-2.7248 0.790993 0.544271 49
-1.43172 0.706366 0.136617 4
-2.72992 0.796049 0.3444 49
-1.40524 0.693883 0.0267458 4
-2.75304 0.804813 0.148503 82
-0.618124 0.304487 -0.0343942 56
-1.39488 0.68966 -0.186499 4
-0.629782 0.188195 -0.0543637 55
-1.25 0.618399 -0.263796 3
-0.955323 0.473269 -0.276109 4
-2.65141 1.32847 0.675517 86
-2.69535 0.792763 0.742489 47
-2.64544 1.32491 0.462025 86
-2.71591 0.803864 0.543317 49
-1.42342 0.71187 0.136181 4
-2.72795 0.811511 0.344704 49
-1.40382 0.702352 0.0267894 4
-2.73907 0.816859 0.14798 55
-0.620985 0.309958 -0.0346568 56
-1.3867 0.694969 -0.185891 4
-0.631175 0.192198 -0.0545811 55
-1.24882 0.626255 -0.264272 3
-0.952832 0.478264 -0.276109 4
-2.62757 1.32167 0.669902 38
-2.69628 0.798148 0.743135 47
-2.63233 1.32351 0.460074 47
-2.71451 0.808603 0.543317 49
-1.43108 0.718832 0.137052 4
-2.7243 0.815087 0.3444 49
-1.40036 0.703677 0.0267458 4
-2.73061 0.819021 0.147587 47
-0.615984 0.308795 -0.0343942 58
-1.39003 0.699381 -0.186499 4
-0.635612 0.194724 -0.055016 53
-1.24992 0.62954 -0.264748 3
-0.951996 0.479927 -0.276109 4
-2.59891 1.32434 0.664287 33
-2.69452 0.812478 0.743782 47
-2.60116 1.32493 0.455782 35
-2.71038 0.822332 0.543317 49
-1.42298 0.723804 0.136617 4
-2.71762 0.828621 0.344096 50
-1.40569 0.715298 0.0269203 4
-0.618806 0.314286 -0.0346568 56
-1.38635 0.706649 -0.186499 4
-0.634584 0.19805 -0.055016 53
-1.23579 0.630272 -0.262367 3
-2.01175 0.615488 -0.328091 12
-0.958152 0.489142 -0.278696 4
-2.57058 1.31555 0.657548 32
-2.69773 0.818574 0.745074 47
-2.57907 1.31934 0.45227 33
-2.71349 0.82896 0.544271 49
-1.42837 0.729691 0.13727 4
-2.71617 0.833363 0.344096 90
-1.40431 0.717995 0.0269203 4
-0.622699 0.317643 -0.0349193 58
-1.3807 0.706803 -0.185891 4
-0.631855 0.198428 -0.0547986 53
-1.24342 0.636912 -0.264272 3
-2.00123 0.616114 -0.326525 12
-0.952917 0.488771 -0.277403 4
-2.55045 1.3227 0.654179 33
-2.69326 0.833158 0.745074 49
-2.54997 1.3219 0.448368 33
-2.70911 0.843157 0.544271 47
-1.42882 0.739703 0.137706 4
-2.71636 0.84952 0.344704 56
-1.3961 0.723036 0.0268331 4
-0.618812 0.319749 -0.034788 56
-1.38346 0.717696 -0.186804 4
-0.630808 0.201733 -0.0547986 53
-1.2356 0.641365 -0.26332 3
-0.948203 0.492637 -0.276756 4
-2.53109 1.31769 0.649687 33
-2.69411 0.838571 0.74572 49
-2.53037 1.31678 0.445246 32
-2.70295 0.846425 0.543317 45
-1.42311 0.739894 0.13727 4
-2.71265 0.853045 0.3444 49
-1.39483 0.725471 0.0268331 4
-0.616039 0.319674 -0.0346568 56
-1.38233 0.719869 -0.186804 4
-0.632831 0.20358 -0.055016 53
-1.23448 0.64352 -0.26332 3
-0.95376 0.497652 -0.278696 4
-2.50045 1.31842 0.64351 33
-2.68752 0.851471 0.745074 49
-2.50816 1.32194 0.442514 33
-2.70565 0.862319 0.544747 49
-1.41494 0.744763 0.136835 4
-2.71051 0.86799 0.344704 47
-1.39336 0.733688 0.0268767 4
-0.618772 0.325227 -0.0349193 56
-1.37196 0.723618 -0.185891 4
-0.629384 0.206132 -0.0547986 50
-1.22687 0.647465 -0.262367 3
-1.97709 0.635267 -0.323785 14
-0.955497 0.504734 -0.279989 4
-2.47878 1.31251 0.638457 33
-2.68603 0.85616 0.745074 49
-2.48185 1.3136 0.438222 33
-2.70633 0.868257 0.545224 49
-1.42464 0.753061 0.137924 4
-2.7019 0.870448 0.343792 44
