# .PCD v0.7 - Point Cloud Data file format
VERSION 0.7
FIELDS x y z intensity
SIZE 4 4 4 4
TYPE F F F F
COUNT 1 1 1 1
WIDTH 1558
HEIGHT 1
VIEWPOINT 0 0 0 1 0 0 0
POINTS 1558
DATA ascii
-0.436235 -2.22659 0.195447 9
-0.443995 -2.26398 0.0396606 52
-0.044776 -2.29112 0.118279 90
-0.444816 -2.26607 -0.119592 50
-0.0459742 -2.29135 -0.0393988 98
-0.445334 -2.26456 -0.278684 49
-0.0455288 -2.28813 -0.196796 85
-0.447396 -2.26879 -0.441882 50
-0.0438841 -2.28363 -0.356672 53
-0.448442 -2.26586 -0.609122 56
-0.0414038 -2.2755 -0.516605 47
-1.12219 -5.55754 1.29881 14
-0.111014 -5.62919 1.49726 14
-1.12227 -5.56289 0.891272 20
-0.120376 -5.60919 1.08282 15
-0.448484 -2.22923 0.195883 8
-0.0545617 -2.26231 0.273208 9
-0.456933 -2.26906 0.0397915 52
-0.0568283 -2.29335 0.11841 90
-0.457665 -2.2686 -0.119855 50
-0.0575711 -2.29109 -0.0393988 98
-0.458171 -2.26706 -0.279293 49
-0.057394 -2.28288 -0.196362 86
-0.458874 -2.2665 -0.441882 50
-0.0558957 -2.28584 -0.357064 53
-0.46087 -2.2683 -0.610415 58
-0.0533695 -2.27769 -0.517167 47
-1.12994 -5.54602 1.29657 14
-0.120291 -5.60243 1.49015 14
-1.13395 -5.5706 0.892833 14
-0.130592 -5.58441 1.07806 15
-0.453865 -2.23577 0.196536 8
-0.058569 -2.26469 0.273512 11
-0.460788 -2.26572 0.0397479 52
-0.0608309 -2.29325 0.11841 90
-0.461124 -2.26535 -0.119723 49
-0.0615697 -2.29099 -0.0393988 98
-0.461132 -2.26139 -0.278684 49
-0.0613783 -2.28277 -0.196362 85
-0.463322 -2.2681 -0.442358 50
-0.0598256 -2.28327 -0.356672 53
-0.465711 -2.26977 -0.611062 58
-0.0573447 -2.27759 -0.517167 47
-1.20491 -5.75441 1.3471 2
-0.149911 -5.57514 1.48304 14
-1.2233 -5.84716 0.938489 2
-0.160783 -5.61799 1.08473 15
-0.465445 -2.23084 0.196318 8
-0.0708213 -2.26434 0.273512 11
-0.472645 -2.26328 0.0397479 50
-0.0731631 -2.29039 0.118279 90
-0.472979 -2.26291 -0.119723 50
-0.0738887 -2.28812 -0.0393552 99
-0.474382 -2.26372 -0.279293 49
-0.0734795 -2.2874 -0.196796 86
-0.476092 -2.26796 -0.442834 50
-0.0717075 -2.28045 -0.356281 53
-0.477589 -2.2673 -0.611062 56
-0.0696668 -2.27725 -0.517167 47
-1.21999 -5.78111 1.35384 17
-0.160311 -5.59901 1.4895 14
-1.22127 -5.79208 0.929904 18
-0.172253 -5.67413 1.09569 15
-0.469852 -2.23246 0.196536 4
-0.0744542 -2.26671 0.273816 11
-0.476595 -2.26245 0.0397479 50
-0.0767607 -2.29027 0.118279 90
-0.477444 -2.26452 -0.119855 49
-0.077962 -2.29049 -0.0393988 99
-0.476908 -2.25812 -0.278684 47
-0.0773925 -2.28478 -0.196579 89
-0.480559 -2.26952 -0.44331 50
-0.0757642 -2.28279 -0.356672 53
-0.0731707 -2.2747 -0.516605 47
-1.24973 -5.77227 1.35328 14
-0.190074 -5.64158 1.50113 14
-0.482199 -2.23493 0.196972 4
-0.48804 -2.26001 0.0397479 49
-0.08866 -2.28734 0.118148 90
-0.489958 -2.26695 -0.120117 50
-0.0894616 -2.28756 -0.0393552 99
-0.490306 -2.26287 -0.279597 49
-0.0890475 -2.28685 -0.196796 86
-0.491518 -2.26467 -0.442834 50
-0.0876262 -2.2799 -0.356281 53
-0.0851658 -2.27672 -0.517167 47
-1.24164 -5.69176 1.33475 18
-0.201589 -5.68951 1.51406 17
-0.48663 -2.23651 0.19719 8
-0.49305 -2.26404 0.0398351 50
-0.092652 -2.28719 0.118148 90
-0.493914 -2.2661 -0.120117 49
-0.0935509 -2.2899 -0.0393988 99
-0.495317 -2.26686 -0.280205 49
-0.0929426 -2.2842 -0.196579 89
-0.495996 -2.2662 -0.44331 50
-0.0916052 -2.27974 -0.356281 53
-0.0890492 -2.27413 -0.516605 47
-1.27295 -5.68733 1.33531 26
-0.230992 -5.67872 1.51147 14
-0.499965 -2.24123 0.197844 4
-0.504352 -2.25899 0.0397915 50
-0.104953 -2.29415 0.118541 90
-0.503982 -2.25365 -0.119592 49
-0.105759 -2.29438 -0.0394861 100
-0.505548 -2.25697 -0.279293 49
-0.105519 -2.28864 -0.197014 89
-0.507317 -2.26118 -0.442834 50
-0.103647 -2.2817 -0.356672 53
-0.101161 -2.2785 -0.517728 47
-0.23659 -5.57455 1.48369 12
-0.502779 -2.23549 0.197408 4
-0.509239 -2.26045 0.0398351 50
-0.10873 -2.28898 0.118279 90
-0.508465 -2.2552 -0.119723 49
-0.109649 -2.29169 -0.0394424 99
-0.509486 -2.25608 -0.279293 36
-0.109172 -2.28099 -0.196362 86
-0.510719 -2.2579 -0.442358 9
-0.107741 -2.28398 -0.357064 53
-0.104816 -2.27102 -0.516044 47
-0.266861 -5.5756 1.48433 15
-0.513745 -2.22789 0.196972 4
-0.51994 -2.25289 0.0397479 42
-0.121367 -2.29334 0.118541 90
-0.518576 -2.24521 -0.11933 11
-0.122047 -2.29106 -0.0394424 99
-0.521685 -2.25329 -0.279293 36
-0.121367 -2.28536 -0.196796 86
-0.522372 -2.25271 -0.441882 9
-0.119822 -2.28585 -0.357455 53
-0.117463 -2.27772 -0.517728 47
-0.27671 -5.57754 1.48498 14
-0.518763 -2.23184 0.197408 4
-0.295022 -5.61258 0.684845 30
-0.5216 -2.24224 0.0395733 3
-0.124838 -2.29066 0.11841 90
-0.522494 -2.2443 -0.11933 11
-0.125913 -2.28835 -0.0393988 98
-0.525224 -2.25247 -0.279293 3
-0.125224 -2.28266 -0.196579 82
-0.526863 -2.25418 -0.442358 4
-0.123426 -2.27824 -0.356281 53
-0.120916 -2.2751 -0.517167 47
-0.304028 -5.55919 1.48045 15
-0.528898 -2.22434 0.196972 4
-0.331602 -5.7373 0.700361 35
-0.530622 -2.22984 0.0393988 4
-0.136974 -2.29246 0.118541 90
-0.534238 -2.24153 -0.11933 11
-0.137639 -2.29018 -0.0394424 98
-0.535856 -2.24486 -0.278684 4
-0.137751 -2.29192 -0.197449 86
-0.535978 -2.24194 -0.440453 8
-0.135919 -2.28742 -0.357847 53
-0.133101 -2.2793 -0.51829 47
-0.31708 -5.61893 1.49661 14
-0.333715 -5.72101 1.10617 24
-0.533361 -2.22583 0.19719 9
-0.341324 -5.73176 0.699753 29
-0.536656 -2.23611 0.0395297 9
-0.140827 -2.28973 0.11841 90
-0.536396 -2.23332 -0.118936 11
-0.141337 -2.28495 -0.0393552 98
-0.539191 -2.24151 -0.27838 9
-0.141306 -2.28421 -0.196796 86
-0.541619 -2.24816 -0.441882 11
-0.13962 -2.28225 -0.357064 52
-0.136797 -2.2742 -0.517167 45
-0.352475 -5.69909 1.51858 20
-0.363205 -5.71183 1.10475 20
-0.545396 -2.22291 0.19719 9
-0.368995 -5.67783 0.693364 27
-0.547162 -2.22842 0.0394424 11
-0.153375 -2.29142 0.118541 90
-0.549874 -2.23775 -0.11933 12
-0.154186 -2.29163 -0.0394861 98
-0.550121 -2.23374 -0.277771 8
-0.153425 -2.28593 -0.197014 82
-0.552596 -2.24043 -0.44093 9
-0.151884 -2.28642 -0.357847 52
-0.149099 -2.27343 -0.517167 47
-0.361665 -5.68642 1.51535 15
-0.370014 -5.66221 1.09521 15
-0.548077 -2.21712 0.196754 9
-0.374171 -5.62029 0.686366 21
-0.551652 -2.22989 0.0394861 11
-0.156643 -2.2862 0.118279 90
-0.551373 -2.22709 -0.118804 11
-0.157851 -2.28637 -0.0393988 97
-0.554228 -2.23528 -0.278076 9
-0.157083 -2.28069 -0.196579 82
-0.558285 -2.24661 -0.442358 9
-0.155386 -2.27876 -0.356672 53
-0.152512 -2.27076 -0.516605 45
-0.388807 -5.66042 1.50889 14
-0.395602 -5.61619 1.08663 14
-0.561126 -2.22156 0.197408 9
-0.402363 -5.60093 0.684236 30
-0.562318 -2.22464 0.0394424 11
-0.168969 -2.29033 0.118541 90
-0.564254 -2.22902 -0.119067 11
-0.169781 -2.29053 -0.0394861 97
-0.169559 -2.28729 -0.197231 82
-0.567228 -2.23424 -0.440453 8
-0.167843 -2.2853 -0.357847 53
-0.164912 -2.27722 -0.51829 47
-0.396675 -5.63082 1.50113 12
-0.406034 -5.61053 1.08568 18
-0.564387 -2.21817 0.19719 9
-0.413398 -5.61754 0.686366 29
-0.565969 -2.22114 0.0393988 11
-0.172417 -2.28256 0.118148 90
-0.567526 -2.22561 -0.118936 11
-0.173226 -2.28275 -0.0393552 97
-0.173368 -2.2845 -0.197014 80
-0.573564 -2.24276 -0.442358 8
-0.171291 -2.27762 -0.356672 53
-0.168536 -2.27207 -0.517167 45
-0.423702 -5.58284 1.48886 14
-0.436344 -5.62056 1.08806 18
-0.578894 -2.22472 0.198061 8
-0.446106 -5.64491 0.690017 27
-0.580117 -2.22782 0.0395733 11
-0.184961 -2.28408 0.118279 90
-0.57854 -2.22019 -0.118804 9
-0.18597 -2.28676 -0.0394424 94
-0.185327 -2.28356 -0.197014 77
-0.585068 -2.23725 -0.441882 4
-0.183793 -2.28407 -0.357847 53
-0.181203 -2.27598 -0.51829 45
-0.434 -5.58931 1.49079 15
-0.446153 -5.61979 1.08806 15
-0.583409 -2.22612 0.198279 8
-0.458524 -5.68872 0.695493 26
-0.582097 -2.21955 0.0394424 9
-0.188348 -2.2813 0.118148 83
-0.584955 -2.22884 -0.11933 8
-0.189759 -2.28394 -0.0393988 91
-0.189312 -2.28324 -0.197014 77
-0.590851 -2.24334 -0.44331 3
-0.187188 -2.27637 -0.356672 53
-0.184394 -2.27084 -0.517167 45
-0.463466 -5.60149 1.49467 14
-0.479295 -5.67371 1.09903 15
-0.592734 -2.21592 0.197626 4
-0.490826 -5.71592 0.699144 33
-0.593972 -2.21899 0.0394861 8
-0.200504 -2.28277 0.118279 80
-0.594934 -2.22102 -0.119067 8
-0.201745 -2.28794 -0.0394861 91
-0.201079 -2.28473 -0.197231 76
-0.602837 -2.24269 -0.443787 3
-0.199734 -2.28274 -0.357847 52
-0.196896 -2.27713 -0.518851 45
-0.476864 -5.64399 1.5063 14
-0.492329 -5.70954 1.10617 23
-0.599846 -2.2269 0.198715 4
-0.501231 -5.71999 0.699753 39
-0.5998 -2.22519 0.039617 8
-0.20427 -2.27993 0.118148 74
-0.602067 -2.23203 -0.119723 4
-0.2053 -2.2826 -0.0393988 90
-0.204632 -2.27941 -0.196796 71
-0.603537 -2.22979 -0.441406 3
-0.203504 -2.27992 -0.357455 52
-0.606922 -2.23616 -0.611062 3
-0.200452 -2.27192 -0.517728 45
-0.512322 -5.69665 1.52117 17
-0.523435 -5.70924 1.10665 24
-0.607251 -2.20682 0.19719 8
-0.530804 -5.70237 0.697927 29
-0.60917 -2.21227 0.0394424 3
-0.217296 -2.28625 0.118541 67
-0.611476 -2.21912 -0.119198 4
-0.21788 -2.28394 -0.0394424 90
-0.217192 -2.28075 -0.197014 73
-0.616248 -2.22886 -0.441882 4
-0.216064 -2.28125 -0.357847 52
-0.617718 -2.22819 -0.609768 4
-0.212963 -2.27323 -0.51829 45
-0.522483 -5.69815 1.52181 20
-0.530683 -5.67899 1.10093 15
-0.612434 -2.21056 0.197626 8
-0.53704 -5.66191 0.693059 18
-0.61303 -2.2112 0.0394424 3
-0.220815 -2.2809 0.118279 59
-0.614011 -2.21324 -0.118936 12
-0.221392 -2.27858 -0.0393552 90
-0.220938 -2.27789 -0.196796 70
-0.614201 -2.2065 -0.437596 3
-0.219813 -2.27841 -0.357455 52
-0.624209 -2.23641 -0.612355 4
-0.21693 -2.27286 -0.51829 45
-0.549769 -5.6689 1.5147 14
-0.556825 -5.6395 1.09378 14
-0.620606 -2.19534 0.196536 9
-0.562265 -5.61457 0.687583 20
-0.622554 -2.20075 0.0393115 12
-0.232754 -2.27971 0.118279 56
-0.624228 -2.20519 -0.118673 11
-0.23307 -2.27491 -0.0393115 90
-0.233358 -2.28166 -0.197231 67
-0.627761 -2.21034 -0.439025 3
-0.230854 -2.27235 -0.356672 52
-0.634584 -2.22847 -0.611062 4
-0.228828 -2.27169 -0.51829 45
-0.555193 -5.62226 1.50243 12
-0.563017 -5.60189 1.08663 15
-0.625803 -2.19904 0.196972 8
-0.570088 -5.60381 0.686366 24
-0.627766 -2.20447 0.0393988 9
-0.236335 -2.27934 0.118279 52
-0.624647 -2.19209 -0.118017 9
-0.237041 -2.2745 -0.0393115 90
-0.237087 -2.27877 -0.197014 64
-0.631618 -2.20924 -0.439025 3
-0.235565 -2.27932 -0.357847 50
-0.642474 -2.24128 -0.614941 4
-0.232396 -2.27133 -0.51829 45
-0.581416 -5.59776 1.49661 14
-0.590085 -5.58676 1.08425 15
-0.639011 -2.20302 0.197626 9
-0.600207 -5.60815 0.687279 14
-0.637519 -2.19646 0.0393115 9
-0.248001 -2.27559 0.118148 49
-0.638909 -2.19838 -0.118542 9
-0.248816 -2.27575 -0.0393552 90
-0.249281 -2.27997 -0.197231 64
-0.647608 -2.22251 -0.442358 3
-0.247235 -2.2756 -0.357455 50
-0.655167 -2.24264 -0.616235 4
-0.24403 -2.26766 -0.517728 47
-0.59043 -5.58953 1.49467 14
-0.602372 -5.60026 1.08711 14
-0.642855 -2.2019 0.197626 4
-0.607332 -5.58242 0.684236 29
-0.643844 -2.20243 0.0394424 8
-0.251703 -2.27267 0.118018 44
-0.642745 -2.19726 -0.118542 8
-0.253059 -2.2778 -0.0393988 90
-0.25299 -2.27706 -0.197014 64
-0.654254 -2.23079 -0.444263 3
-0.251206 -2.27516 -0.357455 50
-0.660154 -2.24369 -0.616881 4
-0.248507 -2.27207 -0.518851 47
-0.629775 -5.57996 1.08378 18
-0.657608 -2.20794 0.198497 4
-0.644796 -5.64316 0.692147 27
-0.660374 -2.21579 0.0397479 4
-0.263995 -2.27127 0.118018 41
-0.66139 -2.21778 -0.119855 3
-0.26481 -2.27143 -0.0393115 90
-0.66926 -2.23986 -0.282335 12
-0.265192 -2.27818 -0.197231 64
-0.671953 -2.24602 -0.448072 50
-0.263115 -2.27382 -0.357455 50
-0.672589 -2.24252 -0.617528 61
-0.26025 -2.26585 -0.517728 45
-0.643674 -5.61543 1.09092 21
-0.660744 -2.2044 0.198279 4
-0.649691 -5.60763 0.687887 30
-0.668558 -2.229 0.0400096 11
-0.268137 -2.27582 0.118279 41
-0.668136 -2.22619 -0.12038 29
-0.269352 -2.27593 -0.0393988 90
-0.671346 -2.23405 -0.281727 52
-0.269455 -2.28019 -0.197449 61
-0.677999 -2.2519 -0.449501 53
-0.267366 -2.2758 -0.357847 49
-0.679298 -2.25058 -0.620114 62
-0.264086 -2.26786 -0.51829 45
-0.670349 -5.59748 1.08806 23
-0.67335 -2.20579 0.198715 4
-0.67934 -5.60661 0.688191 29
-0.682026 -2.23276 0.0401405 52
-0.279749 -2.2719 0.118148 39
-0.690026 -2.25608 -0.122218 53
-0.280566 -2.27206 -0.0393552 90
-0.689586 -2.25186 -0.284465 56
-0.28139 -2.27874 -0.197449 61
-0.691551 -2.25548 -0.450929 53
-0.278983 -2.27192 -0.357455 49
-0.694235 -2.25866 -0.623348 62
-0.276246 -2.26887 -0.518851 45
-0.679033 -5.57912 1.08473 21
-0.677199 -2.20461 0.198715 4
-0.687621 -5.5931 0.68667 27
-0.689993 -2.24339 0.0403587 52
-0.28341 -2.26893 0.118018 35
-0.693227 -2.25248 -0.122086 55
-0.284226 -2.26908 -0.0393115 88
-0.695712 -2.25776 -0.285377 56
-0.285671 -2.28072 -0.197666 59
-0.695486 -2.25426 -0.450929 53
-0.283248 -2.27388 -0.357847 49
-0.69857 -2.25732 -0.623348 71
-0.279912 -2.26596 -0.51829 45
-0.698003 -5.57225 1.49338 15
-0.707007 -5.56575 1.08282 20
-0.68688 -2.19379 0.198061 3
-0.723524 -5.63361 0.692147 20
-0.70173 -2.23975 0.0403587 52
-0.295046 -2.26241 0.117756 30
-0.707256 -2.25597 -0.12248 55
-0.297455 -2.27495 -0.0394424 85
-0.709407 -2.2587 -0.285986 56
-0.297292 -2.27672 -0.197449 59
-0.709148 -2.25515 -0.451881 55
-0.29515 -2.27237 -0.357847 49
-0.711835 -2.25824 -0.624641 62
-0.292475 -2.26683 -0.518851 45
-1.68732 -5.34642 1.28421 1
-0.705914 -5.55665 1.4895 15
-1.68995 -5.35797 0.882297 1
-0.722326 -5.60833 1.0914 14
-0.692957 -2.19971 0.198715 3
-0.732691 -5.63492 0.692451 21
-0.710155 -2.25282 0.0406205 55
-0.298921 -2.26442 0.117887 27
-0.711944 -2.25711 -0.122611 53
-0.301425 -2.27443 -0.0394424 79
-0.710708 -2.25049 -0.285073 55
-0.301908 -2.28114 -0.197884 58
-0.713825 -2.25625 -0.452358 67
-0.300067 -2.2792 -0.359021 49
-0.715043 -2.25469 -0.623994 59
-0.296345 -2.26879 -0.519413 45
-1.72275 -5.36071 1.28983 1
-0.738116 -5.58413 1.4979 14
-1.73008 -5.38667 0.888541 1
-0.754264 -5.63136 1.09664 15
-0.702559 -2.19143 0.198279 3
-0.765823 -5.65806 0.695797 27
-0.723078 -2.25395 0.0407077 55
-0.310439 -2.26035 0.117756 23
-0.722595 -2.2511 -0.12248 55
-0.312598 -2.27039 -0.0393988 76
-0.726287 -2.25854 -0.286594 52
-0.312782 -2.27465 -0.197449 58
-0.724482 -2.25027 -0.451881 55
-0.311007 -2.27025 -0.357847 49
-0.727932 -2.25564 -0.625287 61
-0.308221 -2.2672 -0.519413 45
-1.73866 -5.38117 1.29544 1
-0.753277 -5.62353 1.50889 14
-1.82457 -5.64679 0.932246 27
-0.767699 -5.65679 1.10189 20
-0.710977 -2.20442 0.199587 4
-0.778713 -5.67885 0.698536 35
-0.72778 -2.25507 0.0407514 90
-0.315061 -2.26476 0.118018 20
-0.727291 -2.25221 -0.122611 56
-0.31724 -2.2748 -0.0394861 74
-0.730228 -2.25727 -0.286594 56
-0.31709 -2.27657 -0.197666 56
-0.729166 -2.25134 -0.452358 53
-0.315637 -2.2746 -0.35863 49
-0.732615 -2.25666 -0.625934 59
-0.31185 -2.26425 -0.518851 45
-1.85463 -5.63547 1.35946 24
-0.785691 -5.64104 1.5147 15
-1.76609 -5.36977 0.88776 1
-0.800033 -5.67213 1.1057 24
-0.720175 -2.19357 0.198933 3
-0.807392 -5.66732 0.697623 29
-0.741141 -2.25597 0.0408386 56
-0.326915 -2.26308 0.118018 17
-0.740248 -2.25062 -0.122743 53
-0.328793 -2.27063 -0.0394424 70
-0.742814 -2.25577 -0.286899 55
-0.329755 -2.27728 -0.197884 55
-0.742483 -2.25215 -0.45331 53
-0.327543 -2.27292 -0.35863 49
-0.743662 -2.2505 -0.625287 62
-0.324041 -2.265 -0.519413 45
-1.85987 -5.61834 1.35609 15
-0.797547 -5.65401 1.51858 15
-1.77624 -5.36902 0.88815 1
-0.810576 -5.66816 1.10522 21
-0.724003 -2.19231 0.198933 3
-0.814113 -5.6438 0.694885 27
-0.744684 -2.25217 0.040795 55
-0.330152 -2.25756 0.117756 15
-0.74496 -2.25169 -0.122874 53
-0.332398 -2.26758 -0.0393988 67
-0.745969 -2.25212 -0.286594 59
-0.333373 -2.27424 -0.197666 55
-0.747187 -2.25318 -0.453786 53
-0.331509 -2.27234 -0.35863 49
-0.751035 -2.25823 -0.627874 59
-0.32765 -2.26202 -0.518851 45
-1.88635 -5.59666 1.35328 15
-0.826385 -5.63766 1.51535 15
-1.80447 -5.35699 0.88776 1
-0.836662 -5.63956 1.10046 18
-0.739829 -2.20016 0.200022 3
-0.842444 -5.62458 0.693059 27
-0.757265 -2.25061 0.0408386 55
-0.341623 -2.2508 0.117494 15
-0.757538 -2.25013 -0.123005 52
-0.345033 -2.26822 -0.0394424 65
-0.758937 -2.2504 -0.286899 56
-0.345645 -2.27492 -0.197884 55
-0.75858 -2.24678 -0.45331 53
-0.343767 -2.27302 -0.359021 47
-0.762073 -2.25198 -0.627227 61
-0.340955 -2.26744 -0.520536 45
-1.89044 -5.57984 1.34991 15
-0.834814 -5.62666 1.51277 15
-1.81051 -5.34713 0.886589 1
-0.844692 -5.62595 1.09807 18
-0.744468 -2.20123 0.20024 3
-0.849061 -5.60853 0.691234 26
-0.761192 -2.24929 0.0408386 52
-0.345905 -2.2552 0.117756 14
-0.76387 -2.25589 -0.123399 53
-0.349742 -2.27256 -0.0395297 62
-0.764067 -2.25391 -0.287507 58
-0.350361 -2.27924 -0.198319 53
-0.765662 -2.25475 -0.455215 52
-0.347733 -2.27241 -0.359021 49
-0.767561 -2.25522 -0.628521 59
-0.343794 -2.26208 -0.519413 45
-1.91487 -5.55605 1.34654 15
-0.861096 -5.60803 1.50889 15
-1.83204 -5.3189 0.883468 1
-0.870534 -5.60463 1.09474 17
-0.754788 -2.19508 0.200022 3
-0.877652 -5.5991 0.690625 27
-0.774196 -2.25013 0.0409259 55
-0.357708 -2.25336 0.117756 14
-0.775671 -2.25186 -0.123399 53
-0.361627 -2.27323 -0.0395733 61
-0.777479 -2.25457 -0.288116 62
-0.361132 -2.27 -0.197666 50
-0.77546 -2.2462 -0.454262 53
-0.359627 -2.27056 -0.359021 47
-0.780548 -2.25587 -0.629814 59
-0.355634 -2.26025 -0.519413 45
-1.92536 -5.555 1.3471 15
-0.868302 -5.58981 1.50436 14
-0.8775 -5.5787 1.08997 17
-0.758618 -2.19375 0.200022 3
-0.887036 -5.59511 0.690321 21
-0.779334 -2.251 0.0409695 55
-0.363203 -2.26259 0.118279 12
-0.781238 -2.25522 -0.123662 53
-0.365594 -2.27259 -0.0395733 59
-0.782227 -2.25555 -0.28842 58
-0.365874 -2.27428 -0.198101 50
-0.780992 -2.24948 -0.455215 53
-0.363589 -2.26993 -0.359021 47
-0.784082 -2.25209 -0.629167 61
-0.359578 -2.25963 -0.519413 45
-1.96106 -5.56059 1.35103 15
-0.895862 -5.56834 1.49984 14
-0.905914 -5.56918 1.08902 15
-0.771304 -2.19197 0.20024 3
-0.92449 -5.63431 0.695797 24
-0.791109 -2.24689 0.0409695 53
-0.375035 -2.25813 0.118148 12
-0.793035 -2.2511 -0.123662 53
-0.37829 -2.27305 -0.039617 59
-0.794419 -2.25128 -0.28842 90
-0.377374 -2.26988 -0.197884 52
-0.79397 -2.24754 -0.455691 53
-0.375868 -2.27043 -0.359413 47
-0.797478 -2.2525 -0.630461 64
-0.372189 -2.26005 -0.519974 45
-1.98608 -5.60342 1.36227 15
-0.905193 -5.56439 1.49919 14
-1.98648 -5.60761 0.934587 17
-0.924349 -5.62088 1.0995 15
-0.776793 -2.19531 0.200676 3
-0.936568 -5.65244 0.698231 24
-0.793358 -2.2408 0.0408823 50
-0.376951 -2.24769 0.117625 11
-0.796963 -2.24971 -0.123662 53
-0.381847 -2.26992 -0.0395733 58
-0.796293 -2.24536 -0.287811 55
-0.38215 -2.27413 -0.198319 50
-0.797892 -2.24615 -0.455691 53
-0.380232 -2.27221 -0.359804 45
-0.80222 -2.25338 -0.631107 61
-0.376133 -2.26187 -0.520536 45
-2.02448 -5.61815 1.36844 15
-0.939312 -5.59546 1.50889 14
-2.02837 -5.63198 0.94044 23
-0.958913 -5.65242 1.10665 17
-0.789583 -2.19604 0.201112 3
-0.972813 -5.6866 0.703099 26
-0.80808 -2.24616 0.0410568 55
-0.389556 -2.2506 0.117887 11
-0.809186 -2.248 -0.123793 53
-0.393753 -2.27042 -0.039617 55
-0.812254 -2.25283 -0.289333 55
-0.394496 -2.27708 -0.198754 50
-0.811754 -2.249 -0.457119 53
-0.392539 -2.27262 -0.360196 45
-0.81526 -2.25383 -0.6324 61
-0.388378 -2.26227 -0.521097 44
-2.04659 -5.65161 1.37743 23
-0.954703 -5.62716 1.51793 14
-2.04661 -5.65164 0.944343 30
-0.973316 -5.67735 1.11189 21
-0.792566 -2.19232 0.200894 2
-0.987364 -5.71179 0.706446 32
-0.811147 -2.24239 0.0410132 53
-0.393058 -2.24746 0.117756 11
-0.813108 -2.24658 -0.123793 55
-0.397289 -2.26727 -0.0395733 55
-0.815337 -2.24907 -0.289028 55
-0.39847 -2.27638 -0.198754 49
-0.815678 -2.24758 -0.457119 53
-0.396086 -2.2695 -0.359804 45
-0.819193 -2.25241 -0.6324 61
-0.392326 -2.26159 -0.521097 45
-2.07475 -5.63095 1.37518 20
-0.990527 -5.65284 1.52634 15
-2.07204 -5.62658 0.942001 26
-1.00742 -5.69134 1.11571 27
-0.807859 -2.19734 0.201766 3
-1.01565 -5.69171 0.70462 23
-0.826725 -2.24735 0.0411877 55
-0.405651 -2.24776 0.117887 9
-0.828706 -2.25152 -0.124318 52
-0.40999 -2.26754 -0.039617 53
-0.828353 -2.24696 -0.289333 55
-0.410342 -2.27174 -0.198536 49
-0.83038 -2.25004 -0.458548 53
-0.408395 -2.26982 -0.360196 45
-0.831367 -2.24794 -0.6324 61
-0.40583 -2.26663 -0.522782 45
-2.07936 -5.61626 1.37237 17
-1.0071 -5.68915 1.53667 20
-2.07658 -5.61174 0.94005 23
-1.01349 -5.66783 1.11142 17
-0.809099 -2.18892 0.201112 3
-1.01452 -5.63393 0.697623 15
-0.829778 -2.24356 0.041144 49
-0.409181 -2.24712 0.117887 9
-0.832635 -2.25007 -0.124318 52
-0.41439 -2.26929 -0.0396606 53
-0.833609 -2.2503 -0.289941 53
-0.414749 -2.27347 -0.198754 49
-0.835161 -2.25089 -0.459024 55
-0.412356 -2.26911 -0.360196 45
-0.836975 -2.25101 -0.633694 61
-0.408533 -2.26119 -0.521659 44
-2.10444 -5.5939 1.36957 15
-1.03114 -5.65784 1.52957 15
-2.10072 -5.58693 0.937709 23
-1.03376 -5.61676 1.10236 15
-0.825427 -2.19879 0.202419 3
-1.0395 -5.60414 0.694581 15
-0.842003 -2.24168 0.0411877 53
-0.421396 -2.2474 0.118018 8
-0.844405 -2.24568 -0.124318 52
-0.425415 -2.2647 -0.039617 52
-0.847131 -2.25055 -0.290549 53
-0.427556 -2.27617 -0.199188 49
-0.844809 -2.24204 -0.458072 55
-0.424232 -2.26692 -0.360196 45
-0.847503 -2.24449 -0.633047 85
-0.419927 -2.25663 -0.521097 44
-2.10989 -5.57882 1.36676 15
-1.03666 -5.63228 1.5231 14
-2.10261 -5.56247 0.934197 23
-1.03873 -5.58339 1.09617 15
-0.827502 -2.19268 0.201983 3
-1.04746 -5.59256 0.693364 18
-0.84896 -2.24707 0.0413186 53
-0.427155 -2.25648 0.118541 4
-0.850091 -2.24887 -0.124581 52
-0.429827 -2.26641 -0.0396606 50
-0.850178 -2.24675 -0.290245 53
-0.431528 -2.27542 -0.199188 49
-0.851333 -2.24745 -0.4595 52
-0.428641 -2.2686 -0.360587 45
-0.855246 -2.25189 -0.635633 67
-0.424309 -2.25829 -0.521659 44
-2.1348 -5.55368 1.36339 15
-1.0595 -5.58625 1.51212 14
-2.12558 -5.53257 0.931075 21
-1.06382 -5.55618 1.09188 15
-0.845607 -2.20445 0.203509 3
-1.09502 -5.67697 0.70462 17
-0.861611 -2.24493 0.0413622 52
-0.438412 -2.24923 0.118279 3
-0.864543 -2.25138 -0.124974 50
-0.442557 -2.26651 -0.0397042 50
-0.863214 -2.24443 -0.290549 52
-0.443436 -2.27313 -0.199188 47
-0.865247 -2.24739 -0.460452 53
-0.440909 -2.26625 -0.360587 45
-0.865284 -2.24287 -0.63434 83
-0.437437 -2.26074 -0.522782 45
-2.13386 -5.52533 1.35721 15
-1.06292 -5.55118 1.50307 14
-2.13167 -5.51964 0.929514 24
-1.07861 -5.58082 1.09712 15
-0.85035 -2.20529 0.203727 3
-1.09737 -5.63608 0.699753 15
-0.866429 -2.24575 0.0414058 50
-0.44186 -2.24601 0.118148 3
-0.867571 -2.24754 -0.124843 52
-0.447469 -2.27064 -0.0397915 49
-0.869818 -2.24987 -0.291462 52
-0.447403 -2.27235 -0.199188 47
-0.870055 -2.24816 -0.460928 53
-0.444864 -2.26548 -0.360587 42
-0.874444 -2.25487 -0.63822 71
-0.441844 -2.26237 -0.523343 45
-2.1655 -5.51824 1.35833 14
-1.0929 -5.55027 1.50436 14
-2.1822 -5.56357 0.938879 15
-1.11068 -5.58955 1.09998 15
-0.861886 -2.20081 0.203727 3
-1.12056 -5.59862 0.695797 15
-0.877262 -2.23886 0.0413622 50
-0.453125 -2.24122 0.118018 2
-0.88024 -2.24529 -0.124974 50
-0.459352 -2.26827 -0.0397915 49
-0.882494 -2.24759 -0.291766 52
-0.459295 -2.26998 -0.199188 45
-0.882714 -2.24586 -0.461405 53
-0.456807 -2.26562 -0.360979 42
-0.88358 -2.24352 -0.63628 61
-0.453209 -2.25763 -0.522782 44
-2.19294 -5.56242 1.37013 15
-1.11008 -5.58626 1.5147 14
-2.21992 -5.63364 0.951367 26
-1.11611 -5.56594 1.09569 14
-0.866639 -2.20162 0.203944 3
-0.884838 -2.24662 0.0415367 52
-0.456151 -2.23806 0.117887 3
-0.885074 -2.24607 -0.125106 52
-0.46331 -2.26746 -0.0397915 47
-0.887847 -2.25082 -0.292375 53
-0.463749 -2.27161 -0.199406 45
-0.887535 -2.2466 -0.461881 52
-0.461735 -2.26966 -0.361762 44
-0.891945 -2.2532 -0.639513 61
-0.457711 -2.2617 -0.523905 45
-2.25193 -5.62549 1.38866 20
-1.13162 -5.54744 1.50566 14
-2.24939 -5.62194 0.951367 27
-1.1556 -5.61551 1.10665 9
-0.880547 -2.20414 0.204598 3
-0.895268 -2.23979 0.0414931 52
-0.470395 -2.24786 0.118541 2
-0.897751 -2.24372 -0.125237 50
-0.475288 -2.26753 -0.0398351 49
-0.897773 -2.24153 -0.291766 53
-0.475131 -2.26671 -0.199188 45
-0.900724 -2.24663 -0.462833 52
-0.472613 -2.26237 -0.360979 42
-0.902436 -2.24641 -0.638867 61
-0.469057 -2.25688 -0.523343 45
-2.25265 -5.59895 1.38304 17
-2.25274 -5.60197 0.948635 26
-1.20914 -5.81997 1.14764 2
-0.884393 -2.2026 0.204598 3
-0.902367 -2.24503 0.041624 50
-0.473807 -2.24459 0.11841 2
-0.903531 -2.24679 -0.125499 50
-0.479757 -2.26915 -0.0398787 47
-0.907251 -2.25377 -0.293592 53
-0.480107 -2.27076 -0.199623 45
-0.904644 -2.24506 -0.462833 52
-0.478073 -2.2688 -0.362153 44
-0.905842 -2.24244 -0.63822 59
-0.47349 -2.25845 -0.523905 45
-2.27922 -5.57766 1.3808 15
-1.22303 -5.78498 1.57286 8
-2.27742 -5.57599 0.946294 24
-1.23603 -5.79675 1.1443 11
-0.899122 -2.2047 0.205252 3
-0.916947 -2.24721 0.0417549 52
-0.485944 -2.242 0.11841 2
-0.918118 -2.24896 -0.125893 50
-0.491502 -2.26407 -0.0398351 47
-0.918491 -2.24653 -0.293288 53
-0.492513 -2.27065 -0.199841 44
-0.917708 -2.2424 -0.463309 52
-0.489946 -2.26626 -0.362153 44
-0.920323 -2.24436 -0.64016 59
-0.485194 -2.25347 -0.523343 44
-2.27872 -5.55154 1.37518 17
-1.23313 -5.78283 1.57286 24
-2.27773 -5.55184 0.942782 26
-1.23586 -5.74659 1.13477 14
-0.902969 -2.20313 0.205252 3
-0.919918 -2.2433 0.0417112 53
-0.489993 -2.24367 0.118541 2
-0.922041 -2.24735 -0.125893 50
-0.495982 -2.26566 -0.0398787 47
-0.920131 -2.24049 -0.292679 52
-0.496475 -2.26978 -0.199841 44
-0.922555 -2.24307 -0.463785 52
-0.493901 -2.2654 -0.362153 42
-0.927003 -2.24945 -0.6421 61
-0.489245 -2.25509 -0.523905 45
-2.30307 -5.52829 1.37237 18
-1.25159 -5.72696 1.55929 12
-2.30297 -5.53072 0.941221 24
-1.25493 -5.69472 1.12572 23
-0.918896 -2.21002 0.206341 3
-0.932222 -2.24092 0.0417549 53
-0.502815 -2.24595 0.118803 2
-0.935718 -2.2471 -0.126156 50
-0.507985 -2.26556 -0.0399224 45
-0.933762 -2.24023 -0.293288 53
-0.507813 -2.26472 -0.199623 44
-0.936736 -2.24516 -0.465214 52
-0.505222 -2.26037 -0.361762 41
-0.937444 -2.2425 -0.641453 59
-0.501046 -2.25249 -0.523905 39
-2.31084 -5.51977 1.37125 18
-1.25278 -5.68467 1.54831 21
-2.3088 -5.51759 0.93966 26
-0.919867 -2.20152 0.205688 3
-0.937488 -2.24143 0.0417985 52
-0.505645 -2.2402 0.118541 3
-0.939638 -2.24546 -0.126156 52
-0.510847 -2.25979 -0.0398351 35
-0.94151 -2.24775 -0.294505 52
-0.509588 -2.25411 -0.198754 18
-0.940653 -2.24352 -0.465214 52
-0.505939 -2.24503 -0.359413 11
-0.944559 -2.24738 -0.643393 67
-0.503392 -2.24448 -0.52222 3
-2.34543 -5.51839 1.37406 14
-2.33959 -5.50729 0.94005 15
-0.933713 -2.2011 0.206123 3
-0.953123 -2.24569 0.041973 52
-0.518873 -2.24229 0.118803 3
-0.95236 -2.24281 -0.126287 50
-0.521388 -2.24968 -0.0397042 35
-0.952686 -2.24034 -0.2942 52
-0.52027 -2.24656 -0.198319 18
-0.952778 -2.2384 -0.465214 52
-0.517687 -2.24235 -0.359413 11
-0.955364 -2.24018 -0.642746 59
-0.514446 -2.23697 -0.521097 3
-2.37994 -5.57519 1.38922 14
-2.39381 -5.61034 0.958391 27
-0.941465 -2.20863 0.206995 3
-0.956059 -2.24173 0.0419294 52
-0.520149 -2.23175 0.118279 4
-0.958235 -2.24574 -0.12655 50
-0.522496 -2.23659 -0.0394861 9
-0.958155 -2.2434 -0.294809 52
-0.521946 -2.23594 -0.197449 9
-0.959582 -2.2435 -0.466643 50
-0.520491 -2.23663 -0.35863 8
-0.959273 -2.23851 -0.642746 59
-0.520683 -2.24803 -0.523905 9
-2.42944 -5.60959 1.40101 20
-2.42413 -5.6 0.958781 27
-0.953621 -2.20612 0.207213 3
-0.96938 -2.24145 0.0420167 52
-0.53355 -2.23628 0.118672 11
-0.972567 -2.24773 -0.126944 50
-0.533809 -2.23392 -0.0394861 12
-0.971864 -2.2429 -0.295417 53
-0.532683 -2.23085 -0.197231 9
-0.972881 -2.24312 -0.467595 52
-0.529926 -2.22426 -0.357064 9
-0.972518 -2.23805 -0.64404 59
-0.530218 -2.23579 -0.521659 8
-2.4363 -5.6013 1.39989 17
-2.42898 -5.58444 0.95683 24
-0.96045 -2.2113 0.207866 3
-0.536172 -2.23683 0.277771 9
-0.974288 -2.24204 0.0420603 52
-0.536295 -2.23049 0.11841 11
-0.977485 -2.24832 -0.127075 50
-0.537707 -2.23298 -0.0394861 11
-0.973794 -2.23666 -0.294809 50
-0.538308 -2.23718 -0.197884 11
-0.976794 -2.24142 -0.467595 50
-0.53495 -2.22814 -0.357847 9
-0.97739 -2.23856 -0.644686 59
-0.534681 -2.23723 -0.52222 8
-2.4646 -5.58358 1.39876 15
-2.45619 -5.56712 0.956049 24
-0.97101 -2.20397 0.207649 3
-0.546119 -2.22675 0.276859 8
-0.987024 -2.2392 0.0421039 50
-0.548557 -2.23008 0.118541 11
-0.989636 -2.243 -0.127075 50
-0.547613 -2.22285 -0.0393552 12
-0.989506 -2.2406 -0.296026 52
-0.549814 -2.23182 -0.197666 11
-0.98951 -2.23852 -0.468071 52
-0.545441 -2.22051 -0.357064 9
-0.992035 -2.24004 -0.646626 58
-0.545814 -2.23204 -0.521659 8
-2.46842 -5.56591 1.3954 15
-2.4619 -5.5538 0.954488 23
-0.981921 -2.21821 0.209174 3
-0.548824 -2.22098 0.27625 8
-0.992335 -2.23958 0.0421476 52
-0.553044 -2.23154 0.118672 11
-0.994562 -2.24355 -0.127206 50
-0.55388 -2.2316 -0.0395297 12
-0.995431 -2.24341 -0.296634 52
-0.553113 -2.22843 -0.197449 11
-0.995411 -2.24127 -0.469023 50
-0.55108 -2.22675 -0.358238 9
-0.997317 -2.24034 -0.647273 59
-0.549709 -2.23108 -0.521659 8
-2.49349 -5.54137 1.39259 15
-2.4838 -5.52238 0.951367 18
-0.993908 -2.21286 0.209174 3
-0.563849 -2.23001 0.277771 9
-1.00507 -2.23664 0.0421912 52
-0.564501 -2.22609 0.118541 11
-1.00835 -2.24286 -0.127469 49
-0.564116 -2.2213 -0.0393988 12
-1.00857 -2.24025 -0.296939 52
-0.565989 -2.23034 -0.197884 11
-1.00853 -2.23809 -0.469499 52
-0.562732 -2.22383 -0.358238 8
-1.01202 -2.24168 -0.649213 58
-2.49517 -5.5219 1.38866 15
-2.49451 -5.52298 0.952147 24
-1.00187 -2.2202 0.210045 3
-0.566744 -2.22672 0.277467 9
-1.01001 -2.23716 0.0422348 50
-0.567997 -2.2252 0.118541 11
-1.01226 -2.2411 -0.127469 50
-0.57045 -2.23001 -0.0395733 12
-1.01516 -2.24545 -0.297851 53
-0.569881 -2.22935 -0.197884 11
-1.01548 -2.24303 -0.470928 53
-0.569637 -2.23482 -0.360196 8
-1.01693 -2.24211 -0.649859 58
-2.52811 -5.51762 1.3909 15
-2.53059 -5.52555 0.954879 21
-1.01102 -2.21057 0.20961 3
-0.577156 -2.21891 0.276859 8
-1.02652 -2.24338 0.042453 52
-0.580891 -2.22703 0.118803 9
-1.02671 -2.24275 -0.127862 49
-0.581729 -2.22709 -0.0395733 11
-1.02794 -2.24236 -0.298155 52
-0.582405 -2.23126 -0.198319 9
-1.02682 -2.23786 -0.470928 50
-0.580096 -2.22702 -0.359413 4
-1.03028 -2.24132 -0.651152 58
-2.54798 -5.53798 1.39708 14
-2.58877 -5.62655 0.973219 27
-1.01592 -2.21107 0.209827 3
-0.584147 -2.22991 0.27838 4
-1.02939 -2.23931 0.0424093 50
-0.585406 -2.22843 0.118933 9
-1.03167 -2.24323 -0.127994 50
-0.585615 -2.22607 -0.0395733 11
-1.02977 -2.23605 -0.297547 50
-0.58567 -2.22783 -0.198101 9
-1.03381 -2.24275 -0.472356 49
-0.58336 -2.22362 -0.359021 4
-1.03217 -2.23514 -0.649859 59
-2.61908 -5.60975 1.41898 15
-2.61917 -5.61246 0.973219 26
-1.03208 -2.21456 0.210699 3
-0.594293 -2.21952 0.277467 4
-1.04361 -2.23824 0.0424966 50
-0.598097 -2.22764 0.119064 8
-1.04379 -2.23761 -0.127994 50
-0.596363 -2.21804 -0.0394861 11
-1.04501 -2.23719 -0.29846 52
-0.599639 -2.23184 -0.198754 8
-1.04697 -2.23935 -0.472833 49
-0.596263 -2.2253 -0.359804 4
-1.04835 -2.23827 -0.652446 58
-2.61961 -5.58798 1.41449 14
-2.61331 -5.57704 0.967756 18
-1.037 -2.21501 0.210917 3
-0.598419 -2.22098 0.277771 4
-1.04963 -2.24094 0.0425839 50
-0.600949 -2.22429 0.118933 9
-1.04875 -2.23805 -0.128125 52
-0.60153 -2.22182 -0.0395733 9
-1.05169 -2.24228 -0.299372 50
-0.599015 -2.21396 -0.197231 3
-1.05192 -2.23974 -0.473309 50
-0.597593 -2.21472 -0.358238 4
-1.05328 -2.23862 -0.653092 56
-2.63105 -5.53679 1.40494 14
-2.62233 -5.52091 0.960342 15
-1.05247 -2.21874 0.211788 3
-0.608734 -2.21303 0.277163 3
-1.06311 -2.24012 0.0426711 52
-0.609293 -2.20907 0.118279 12
-1.06221 -2.23722 -0.128388 50
-0.610786 -2.21152 -0.0394424 4
-1.06448 -2.23899 -0.299677 50
-0.611529 -2.2157 -0.197666 4
-1.06324 -2.23439 -0.473309 50
-0.611784 -2.22109 -0.359804 4
-1.06356 -2.23108 -0.652446 58
-2.63975 -5.53265 1.40494 14
-2.62452 -5.50072 0.95761 17
-1.05527 -2.21465 0.211571 3
-0.612595 -2.21197 0.277163 3
-1.06594 -2.236 0.0426275 50
-0.614474 -2.21282 0.118541 9
-1.06719 -2.23762 -0.128519 50
-0.610657 -2.19599 -0.0391806 11
-1.06946 -2.23936 -0.299981 52
-0.610762 -2.19782 -0.196144 11
-1.06926 -2.23695 -0.474261 50
-0.609766 -2.19859 -0.356281 9
-1.07476 -2.24446 -0.656972 56
-2.66221 -5.50294 1.40101 14
-2.65436 -5.48913 0.958 20
-1.07011 -2.21582 0.212224 3
-0.622829 -2.20395 0.276554 8
-1.0809 -2.23714 0.0427584 50
-0.619972 -2.18794 0.117363 11
-1.08037 -2.23406 -0.12865 50
-0.620793 -2.18795 -0.0390934 9
-1.08333 -2.2382 -0.300589 52
-0.623994 -2.19928 -0.196579 9
-1.08203 -2.23353 -0.474737 50
-0.624606 -2.20725 -0.358238 8
-1.08861 -2.24315 -0.658265 55
-2.67288 -5.50047 1.40157 15
-2.67581 -5.50892 0.962293 23
-1.07724 -2.22067 0.212878 3
-0.625327 -2.19808 0.275946 9
-1.0841 -2.23281 0.0427148 50
-0.625829 -2.19406 0.117756 9
-1.08754 -2.2389 -0.129044 49
-0.625973 -2.19167 -0.0391806 9
-1.08941 -2.24077 -0.301198 52
-0.627153 -2.19579 -0.196362 9
-1.087 -2.23385 -0.475213 49
-0.626443 -2.19903 -0.357064 8
-1.09397 -2.24322 -0.658912 55
-2.70906 -5.49904 1.40494 15
-2.70012 -5.48328 0.960342 24
-1.08814 -2.21257 0.21266 3
-1.10019 -2.23607 0.0428893 52
-0.639076 -2.19544 0.118018 9
-1.09925 -2.23318 -0.129044 49
-0.641294 -2.20026 -0.0393988 9
-1.10152 -2.23484 -0.301198 52
-0.639333 -2.19487 -0.196579 9
-1.10016 -2.23013 -0.47569 49
-0.640684 -2.20521 -0.35863 8
-1.10784 -2.24179 -0.660205 56
-2.71554 -5.49041 1.40382 15
-2.71311 -5.48789 0.961903 23
-1.09973 -2.2263 0.214185 4
-1.1041 -2.23415 0.0428893 52
-0.640434 -2.18724 0.117625 9
-1.10426 -2.23349 -0.129175 49
-0.643038 -2.19194 -0.0392679 9
-1.10613 -2.23533 -0.301502 52
-0.648728 -2.21288 -0.198319 8
-1.10732 -2.2348 -0.477118 49
-0.649348 -2.22069 -0.36137 4
-1.11068 -2.2377 -0.659559 56
-0.649418 -2.22951 -0.527274 8
-2.75953 -5.50661 1.41168 15
-2.77832 -5.54646 0.97478 21
-1.11098 -2.2207 0.214185 4
-1.11987 -2.23747 0.0430638 50
-0.658969 -2.2078 0.118933 8
-1.1189 -2.23457 -0.129569 50
-0.665496 -2.227 -0.039966 11
-1.12227 -2.23838 -0.302719 52
-0.665582 -2.22867 -0.200058 14
-1.12192 -2.23575 -0.478547 50
-0.668671 -2.2433 -0.365677 17
-1.12525 -2.23852 -0.661498 55
-0.663838 -2.23542 -0.52952 27
-2.77256 -5.51097 1.41393 14
-2.77689 -5.51954 0.970878 20
-1.11709 -2.22321 0.214621 4
-1.12602 -2.23998 0.0431511 52
-0.669953 -2.23057 0.120242 15
-1.12505 -2.23707 -0.129832 50
-0.677246 -2.25218 -0.0404459 36
-1.1273 -2.23863 -0.303023 52
-0.68015 -2.26331 -0.20332 50
-1.12693 -2.23598 -0.479023 50
-0.677518 -2.2587 -0.368418 53
-1.13024 -2.2387 -0.662145 56
-0.671202 -2.24594 -0.532328 50
-2.85548 -5.60005 1.44088 17
-2.85736 -5.60612 0.988828 29
-1.1355 -2.23064 0.215928 4
-1.13887 -2.23628 0.0431947 52
-0.688881 -2.25092 0.12155 49
-1.13827 -2.23318 -0.129963 49
-0.691939 -2.25817 -0.0406205 52
-1.139 -2.2327 -0.303023 52
-0.69311 -2.26198 -0.203538 52
-1.13862 -2.23005 -0.479023 50
-0.690769 -2.25985 -0.369201 52
-1.14415 -2.23705 -0.663438 56
-0.684362 -2.24706 -0.533451 50
-2.85969 -5.58421 1.43807 15
-2.86038 -5.58794 0.986487 24
-1.14167 -2.23309 0.216364 4
-1.14316 -2.23409 0.0431947 52
-0.694998 -2.25688 0.121943 47
-1.14444 -2.23563 -0.130225 49
-0.695148 -2.25457 -0.0405768 53
-1.14629 -2.23733 -0.303936 52
-0.697057 -2.26076 -0.203538 52
-1.14475 -2.23242 -0.479975 50
-0.695433 -2.261 -0.369592 56
-1.14955 -2.237 -0.664085 55
-0.689701 -2.25052 -0.534574 50
-2.87864 -5.54704 1.43246 15
-2.87465 -5.5417 0.981024 20
-1.15258 -2.22467 0.216146 4
-1.74605 -5.6001 0.714965 20
-1.15599 -2.23029 0.0432383 52
-0.707199 -2.25308 0.121943 47
-1.15613 -2.22961 -0.130225 49
-0.70957 -2.25793 -0.0407077 52
-1.15838 -2.2311 -0.303936 52
-0.711109 -2.26422 -0.20419 52
-1.16021 -2.23273 -0.481404 50
-0.707262 -2.25733 -0.369592 58
-1.16236 -2.23309 -0.664732 56
-0.701146 -2.24443 -0.534012 50
-2.88059 -5.52955 1.42909 15
-2.87308 -5.51746 0.977512 18
-1.75087 -5.60859 1.13429 15
-1.15992 -2.22928 0.2168 4
-1.76817 -5.63998 0.720441 21
-1.1622 -2.2327 0.0433256 52
-0.712977 -2.25911 0.122335 47
-1.16464 -2.23644 -0.130751 50
-0.71351 -2.25669 -0.0407077 50
-1.16418 -2.23367 -0.304545 52
-0.71506 -2.26297 -0.20419 52
-1.16638 -2.23505 -0.482356 50
-0.711938 -2.25844 -0.369984 52
-1.16962 -2.23748 -0.666672 56
-0.705395 -2.24565 -0.534574 49
-2.89927 -5.495 1.42403 15
-1.7002 -5.38264 1.50113 1
-2.8881 -5.47614 0.972829 20
-1.72883 -5.44056 1.10189 1
-1.17002 -2.22118 0.216582 8
-1.80746 -5.66138 0.724396 26
-1.17581 -2.23121 0.0434129 50
-0.725555 -2.25773 0.122466 47
-1.17633 -2.23031 -0.130751 50
-0.724922 -2.25305 -0.0407077 49
-1.17818 -2.23194 -0.305153 50
-0.728415 -2.26394 -0.204625 64
-1.17998 -2.23346 -0.483308 49
-0.723004 -2.25233 -0.369592 52
-1.18319 -2.2358 -0.667965 56
-0.719356 -2.24889 -0.536259 49
-2.9602 -5.58679 1.4493 11
-1.79567 -5.65133 1.57739 17
-3.00403 -5.67183 1.00873 32
-1.80788 -5.65234 1.14573 18
-1.17623 -2.22354 0.217018 4
-1.81734 -5.65822 0.724396 27
-1.18244 -2.23337 0.0435001 50
-0.728731 -2.25408 0.122335 47
-1.18256 -2.23267 -0.131013 50
-0.731148 -2.25892 -0.0408386 50
-1.18324 -2.23207 -0.305457 50
-0.731603 -2.2603 -0.204407 53
-1.18502 -2.23356 -0.483784 49
-0.728442 -2.25577 -0.370375 55
-1.18862 -2.23565 -0.668611 56
-0.724022 -2.24995 -0.53682 49
-3.04687 -5.67585 1.47682 15
-1.83067 -5.65532 1.58126 20
-3.04402 -5.67289 1.01185 15
-1.83821 -5.64513 1.14621 20
-1.18824 -2.21714 0.217018 4
-1.84408 -5.63651 0.722875 24
-1.1953 -2.22935 0.0435437 50
-0.743244 -2.25723 0.122728 49
-1.19778 -2.23304 -0.131407 50
-0.74336 -2.25493 -0.0408386 50
-1.19647 -2.22782 -0.305761 50
-0.744203 -2.2588 -0.204625 49
-1.19825 -2.22928 -0.484261 49
-0.739477 -2.24958 -0.369984 52
-1.2026 -2.23365 -0.669905 55
-0.737692 -2.25064 -0.537943 56
-3.03382 -5.63032 1.46615 15
-1.83755 -5.64293 1.57868 15
-3.03067 -5.6268 1.00444 15
-1.78557 -5.45062 1.10713 1
-1.19566 -2.22164 0.217671 4
-1.85061 -5.62653 0.721962 23
-1.198 -2.22506 0.0435001 50
-0.747568 -2.25843 0.122859 50
-1.20405 -2.23534 -0.131669 50
-0.748076 -2.25601 -0.0408823 50
-1.20468 -2.23467 -0.306978 49
-0.748144 -2.2575 -0.204625 50
-1.20448 -2.2315 -0.485213 50
-0.744172 -2.25063 -0.370375 52
-1.20764 -2.23367 -0.670551 55
-0.740469 -2.24716 -0.537382 49
-3.06442 -5.61649 1.46671 33
-1.8623 -5.62209 1.57545 15
-3.06245 -5.61519 1.00522 38
-1.80927 -5.42987 1.10475 1
-1.20927 -2.21993 0.218107 4
-1.87533 -5.60264 0.720137 20
-1.21523 -2.22994 0.0437183 50
-0.758591 -2.25211 0.122728 42
-1.21693 -2.2312 -0.131801 47
-0.760279 -2.25456 -0.0409259 52
-1.21756 -2.23051 -0.307283 49
-0.760745 -2.25591 -0.204842 52
-1.21929 -2.23184 -0.486641 49
-0.758294 -2.25373 -0.37155 62
-1.22358 -2.236 -0.673138 55
-0.752995 -2.24556 -0.537943 49
-3.07773 -5.61755 1.46839 36
-1.86831 -5.60737 1.57222 15
-3.077 -5.6185 1.00678 39
-1.87962 -5.6056 1.14144 15
-1.21195 -2.21563 0.217889 4
-1.878 -5.57819 0.717399 20
-1.21951 -2.2276 0.0437183 50
-0.76491 -2.25789 0.12312 47
-1.22202 -2.23126 -0.131932 47
-0.765011 -2.2556 -0.0409695 50
-1.22264 -2.23056 -0.307587 45
-0.766271 -2.2593 -0.205277 53
-1.22436 -2.23186 -0.487118 49
-0.76144 -2.25006 -0.371158 50
-1.2267 -2.23153 -0.672491 53
-0.756913 -2.24425 -0.537943 49
-3.10335 -5.59229 1.46615 23
-1.89707 -5.59261 1.57092 15
-3.09657 -5.58234 1.00327 21
-1.90341 -5.57942 1.13811 15
-1.82629 -5.32844 0.686366 1
-1.2348 -2.22774 0.0438492 50
-0.777924 -2.25608 0.123251 47
-1.23611 -2.2292 -0.132195 47
-0.777204 -2.25143 -0.0409695 49
-1.23711 -2.22825 -0.308195 47
-0.780513 -2.26233 -0.20593 49
-1.23881 -2.22949 -0.48807 49
-0.774009 -2.24838 -0.37155 50
-1.24307 -2.23352 -0.675078 55
-0.771403 -2.24703 -0.539628 49
-3.12992 -5.61933 1.47457 33
-1.89983 -5.56871 1.56511 14
-3.12456 -5.61198 1.00951 36
-1.85038 -5.39265 1.10046 1
-1.8403 -5.342 0.688496 1
-1.2399 -2.22777 0.0438928 49
-0.782279 -2.25721 0.123382 47
-1.24122 -2.22922 -0.132326 45
-0.783577 -2.25716 -0.0411004 49
-1.24423 -2.2328 -0.309108 49
-0.78446 -2.26096 -0.20593 52
-1.24509 -2.23161 -0.489022 49
-0.777932 -2.24702 -0.37155 50
-1.24815 -2.23345 -0.675724 55
-0.775722 -2.24812 -0.540189 49
-3.1581 -5.60074 1.47401 33
-1.92562 -5.55218 1.56317 14
-3.1539 -5.59555 1.00951 33
-1.88007 -5.39017 1.10189 1
-1.88216 -5.37211 0.693668 1
-1.25485 -2.228 0.0440237 49
-0.795738 -2.2578 0.123644 47
-1.25494 -2.22725 -0.132588 47
-0.794165 -2.2508 -0.0410568 49
-1.25469 -2.2241 -0.308804 49
-0.797541 -2.26166 -0.206364 52
-1.25758 -2.22741 -0.489498 49
-0.790502 -2.24525 -0.371941 50
-1.26182 -2.23131 -0.677018 55
-0.787482 -2.24403 -0.540189 49
-3.1765 -5.61273 1.4785 33
-1.93848 -5.55793 1.56575 15
-3.17339 -5.60723 1.01263 35
-1.95916 -5.5861 1.14287 15
-1.9047 -5.40627 0.698536 1
-1.26243 -2.23233 0.0441546 49
-0.799677 -2.2564 0.123644 47
-1.26006 -2.22723 -0.13272 45
-0.800585 -2.25648 -0.0411877 50
-1.26346 -2.23054 -0.310021 49
-0.80066 -2.25792 -0.206147 61
-1.2651 -2.23162 -0.490927 49
-0.796059 -2.24853 -0.372724 50
-1.2669 -2.2312 -0.677664 55
-0.792204 -2.24495 -0.540751 49
-3.21386 -5.60547 1.48131 33
-1.97739 -5.5724 1.57286 14
-3.20983 -5.60068 1.01458 33
-2.00005 -5.60548 1.14907 15
-1.93893 -5.40991 0.700361 1
-1.27324 -2.2233 0.044111 47
-0.811874 -2.25204 0.123644 47
-1.27581 -2.22688 -0.133113 47
-0.811938 -2.24977 -0.041144 49
-1.27922 -2.23012 -0.310934 49
-0.814545 -2.25824 -0.206582 90
-1.27838 -2.22687 -0.491403 49
-0.808652 -2.24665 -0.373116 52
-1.28257 -2.23059 -0.679604 55
-0.805157 -2.24293 -0.541312 49
-3.22874 -5.61097 1.48412 35
-1.99845 -5.6008 1.58191 14
-3.22724 -5.61062 1.01731 33
-2.0272 -5.6505 1.15908 20
-1.94911 -5.41153 0.70097 1
-1.27962 -2.2254 0.0441982 49
-0.817947 -2.25781 0.124036 47
-1.28094 -2.22681 -0.133245 47
-0.816711 -2.2507 -0.0411877 49
-1.2852 -2.23241 -0.311542 49
-0.817641 -2.25447 -0.206364 49
-1.28594 -2.23101 -0.492832 49
-0.812572 -2.24524 -0.373116 50
-1.28888 -2.23253 -0.680897 53
-0.810323 -2.24625 -0.542435 49
-3.26666 -5.60872 1.48805 35
-2.04319 -5.63603 1.59483 15
-3.26155 -5.60218 1.01888 35
-2.06332 -5.66093 1.16337 24
-1.97571 -5.39659 0.700361 1
-1.29464 -2.22538 0.0443291 49
-0.830616 -2.25584 0.124167 47
-1.29636 -2.22655 -0.133639 47
-0.828953 -2.24888 -0.0412313 49
-1.29812 -2.22779 -0.311846 49
-0.829434 -2.25016 -0.206364 50
-1.29846 -2.22659 -0.493308 49
-0.826013 -2.24559 -0.373899 50
-1.30138 -2.22807 -0.681544 55
-0.823741 -2.24655 -0.543558 50
-3.27767 -5.60512 1.48861 29
-2.05798 -5.64608 1.59871 17
-3.26384 -5.58369 1.01653 15
-2.06913 -5.64313 1.16051 21
-1.98342 -5.38847 0.699753 1
-1.30017 -2.22505 0.0443727 49
-0.832828 -2.24971 0.123905 41
-1.30276 -2.22859 -0.133901 47
-0.832876 -2.24743 -0.0412313 49
-1.30326 -2.22767 -0.312151 49
-0.835082 -2.25338 -0.206799 50
-1.30606 -2.23068 -0.494736 47
-0.831634 -2.24878 -0.374682 49
-1.3081 -2.22973 -0.682837 53
-0.828499 -2.2474 -0.54412 49
-3.29429 -5.56425 1.48243 4
-2.08431 -5.62353 1.59548 15
-3.26255 -5.51283 1.00678 1
-2.09266 -5.61611 1.15717 18
-2.00734 -5.36371 0.697927 1
-1.31562 -2.22466 0.0445036 49
-0.846737 -2.24984 0.124167 47
-1.31823 -2.22818 -0.134295 47
-0.845901 -2.24523 -0.0412749 49
-1.31656 -2.22272 -0.312455 49
-0.849488 -2.25598 -0.207452 59
-1.32062 -2.2278 -0.495689 47
-0.844261 -2.24671 -0.375073 49
-1.32099 -2.22492 -0.683484 52
-0.840646 -2.24288 -0.54412 49
-3.29805 -5.55069 1.48019 2
-2.09244 -5.61536 1.59419 15
-3.19552 -5.38032 0.983365 1
-2.09559 -5.59406 1.15336 17
-2.01314 -5.35358 0.697014 1
-1.32334 -2.22881 0.0446345 47
-0.851148 -2.25085 0.124298 47
-1.3234 -2.22802 -0.134426 47
-0.849818 -2.24375 -0.0412749 47
-1.32132 -2.22278 -0.312759 47
-0.852547 -2.25216 -0.207234 56
-1.32576 -2.2276 -0.496165 47
-0.849049 -2.24754 -0.375465 47
-1.32735 -2.22676 -0.684777 53
-0.84673 -2.2484 -0.545805 50
-3.32707 -5.53334 1.48019 4
-2.11486 -5.58888 1.58966 14
-3.286 -5.46721 1.00249 3
-2.11691 -5.56503 1.14955 15
-2.11625 -5.54006 0.722875 21
-1.3346 -2.22208 0.0446345 47
-0.863813 -2.24869 0.124429 45
-1.33762 -2.22534 -0.134689 47
-0.862056 -2.24176 -0.0413186 47
-1.33678 -2.22221 -0.313672 47
-0.863438 -2.24534 -0.207017 47
-1.33829 -2.22296 -0.496641 47
-0.861686 -2.24537 -0.375856 49
-1.34235 -2.22622 -0.686717 52
-0.858491 -2.24394 -0.545805 49
-3.32035 -5.50042 1.47289 14
-2.11776 -5.56712 1.58449 14
-3.23045 -5.35366 0.982585 2
-2.12146 -5.5449 1.14621 15
-2.12059 -5.52246 0.721049 23
-1.33886 -2.21951 0.0446345 47
-0.868631 -2.24951 0.12456 45
-1.34537 -2.22941 -0.135083 47
-0.868657 -2.24725 -0.0414495 47
-1.34194 -2.22199 -0.313976 47
-0.869142 -2.24848 -0.207452 49
-1.34598 -2.22692 -0.498069 47
-0.866487 -2.24617 -0.376248 47
-1.34787 -2.2257 -0.687364 52
-0.864146 -2.24699 -0.546928 50
-3.33481 -5.45743 1.46615 12
-2.14003 -5.5353 1.57868 14
-3.39715 -5.56155 1.02434 9
-2.14248 -5.51312 1.14192 15
-2.15674 -5.52709 0.723179 18
-1.35568 -2.221 0.0448091 47
-0.881696 -2.24711 0.12469 45
-1.36093 -2.22873 -0.135476 47
-0.881712 -2.24485 -0.0414931 49
-1.35783 -2.22105 -0.314889 47
-0.880903 -2.2439 -0.207452 49
-1.36185 -2.22588 -0.499498 47
-0.880421 -2.24605 -0.377031 49
-1.36203 -2.22273 -0.688657 53
-0.87629 -2.24228 -0.546928 49
-3.32045 -5.41481 1.45604 12
-2.14619 -5.52255 1.57609 14
-3.39006 -5.52825 1.01927 12
-2.17705 -5.5734 1.15526 15
-3.40754 -5.5589 0.567384 11
-2.20979 -5.63424 0.737783 23
-1.36348 -2.22503 0.0449399 47
-0.885617 -2.24556 0.12469 45
-1.36613 -2.22848 -0.135608 47
-0.886542 -2.24563 -0.0415367 49
-1.3643 -2.2229 -0.315497 47
-0.886637 -2.24699 -0.207887 47
-1.36702 -2.22559 -0.499974 47
-0.88524 -2.24681 -0.377422 50
-1.37097 -2.22858 -0.691243 53
-0.881089 -2.24302 -0.547489 47
-3.33042 -5.36572 1.44762 12
-2.19366 -5.55843 1.58966 14
-3.40203 -5.48315 1.01419 12
-2.23691 -5.63951 1.17147 23
-3.36176 -5.42036 0.554964 1
-2.23651 -5.61567 0.73687 30
-1.37643 -2.21998 0.0449836 47
-0.899209 -2.24553 0.124952 44
-1.3808 -2.2253 -0.13587 47
-0.899214 -2.24328 -0.0415804 49
-1.37723 -2.21784 -0.315801 47
-0.901548 -2.2491 -0.208539 50
-1.38254 -2.22466 -0.501403 45
-0.898817 -2.24673 -0.378206 49
-1.38518 -2.22547 -0.692537 53
-0.893719 -2.24064 -0.548051 47
-3.31529 -5.32062 1.43695 12
-2.22735 -5.61522 1.60711 15
-3.42204 -5.49397 1.01731 14
-2.24228 -5.62153 1.16861 20
-3.34619 -5.37432 0.550824 1
-2.24171 -5.60024 0.735349 27
-1.38465 -2.2237 0.0451145 47
-0.904055 -2.24628 0.125083 45
-1.38468 -2.22288 -0.13587 45
-0.904987 -2.24635 -0.0416676 47
-1.38504 -2.22175 -0.316714 47
-0.904546 -2.24522 -0.208322 49
-1.38772 -2.22432 -0.501879 45
-0.900904 -2.24058 -0.377422 50
-1.39073 -2.22485 -0.693183 53
-0.899432 -2.2436 -0.549174 47
-3.32973 -5.27994 1.43077 12
-2.2595 -5.60757 1.6084 15
-3.47016 -5.50462 1.02278 12
-2.26341 -5.58923 1.16432 18
-2.26265 -5.56503 0.732306 27
-1.40294 -2.22699 0.0453326 47
-0.917135 -2.24367 0.125214 45
-1.40163 -2.22405 -0.136395 47
-0.918069 -2.24373 -0.0417112 49
-1.40102 -2.22051 -0.317627 47
-0.918166 -2.24506 -0.208756 47
-1.40367 -2.22301 -0.503307 45
-0.916337 -2.24498 -0.378989 47
-1.40753 -2.2257 -0.69577 52
-0.912472 -2.24096 -0.549735 47
-3.31587 -5.23972 1.42123 12
-2.26114 -5.58346 1.60259 15
-3.49861 -5.53046 1.02863 12
-2.26763 -5.57163 1.16146 18
-3.51243 -5.55226 0.571742 12
-2.26857 -5.55458 0.731394 27
-1.40415 -2.22031 0.0452454 47
-0.921602 -2.24454 0.125345 45
-1.40685 -2.22371 -0.136527 47
-0.92293 -2.24444 -0.0417549 45
-1.40451 -2.21831 -0.317627 45
-0.923967 -2.24807 -0.209191 49
-1.40624 -2.21848 -0.502831 45
-0.920254 -2.24338 -0.378989 47
-1.414 -2.22731 -0.697063 53
-0.917827 -2.24404 -0.550858 50
-3.31829 -5.18331 1.41056 12
-2.28754 -5.56748 1.60129 15
-3.53418 -5.52246 1.03058 12
-2.29112 -5.54874 1.15908 18
-3.5472 -5.5449 0.572831 11
-2.29288 -5.53116 0.729872 27
-1.41942 -2.21949 0.0453763 47
-0.936209 -2.2466 0.125737 44
-1.42078 -2.22076 -0.136789 45
-0.935236 -2.24205 -0.0417985 45
-1.42146 -2.21928 -0.318844 47
-0.936288 -2.24566 -0.209409 49
-1.42142 -2.21753 -0.50426 45
-0.932541 -2.24097 -0.37938 49
-1.42656 -2.22216 -0.69771 52
-0.931423 -2.2437 -0.551981 52
-3.30667 -5.14735 1.40213 12
-2.29082 -5.54785 1.59677 15
-3.54952 -5.52729 1.03253 11
-2.29705 -5.53566 1.15717 18
-3.55552 -5.53661 0.572613 11
-2.29776 -5.51838 0.728655 30
-1.42599 -2.22122 0.0454635 45
-0.938777 -2.24282 0.125606 45
-1.426 -2.22038 -0.13692 47
-0.941071 -2.24503 -0.0418858 45
-1.42494 -2.21704 -0.318844 47
-0.941164 -2.24632 -0.209626 47
-1.42795 -2.21917 -0.505212 45
-0.938347 -2.2439 -0.380163 49
-1.43698 -2.22981 -0.700943 52
-0.934013 -2.23999 -0.55142 47
-3.31366 -5.09933 1.39371 12
-2.31514 -5.52727 1.59419 15
-3.56496 -5.48793 1.02863 9
-2.32219 -5.51717 1.15574 15
-3.56858 -5.49557 0.570216 9
-2.32759 -5.50856 0.72896 23
