# .PCD v0.7 - Point Cloud Data file format
VERSION 0.7
FIELDS x y z intensity
SIZE 4 4 4 4
TYPE F F F F
COUNT 1 1 1 1
WIDTH 1657
HEIGHT 1
VIEWPOINT 0 0 0 1 0 0 0
POINTS 1657
DATA ascii
3.30186 -2.20622 0.764457 4
1.35207 -1.29966 0.16102 44
3.31247 -2.21993 0.484655 1
1.3225 -1.27163 0.0314143 49
3.26461 -2.19122 0.204241 15
1.30091 -1.25128 -0.0930744 49
2.07579 -1.39642 -0.0430638 41
1.29432 -1.24623 -0.216011 30
2.08306 -1.40077 -0.21615 42
2.07637 -1.39476 -0.391126 41
1.58556 -1.53025 -0.58067 36
2.66432 -1.78407 -0.731109 9
3.33741 -3.24693 1.06522 11
3.29616 -2.21915 1.05396 3
3.34776 -3.25588 0.732451 11
3.30858 -2.23582 0.768746 1
1.34882 -1.31019 0.161456 42
3.32136 -2.25114 0.487697 1
1.31582 -1.27854 0.0314143 49
1.28875 -1.25307 -0.0926806 49
2.06431 -1.40447 -0.0429765 41
1.28777 -1.25299 -0.216011 27
2.07751 -1.41342 -0.216367 41
2.07313 -1.40838 -0.391909 39
2.65898 -1.80072 -0.732232 9
3.34394 -3.26467 1.06915 11
3.3123 -2.23839 1.06042 1
3.34384 -3.26345 0.732841 11
3.32867 -2.25867 0.774466 11
1.34475 -1.31081 0.161238 42
3.34206 -2.27366 0.491348 14
1.30979 -1.27757 0.0313271 49
1.28656 -1.25532 -0.0926806 49
2.06599 -1.41088 -0.0430638 39
1.28204 -1.25177 -0.215402 27
2.08122 -1.42125 -0.21702 39
2.07475 -1.41477 -0.392692 39
2.65785 -1.80672 -0.732793 9
3.3401 -3.2964 1.07364 11
3.31212 -2.26445 1.0643 14
3.34547 -3.30057 0.737134 11
3.3573 -2.30379 0.783997 15
1.33941 -1.31981 0.161456 41
3.36858 -2.31839 0.497129 4
1.30308 -1.28441 0.0313271 47
1.71484 -1.18482 0.10742 27
1.28175 -1.26379 -0.0928119 47
2.06451 -1.42629 -0.0431947 39
1.27701 -1.26043 -0.215706 30
2.0758 -1.43354 -0.217237 41
1.58042 -1.56144 -0.424264 30
2.07139 -1.42841 -0.393475 39
1.53731 -1.52089 -0.569678 39
2.642 -1.81695 -0.731109 9
3.3453 -3.31193 1.07701 11
3.35798 -2.30433 1.08045 17
3.35081 -3.31625 0.739475 11
3.3998 -2.34161 0.794959 15
1.33887 -1.3239 0.161674 41
3.33428 -2.30257 0.492565 11
1.30084 -1.28668 0.0313271 47
1.7027 -1.18043 0.106765 33
1.27777 -1.26427 -0.0926806 49
2.07024 -1.43557 -0.0433692 41
1.27327 -1.26069 -0.215402 32
2.08149 -1.44282 -0.218107 42
1.57247 -1.55901 -0.422835 29
2.07499 -1.43623 -0.394649 41
1.5278 -1.51676 -0.567091 41
2.63714 -1.81971 -0.730547 9
3.33824 -3.33974 1.08038 11
3.386 -2.34878 1.09338 12
3.34911 -3.34947 0.742987 11
3.4 -2.36719 0.797819 11
1.33392 -1.33242 0.161892 39
3.33644 -2.32992 0.494695 11
1.29077 -1.28971 0.0312398 49
1.26937 -1.26918 -0.0925493 49
2.065 -1.44746 -0.0434129 41
1.2649 -1.26558 -0.215098 32
2.07799 -1.45655 -0.218542 42
1.56282 -1.56521 -0.422359 29
2.06947 -1.44848 -0.395041 41
1.5201 -1.52448 -0.567091 42
2.62558 -1.8321 -0.729985 11
3.341 -3.3542 1.08319 11
3.39578 -2.36432 1.0979 11
3.35545 -3.36756 0.745718 11
3.39746 -2.37512 0.798295 11
1.33335 -1.33651 0.16211 38
3.35677 -2.3528 0.498346 14
1.28829 -1.29219 0.0312398 47
1.26539 -1.26962 -0.092418 50
2.06861 -1.45537 -0.0435437 41
1.26269 -1.26778 -0.215098 33
2.07953 -1.46303 -0.218977 42
1.55663 -1.56446 -0.421407 33
1.52057 -1.53082 -0.568384 44
2.62237 -1.83668 -0.729985 9
3.33819 -3.38785 1.08824 11
3.39084 -2.38822 1.10049 12
3.34065 -3.38918 0.746499 11
3.39099 -2.39712 0.799725 11
1.32784 -1.34548 0.162328 38
3.38451 -2.39959 0.50443 11
1.28151 -1.29892 0.0312398 45
1.6635 -1.18412 0.105195 30
2.06275 -1.46798 -0.0435874 41
1.25407 -1.27283 -0.214794 33
2.0759 -1.47678 -0.219412 41
1.54642 -1.57111 -0.420931 33
1.50746 -1.53359 -0.566445 42
2.60842 -1.84804 -0.728862 11
3.3431 -3.40352 1.09161 11
3.39061 -2.39691 1.10178 11
3.34857 -3.4091 0.749621 11
3.39482 -2.4087 0.801631 11
1.32724 -1.34957 0.162545 38
3.38638 -2.4098 0.505343 11
1.64922 -1.17834 0.10441 36
2.06425 -1.47448 -0.0436746 39
1.25532 -1.27856 -0.215402 33
2.07535 -1.48184 -0.219629 39
1.54024 -1.5703 -0.419978 33
1.50309 -1.53449 -0.565798 39
3.33822 -3.43554 1.0961 11
3.38195 -2.41744 1.10307 11
3.33583 -3.4319 0.750791 11
3.39014 -2.43216 0.803538 11
1.31842 -1.35472 0.162328 38
3.37977 -2.43184 0.506256 11
1.63897 -1.18405 0.104149 41
2.06462 -1.49111 -0.0438492 41
1.25033 -1.2869 -0.215706 32
2.06958 -1.49414 -0.219847 39
1.53542 -1.58187 -0.420931 32
3.34298 -3.45128 1.09947 11
3.38165 -2.42615 1.10436 11
3.35105 -3.45843 0.755474 11
3.39387 -2.4438 0.805444 11
1.31778 -1.35881 0.162545 38
3.39407 -2.45019 0.508994 11
1.62901 -1.18078 0.103625 41
2.06202 -1.49471 -0.0438492 39
1.24659 -1.28707 -0.215402 33
2.07303 -1.50213 -0.220499 39
1.52924 -1.58101 -0.419978 32
3.33666 -3.48105 1.1034 11
3.3752 -2.44748 1.1063 11
3.34657 -3.49019 0.758596 11
3.39535 -2.47104 0.80878 11
1.31951 -1.37445 0.163635 39
1.61877 -1.18635 0.103364 41
2.05846 -1.50807 -0.0439364 39
1.24155 -1.29538 -0.215706 32
2.0752 -1.5203 -0.221586 41
1.51952 -1.58696 -0.419502 32
1.7134 -1.25448 -0.331223 15
1.71573 -1.25348 -0.48179 20
3.33899 -3.49568 1.10621 11
3.37874 -2.45904 1.10889 11
3.35241 -3.50852 0.761328 11
3.3906 -2.47755 0.80878 11
1.31883 -1.37855 0.163853 39
1.60864 -1.18328 0.10284 42
2.06188 -1.51609 -0.0440673 39
1.241 -1.29934 -0.216011 32
2.07254 -1.52392 -0.221586 38
1.52014 -1.59316 -0.420454 32
1.69527 -1.24581 -0.328091 21
1.70567 -1.25073 -0.479544 20
3.33174 -3.52609 1.11014 11
3.36928 -2.48015 1.11018 11
3.34186 -3.53559 0.763279 11
3.39142 -2.50546 0.812116 11
1.31306 -1.38747 0.164071 39
1.72715 -1.2826 0.259517 21
1.5962 -1.18751 0.102448 41
2.05766 -1.5302 -0.0441546 39
1.23735 -1.30964 -0.216619 30
2.07054 -1.5392 -0.222239 39
1.50813 -1.59779 -0.419502 32
1.68674 -1.2532 -0.3277 21
1.69496 -1.25704 -0.478421 23
3.33788 -3.54374 1.11407 11
3.3805 -2.49749 1.11535 11
3.34646 -3.55162 0.76562 11
3.39098 -2.5143 0.81307 11
1.71916 -1.28087 0.258604 33
1.59433 -1.19001 0.102448 44
2.06702 -1.54274 -0.0444164 41
1.23359 -1.30978 -0.216315 32
2.07385 -1.54726 -0.222891 39
1.6786 -1.25173 -0.326525 24
1.68711 -1.25535 -0.476737 24
3.33257 -3.57542 1.11856 11
3.37169 -2.51745 1.11664 11
3.3396 -3.58174 0.768351 11
3.39001 -2.54024 0.815929 11
1.71441 -1.29135 0.258908 33
1.58808 -1.19834 0.102448 44
2.05719 -1.55168 -0.0443727 39
1.23179 -1.32167 -0.217228 29
2.07368 -1.56409 -0.223761 41
1.66412 -1.25458 -0.324959 20
1.68051 -1.26417 -0.476737 26
3.33958 -3.59552 1.12305 11
3.37889 -2.53201 1.12052 11
3.34342 -3.59842 0.770693 11
3.38512 -2.54675 0.815929 11
1.71017 -1.29285 0.258604 49
1.58199 -1.19811 0.102186 44
2.06047 -1.55978 -0.0445036 38
1.23117 -1.32563 -0.217532 30
2.07691 -1.5722 -0.224413 39
1.65404 -1.25154 -0.323393 18
1.67635 -1.26564 -0.476175 24
3.33326 -3.62789 1.12755 11
3.37285 -2.55608 1.1231 11
3.33727 -3.631 0.773815 11
3.38738 -2.57631 0.819742 11
1.57152 -1.20362 0.101924 42
2.06193 -1.57849 -0.0447218 39
1.22566 -1.33411 -0.217836 30
2.07261 -1.58607 -0.224848 39
1.64528 -1.25897 -0.323002 17
1.6656 -1.27174 -0.475052 26
3.33085 -3.63672 1.12867 11
3.37416 -2.56634 1.12504 11
3.34426 -3.65139 0.776936 11
3.38679 -2.58519 0.820695 11
1.56941 -1.20636 0.101924 44
2.05521 -1.57905 -0.0446345 38
1.22835 -1.34174 -0.218749 29
1.63327 -1.25434 -0.321044 15
1.66532 -1.27612 -0.475614 26
3.3242 -3.66913 1.13316 11
3.36642 -2.58838 1.12698 11
3.33339 -3.678 0.778888 11
3.38487 -2.61187 0.823555 9
1.03789 -1.14337 0.132041 36
1.56308 -1.21456 0.101924 42
1.0232 -1.12795 -0.0782403 11
2.05284 -1.59437 -0.0447654 38
1.22297 -1.34999 -0.219053 30
1.62299 -1.25958 -0.320261 15
1.65475 -1.28185 -0.474491 24
3.33639 -3.69424 1.13934 11
3.37147 -2.60162 1.13021 11
3.33919 -3.69607 0.781619 11
1.03089 -1.13964 0.131387 50
1.54286 -1.20111 0.235482 30
1.03103 -1.14019 0.0262222 12
1.55722 -1.21396 0.101663 39
1.01621 -1.12418 -0.0778464 12
2.05795 -1.60409 -0.0449399 38
1.22417 -1.3556 -0.219661 30
1.61103 -1.25484 -0.318303 15
1.65274 -1.28445 -0.474491 24
3.32836 -3.72438 1.14327 11
3.36588 -2.62458 1.1328 11
3.33131 -3.72639 0.784351 11
1.02178 -1.14113 0.130951 50
1.5346 -1.20765 0.235178 36
1.01858 -1.13794 0.0260477 15
1.55477 -1.22518 0.101924 38
1.01198 -1.13134 -0.0779777 8
2.05571 -1.61911 -0.0450708 39
1.22036 -1.36569 -0.22027 30
1.60444 -1.26326 -0.318303 15
1.64983 -1.29609 -0.475614 24
3.33157 -3.7411 1.14664 11
3.37652 -2.64234 1.13797 11
3.33958 -3.7488 0.787863 11
1.69118 -1.33173 0.411301 8
1.01814 -1.14105 0.130734 11
1.52858 -1.20726 0.234569 38
1.02138 -1.1455 0.0261786 12
1.55067 -1.22634 0.101793 39
1.01332 -1.13684 -0.0782403 4
2.06466 -1.63198 -0.0453326 39
1.22127 -1.37153 -0.220878 29
1.59253 -1.25843 -0.316346 17
3.32094 -3.77004 1.15001 11
3.36407 -2.66207 1.13861 11
3.33394 -3.78349 0.791375 11
1.67649 -1.33447 0.409394 8
1.00536 -1.13907 0.129862 17
1.52009 -1.21397 0.234265 41
1.00711 -1.14145 0.0259605 12
1.54597 -1.23627 0.101924 36
1.0123 -1.14775 -0.0786341 4
2.05776 -1.64468 -0.0453763 41
1.22039 -1.38557 -0.222095 35
1.44268 -1.15451 -0.158307 9
1.19547 -1.35818 -0.344268 26
1.59172 -1.27136 -0.31752 18
3.33108 -3.79356 1.15562 11
3.37267 -2.67843 1.14314 11
3.34591 -3.80913 0.795667 11
1.65687 -1.32365 0.405105 8
1.00501 -1.14269 0.13008 15
1.51236 -1.21171 0.233352 42
1.00841 -1.14696 0.0260477 11
1.53622 -1.23247 0.101401 29
1.00371 -1.14201 -0.078109 9
2.06465 -1.65607 -0.0455944 41
1.21821 -1.38748 -0.222095 32
1.44066 -1.15702 -0.158307 9
1.18825 -1.35472 -0.342839 12
1.57984 -1.26644 -0.315563 17
3.32076 -3.82199 1.15899 11
3.37038 -2.70452 1.14701 11
3.33564 -3.83779 0.798009 11
1.63102 -1.31664 0.400339 9
0.995951 -1.144 0.129644 15
1.50213 -1.2165 0.232744 44
1.00095 -1.15017 0.0260041 11
1.52391 -1.23579 0.101008 24
1.00426 -1.15479 -0.0786341 8
2.06013 -1.66964 -0.0456817 39
1.22069 -1.40509 -0.223921 24
1.57319 -1.27469 -0.315563 15
3.32684 -3.84252 1.16348 11
3.36754 -2.71191 1.14766 11
3.34671 -3.86414 0.802301 9
1.62276 -1.31515 0.398909 9
0.993953 -1.14574 0.129644 14
1.50193 -1.22068 0.233048 42
1.00529 -1.15965 0.0261786 11
1.51981 -1.23688 0.100878 24
0.99408 -1.1471 -0.0779777 8
2.06692 -1.6811 -0.0458998 39
1.2231 -1.41285 -0.224834 23
1.56905 -1.27588 -0.315171 15
3.32501 -3.88267 1.17022 11
3.36594 -2.74075 1.15218 11
3.34021 -3.89907 0.805813 9
1.61015 -1.31898 0.39748 8
0.984499 -1.14732 0.129208 15
1.48954 -1.22408 0.232135 42
1.00083 -1.16679 0.0262222 9
1.50344 -1.23717 0.100223 29
0.991105 -1.15626 -0.0782403 8
2.06166 -1.69543 -0.0459871 41
1.21866 -1.42322 -0.225442 23
1.46475 -1.20635 -0.162656 12
3.33245 -3.90515 1.17528 9
3.36677 -2.7512 1.15412 11
3.35103 -3.92556 0.810106 9
1.60951 -1.32362 0.397956 8
0.992196 -1.1604 0.130516 15
1.48548 -1.2251 0.231831 41
0.998585 -1.16871 0.0262222 8
1.49356 -1.23346 0.0997 33
0.990705 -1.15988 -0.0783715 8
2.0587 -1.69903 -0.0459871 39
1.2194 -1.42912 -0.226051 18
1.47995 -1.22314 -0.164613 15
2.31698 -1.90474 -0.683379 30
3.32541 -3.93988 1.18033 9
3.36301 -2.7786 1.158 11
3.33293 -3.94741 0.810886 8
1.59499 -1.32577 0.39605 8
0.985903 -1.16575 0.130516 9
1.47501 -1.22995 0.231223 41
0.9989 -1.18157 0.0263968 8
1.48111 -1.23673 0.0993075 35
0.986229 -1.16696 -0.0785028 8
1.21484 -1.43949 -0.226659 21
1.46395 -1.22292 -0.163526 18
2.29914 -1.91103 -0.681133 29
3.33176 -3.96002 1.18482 9
3.36932 -2.7937 1.16188 11
3.34103 -3.96964 0.814398 8
1.59457 -1.33012 0.396526 4
0.98547 -1.16938 0.130734 4
1.47117 -1.23068 0.230918 41
0.99201 -1.17757 0.0262659 8
1.47533 -1.23586 0.0990458 36
0.987403 -1.1725 -0.0787654 8
1.21258 -1.4414 -0.226659 18
1.45799 -1.22228 -0.163091 23
2.28302 -1.90374 -0.677202 30
3.32189 -3.99051 1.18875 9
3.36626 -2.82001 1.16575 11
3.33757 -4.00796 0.81869 8
1.58217 -1.33344 0.395097 4
0.977945 -1.17243 0.130516 4
1.46091 -1.23517 0.23031 42
0.990834 -1.18834 0.0263968 4
1.46311 -1.23874 0.0986533 36
0.978262 -1.17365 -0.0785028 4
1.21453 -1.45918 -0.228484 23
1.44988 -1.22804 -0.162874 18
2.26556 -1.9094 -0.674956 30
3.33117 -4.01448 1.19437 9
3.34003 -4.02519 0.821032 8
1.58172 -1.33778 0.395573 4
0.980668 -1.17989 0.131169 4
1.45875 -1.23772 0.23031 42
0.990354 -1.19199 0.0264404 4
1.45332 -1.23485 0.0981299 38
0.979399 -1.1792 -0.0787654 4
1.21357 -1.46321 -0.228789 21
1.43822 -1.22253 -0.161786 15
2.25291 -1.9055 -0.672148 30
3.32176 -4.04751 1.19886 9
3.32987 -4.05598 0.823763 8
1.57282 -1.34446 0.395097 4
0.974477 -1.18501 0.131169 4
1.44848 -1.24212 0.229701 42
0.987271 -1.20102 0.0265277 4
1.44114 -1.23758 0.0977374 41
0.971628 -1.18238 -0.0786341 4
1.21533 -1.48106 -0.230614 20
1.42234 -1.22195 -0.160699 20
1.5457 -1.88825 -0.64404 3
2.23177 -1.90779 -0.668779 29
3.33082 -4.07158 1.20448 9
2.51746 -2.14819 0.876253 1
3.33601 -4.0765 0.826885 8
1.57048 -1.3472 0.395097 4
0.97083 -1.18478 0.130951 3
1.44841 -1.24601 0.230006 42
0.983591 -1.20081 0.026484 4
1.4373 -1.23821 0.0976066 42
0.977463 -1.19374 -0.0792905 4
1.44597 -1.24695 -0.0327233 15
1.22399 -1.49642 -0.232744 15
1.41453 -1.21957 -0.160047 21
1.30965 -1.12806 -0.268581 9
1.53935 -1.8872 -0.642746 3
2.21766 -1.9018 -0.66541 30
3.32171 -4.10412 1.20897 9
2.47725 -2.13572 0.865914 2
1.56735 -1.35834 0.39605 3
0.971089 -1.19742 0.131823 4
1.43999 -1.25195 0.229701 42
0.980645 -1.20966 0.0265713 4
1.42513 -1.24082 0.097214 42
0.969838 -1.19673 -0.0791592 4
1.42264 -1.23952 -0.0323306 23
1.21925 -1.50667 -0.233352 12
1.40081 -1.22019 -0.159177 21
1.0422 -1.28846 -0.314746 11
1.30559 -1.13651 -0.268972 8
1.52371 -1.88745 -0.64016 4
2.20214 -1.90861 -0.663725 32
2.47535 -2.14162 0.86656 2
1.56313 -1.35947 0.395573 3
0.968998 -1.19911 0.131823 4
1.4378 -1.25446 0.229701 44
0.975395 -1.20748 0.026484 8
1.42108 -1.24167 0.0970832 42
0.967748 -1.19842 -0.0791592 4
1.41293 -1.23544 -0.0321561 23
1.39492 -1.21936 -0.158742 21
1.03533 -1.28454 -0.313317 9
1.3036 -1.13879 -0.268972 9
1.52042 -1.89011 -0.64016 8
2.18776 -1.90287 -0.660356 30
2.47503 -2.16407 0.870438 4
0.961153 -1.20222 0.131605 4
1.43308 -1.26361 0.230006 44
0.973735 -1.21843 0.0266149 4
1.41081 -1.24579 0.0968215 44
0.962806 -1.20559 -0.0792905 4
1.39518 -1.23292 -0.0318943 33
1.02401 -1.28419 -0.311889 9
1.30133 -1.14886 -0.269755 11
1.50749 -1.89426 -0.638867 11
2.16861 -1.90627 -0.657548 32
2.47125 -2.16839 0.870438 8
0.960603 -1.20585 0.131823 3
1.43087 -1.26611 0.230006 44
0.971394 -1.2203 0.0266149 3
1.40301 -1.2433 0.096429 45
0.966912 -1.21509 -0.0798156 4
1.38365 -1.22708 -0.0316761 35
1.01566 -1.27828 -0.309984 8
1.29933 -1.15113 -0.269755 11
1.50985 -1.90472 -0.641453 11
2.15796 -1.90362 -0.655302 32
2.45405 -2.17693 0.868499 9
0.950986 -1.20711 0.131387 3
1.424 -1.27383 0.230006 44
0.964991 -1.22537 0.0266149 3
1.39627 -1.25087 0.096429 45
0.962079 -1.2221 -0.0799469 4
1.37139 -1.22956 -0.0315452 38
1.50134 -1.91451 -0.6421 12
2.13852 -1.90718 -0.652495 32
2.4358 -2.16838 0.863329 2
0.953485 -1.21465 0.132041 3
1.42015 -1.27441 0.229701 42
0.96131 -1.22508 0.0265713 3
1.39058 -1.24974 0.0961673 47
0.963022 -1.22771 -0.0802094 4
1.36366 -1.22695 -0.0314143 39
2.12643 -1.90243 -0.649687 32
0.944273 -1.21553 0.131605 3
1.41714 -1.28516 0.23031 41
0.962754 -1.23981 0.0267894 4
1.38216 -1.25533 0.0960365 47
0.956796 -1.23257 -0.0802094 3
1.35558 -1.23216 -0.0313707 42
2.10558 -1.90375 -0.646318 32
0.946718 -1.22309 0.132259 3
1.41122 -1.2843 0.229701 39
0.957533 -1.23753 0.0267022 3
1.37812 -1.25606 0.0959056 49
0.960746 -1.24214 -0.0807345 4
1.34972 -1.23116 -0.0312834 44
2.09503 -1.90089 -0.644072 32
1.63071 -2.13364 0.610942 2
3.35241 -3.056 1.20453 12
0.943111 -1.23215 0.132695 3
1.41157 -1.29861 0.230918 38
0.956892 -1.25064 0.0268767 4
1.36762 -1.26012 0.095644 49
0.954011 -1.24732 -0.0807345 4
1.3412 -1.23676 -0.0312398 45
2.07752 -1.90562 -0.641826 32
1.62441 -2.13233 0.609819 9
3.36134 -3.07487 1.2097 11
0.943976 -1.23776 0.13313 3
1.40953 -1.30083 0.230918 36
0.959248 -1.25827 0.0270076 4
1.3638 -1.26058 0.0955131 49
0.956367 -1.25494 -0.0811283 3
1.3372 -1.2374 -0.0311962 47
2.06375 -1.899 -0.638457 32
1.62933 -2.16221 0.615995 9
3.35638 -3.10167 1.21357 11
0.939197 -1.24451 0.133348 4
1.4027 -1.30819 0.230918 35
0.94986 -1.25912 0.0269203 4
1.35719 -1.26771 0.0955131 49
0.949784 -1.25993 -0.0811283 3
1.32543 -1.23905 -0.0310653 47
2.04842 -1.90482 -0.636772 32
1.63871 -2.18259 0.621049 2
3.36337 -3.119 1.2181 11
0.944499 -1.2561 0.134438 3
1.40404 -1.31402 0.231527 33
0.95794 -1.27494 0.0272258 3
1.35497 -1.27007 0.0955131 49
0.947583 -1.26159 -0.0811283 4
1.31413 -1.23283 -0.0308471 47
2.03796 -1.90175 -0.634526 33
3.35703 -3.14706 1.22197 11
0.936205 -1.2592 0.13422 3
1.39872 -1.3233 0.231831 32
0.949762 -1.27793 0.0271821 3
1.34626 -1.27567 0.0953823 49
0.945426 -1.27255 -0.0815222 4
1.30744 -1.23993 -0.0308471 47
3.35506 -3.15622 1.22327 11
3.36953 -3.18082 0.893137 11
0.934006 -1.26083 0.13422 3
1.39641 -1.32574 0.231831 30
0.951987 -1.28562 0.027313 3
1.34403 -1.27802 0.0953823 49
0.940236 -1.27018 -0.0812596 4
1.30527 -1.24221 -0.0308471 49
1.29538 -1.23243 -0.153088 50
3.289 -4.49805 1.27635 14
3.34724 -3.18205 1.2265 11
3.2921 -4.50066 0.875663 14
3.36528 -3.21027 0.896474 11
0.934742 -1.27575 0.135309 3
1.39124 -1.33474 0.232135 27
0.945243 -1.29058 0.027313 3
1.33552 -1.28331 0.0952514 49
0.940938 -1.28517 -0.081916 3
1.29694 -1.2473 -0.0308035 47
1.28351 -1.23403 -0.152436 52
3.29915 -4.52684 1.28309 14
3.35393 -3.19954 1.23102 11
3.30248 -4.52978 0.880346 14
3.36677 -3.22292 0.89838 11
0.933981 -1.27939 0.135527 3
1.39631 -1.34379 0.233352 24
0.950347 -1.30233 0.0275312 3
1.3353 -1.28714 0.0953823 49
0.941633 -1.29084 -0.0821785 4
1.29116 -1.2461 -0.0307162 49
1.28315 -1.238 -0.152653 52
1.18937 -1.14644 -0.256444 3
3.29249 -4.56777 1.28983 14
3.35162 -3.22987 1.23619 11
3.2946 -4.56904 0.884638 14
3.36101 -3.25014 0.90124 11
0.934776 -1.29421 0.136617 3
1.39104 -1.35281 0.233657 24
0.945205 -1.30915 0.0275748 3
1.32675 -1.29237 0.0952514 49
0.933402 -1.29373 -0.0820473 3
1.28483 -1.25261 -0.0307162 49
1.27665 -1.2447 -0.152653 52
1.17803 -1.1475 -0.255269 3
3.29729 -4.59133 1.29488 14
3.3564 -3.24578 1.24007 11
3.30822 -4.60487 0.890492 14
3.36181 -3.26342 0.903146 11
0.926704 -1.28774 0.135745 3
1.39402 -1.36042 0.234569 21
0.94269 -1.31097 0.0275748 3
1.3245 -1.29469 0.0952514 49
0.936964 -1.30347 -0.0825724 3
1.28085 -1.25311 -0.0306726 50
1.27269 -1.24519 -0.152436 52
1.17248 -1.14611 -0.254486 3
1.57096 -1.53021 -0.497513 18
3.27663 -4.61506 1.29657 14
3.35435 -3.27907 1.24588 11
3.28898 -4.63076 0.892053 14
3.36046 -3.29643 0.907435 11
0.924049 -1.29883 0.136399 3
1.39549 -1.37664 0.23609 21
0.940154 -1.322 0.0277057 3
1.31747 -1.30184 0.0952514 47
0.928682 -1.30632 -0.0824411 3
1.27762 -1.26353 -0.0307599 50
1.26615 -1.25183 -0.152436 50
1.16823 -1.15397 -0.254878 4
1.55918 -1.53527 -0.49639 23
3.28767 -4.64606 1.30387 14
3.35898 -3.29505 1.24976 11
3.3088 -4.67422 0.899467 14
3.36521 -3.31261 0.910295 11
0.923219 -1.30248 0.136617 3
1.39156 -1.37709 0.235786 21
0.934958 -1.31956 0.0276184 3
1.31543 -1.3039 0.0952514 49
0.930724 -1.31406 -0.0828349 3
1.27541 -1.26576 -0.0307599 49
1.26219 -1.25229 -0.152218 52
1.15918 -1.14907 -0.253312 4
3.27447 -4.67918 1.30836 14
3.35771 -3.32729 1.25558 11
3.28852 -4.69755 0.900638 14
3.36408 -3.34516 0.914584 11
0.916615 -1.30713 0.136617 3
1.39488 -1.39486 0.237612 20
0.935432 -1.33451 0.0278366 3
1.31565 -1.31782 0.0957748 47
0.925261 -1.32096 -0.0829662 4
1.25915 -1.2624 -0.152653 50
1.1514 -1.15338 -0.25292 4
3.29972 -4.73285 1.32184 20
3.35361 -3.33485 1.25622 11
3.30433 -4.73772 0.907271 42
3.3646 -3.35854 0.916491 11
0.92003 -1.3169 0.137488 3
1.39069 -1.39553 0.237307 18
0.935727 -1.34041 0.0279238 3
1.31159 -1.31835 0.095644 45
0.928662 -1.33076 -0.0834913 4
1.25518 -1.26283 -0.152436 50
1.14763 -1.15365 -0.252529 8
1.53392 -1.53651 -0.492459 29
3.28788 -4.7707 1.32745 47
3.34916 -3.36663 1.26139 11
3.29826 -4.784 0.912734 47
3.35908 -3.3883 0.919827 11
0.921372 -1.33416 0.138796 3
1.38836 -1.40833 0.23822 20
0.928695 -1.34529 0.0279238 3
1.30619 -1.3272 0.0957748 45
0.918849 -1.3315 -0.0832287 4
1.14679 -1.1649 -0.253703 9
1.52902 -1.54825 -0.493583 29
3.30107 -4.80598 1.33587 47
3.35179 -3.38104 1.26462 9
3.31171 -4.81971 0.918588 49
3.3687 -3.40985 0.924116 11
0.919043 -1.33577 0.138796 3
1.38614 -1.41051 0.23822 18
1.3006 -1.3257 0.0955131 45
0.925 -1.34545 -0.0840164 4
1.14129 -1.16339 -0.25292 9
1.52316 -1.54718 -0.492459 27
3.29228 -4.84739 1.34261 47
3.34479 -3.40829 1.2685 11
3.30169 -4.85945 0.92288 49
3.35827 -3.43387 0.926022 11
1.38568 -1.42484 0.239437 17
1.29887 -1.33785 0.0959056 44
0.920982 -1.35425 -0.084279 4
1.74343 -2.56869 -0.376345 27
1.1369 -1.17111 -0.253312 9
1.51844 -1.55862 -0.493583 29
3.3065 -4.88484 1.3516 47
3.35067 -3.4262 1.27302 11
3.31119 -4.89179 0.927953 49
3.36084 -3.4485 0.928405 11
1.38319 -1.42726 0.239437 17
1.29131 -1.33475 0.0955131 44
0.918617 -1.35585 -0.084279 4
1.72506 -2.55117 -0.373303 14
1.13141 -1.16956 -0.252529 9
1.59582 -2.36515 -0.754613 11
1.51062 -1.55603 -0.491898 27
3.29086 -4.91886 1.35609 49
3.34614 -3.45756 1.27819 11
3.29789 -4.92754 0.931465 50
3.35638 -3.48017 0.932218 9
1.71305 -2.56223 -0.373607 20
1.60099 -2.39624 -0.552352 27
1.12185 -1.17191 -0.251746 9
1.59145 -2.38553 -0.758492 9
1.50414 -1.56567 -0.492459 27
3.30474 -4.95646 1.36507 53
3.34849 -3.47208 1.28142 9
3.31256 -4.96822 0.938099 55
3.35541 -3.49133 0.933648 9
1.70995 -2.56728 -0.373911 29
1.60903 -2.41743 -0.556638 23
1.12493 -1.17921 -0.25292 11
1.58328 -2.38227 -0.756553 11
1.5031 -1.57005 -0.493021 27
3.2886 -4.99054 1.36957 55
3.34362 -3.50353 1.28659 9
3.29194 -4.99374 0.93966 52
3.35063 -3.52306 0.937461 11
1.05065 -1.11487 -0.026135 11
1.69512 -2.57412 -0.373607 30
1.59905 -2.42992 -0.55759 32
1.11534 -1.1815 -0.252137 11
1.57343 -2.39457 -0.757846 11
3.27006 -4.97941 1.36507 42
3.35083 -3.52335 1.29176 11
3.27373 -4.98503 0.936928 44
3.3563 -3.54136 0.940797 11
1.04355 -1.11126 -0.0260041 11
1.68655 -2.57085 -0.372694 23
1.59749 -2.43682 -0.558542 45
1.11158 -1.18165 -0.251746 9
1.57057 -2.39933 -0.758492 11
3.23512 -4.98477 1.3617 41
3.34227 -3.55139 1.29564 9
3.24221 -4.99382 0.935367 42
3.35116 -3.57319 0.94461 11
1.04881 -1.12778 0.0788964 3
1.0326 -1.11123 -0.0258732 12
1.66497 -2.56715 -0.370869 23
1.58605 -2.44721 -0.559019 45
1.10031 -1.18205 -0.250571 9
1.56192 -2.4136 -0.760432 11
3.22067 -4.97961 1.3589 41
3.34765 -3.56953 1.30016 9
3.22545 -4.98702 0.933026 42
3.35498 -3.58978 0.947469 9
3.36498 -3.61049 0.600875 8
1.04513 -1.12778 0.0787656 3
1.03066 -1.11303 -0.0258732 12
1.66048 -2.57005 -0.370869 18
1.57512 -2.43966 -0.556638 35
1.10667 -1.193 -0.252529 9
1.5564 -2.4143 -0.759786 11
3.18756 -4.98931 1.35665 39
3.33157 -3.59113 1.30146 9
3.1931 -4.99608 0.931465 41
3.34885 -3.62229 0.951282 9
3.3555 -3.63958 0.6027 1
1.0424 -1.13709 0.0790273 4
1.02801 -1.12226 -0.0259605 11
1.63988 -2.56854 -0.369348 15
1.5619 -2.44814 -0.556638 39
1.09539 -1.19333 -0.251354 8
1.5498 -2.43287 -0.763019 11
3.17318 -4.98403 1.35384 4
3.34335 -3.61643 1.30856 9
3.18657 -5.00317 0.931855 2
3.35251 -3.63895 0.954141 9
1.03048 -1.1277 0.0782422 12
1.02267 -1.12037 -0.0258732 12
1.63718 -2.57321 -0.369652 23
1.55631 -2.4488 -0.556162 35
1.09665 -1.19888 -0.252137 8
1.54555 -2.43557 -0.763019 11
3.18855 -5.06657 1.37181 1
3.3348 -3.64398 1.31244 9
3.17217 -5.0386 0.935367 2
3.34895 -3.67217 0.958431 9
1.03128 -1.14047 0.0787656 12
1.02539 -1.13478 -0.0260913 11
1.61576 -2.56914 -0.367826 32
1.5465 -2.4608 -0.557114 35
1.09368 -1.20825 -0.25292 8
1.53577 -2.44745 -0.764312 9
3.17711 -5.06799 1.37069 4
3.34147 -3.66406 1.31761 9
3.18829 -5.08388 0.942782 8
3.35346 -3.6913 0.961767 9
3.19909 -5.09915 0.523588 15
1.02258 -1.13487 0.0782422 12
1.02005 -1.13287 -0.0260041 11
1.61259 -2.57406 -0.368131 26
1.55001 -2.47598 -0.559971 32
1.08327 -1.20102 -0.250962 4
1.52979 -2.44835 -0.763665 4
3.18812 -5.14725 1.38753 17
3.33617 -3.69821 1.32343 9
3.18804 -5.14514 0.950976 20
3.34066 -3.7161 0.963673 9
3.19244 -5.15026 0.527074 17
2.2148 -3.57365 0.0727765 42
1.02142 -1.14596 0.0786348 12
1.02058 -1.14581 -0.0261786 11
1.59081 -2.57008 -0.366305 15
1.54562 -2.49894 -0.563304 33
1.08006 -1.21054 -0.251746 4
1.51821 -2.45838 -0.764312 4
3.17619 -5.14603 1.38585 14
3.33779 -3.713 1.32666 9
3.17257 -5.14019 0.949025 15
3.3522 -3.74202 0.968916 9
3.17821 -5.14734 0.526203 21
2.05895 -3.33499 0.0678026 9
1.0111 -1.13843 0.0779806 14
1.01192 -1.14014 -0.0260041 11
1.57591 -2.55595 -0.363871 17
1.08288 -1.21794 -0.25292 4
1.51266 -2.45897 -0.763665 4
1.19345 -1.33881 -0.405423 12
3.13816 -5.1465 1.38136 14
3.33276 -3.74665 1.33247 9
3.13533 -5.13987 0.945904 14
3.34234 -3.77053 0.971775 9
3.14473 -5.15328 0.525113 18
1.01174 -1.15119 0.0785039 14
1.67201 -2.74083 -0.166983 35
1.00594 -1.14542 -0.0260041 11
1.55993 -2.55993 -0.363263 20
1.07506 -1.22156 -0.252529 4
1.50227 -2.47098 -0.764959 4
1.19127 -1.35051 -0.407107 27
3.12248 -5.13893 1.37799 15
3.34065 -3.76871 1.33829 9
3.12341 -5.13845 0.944733 14
3.34714 -3.78922 0.975112 9
3.13056 -5.15025 0.524242 15
1.00333 -1.14529 0.0779806 12
1.65038 -2.716 -0.165276 35
1.00889 -1.1528 -0.026135 11
1.55976 -2.56874 -0.364176 27
1.00713 -1.15041 -0.130473 3
1.07456 -1.22528 -0.25292 4
1.49545 -2.46947 -0.763665 3
3.08174 -5.13223 1.37181 14
3.32632 -3.79102 1.34023 9
3.08502 -5.13568 0.941221 15
3.33762 -3.81719 0.977971 9
3.09291 -5.14682 0.522281 15
1.00224 -1.15617 0.0783731 9
1.64127 -2.73316 -0.165801 11
1.0014 -1.15601 -0.0260913 9
1.00273 -1.15755 -0.13069 4
1.06489 -1.22717 -0.252137 4
1.48293 -2.47701 -0.763665 3
3.06528 -5.12506 1.36844 14
3.33402 -3.81316 1.34604 9
3.07605 -5.14106 0.941221 15
3.34481 -3.84023 0.982261 9
3.07625 -5.13938 0.520973 15
0.99017 -1.14477 0.181327 14
2.44696 -4.09074 0.0825935 3
1.0035 -1.16169 0.0786348 9
1.6365 -2.73603 -0.165801 11
0.997744 -1.15587 -0.0260477 9
0.99744 -1.15554 -0.130255 4
1.06923 -1.23648 -0.253703 4
1.47447 -2.47362 -0.761726 4
3.03503 -5.13737 1.36732 11
3.32916 -3.8494 1.35251 9
3.0394 -5.14274 0.938489 15
3.34069 -3.87627 0.987026 9
3.0408 -5.14309 0.519666 14
0.988819 -1.15575 0.18224 12
2.42805 -4.1078 0.0826808 3
1.00208 -1.17278 0.0790273 8
1.61834 -2.73811 -0.165407 38
0.997991 -1.16883 -0.0262222 9
0.992999 -1.16263 -0.130473 4
1.06435 -1.24393 -0.254095 3
1.46517 -2.48756 -0.763665 4
3.01707 -5.12533 1.36283 11
3.33032 -3.86434 1.35574 9
3.0238 -5.13474 0.936148 14
3.34193 -3.89139 0.98941 9
3.02298 -5.13336 0.518141 15
0.98377 -1.15354 0.181631 12
2.42722 -4.1228 0.0828989 4
0.998616 -1.17246 0.0788964 8
1.61609 -2.74523 -0.16567 26
0.994324 -1.16867 -0.0261786 8
0.987728 -1.16058 -0.130038 4
1.06378 -1.24766 -0.254486 3
1.45472 -2.47969 -0.760432 4
2.98652 -5.13474 1.36114 14
3.32641 -3.89951 1.3622 9
2.99067 -5.13983 0.934197 15
3.33492 -3.9232 0.993222 9
2.9932 -5.14214 0.517487 15
0.984141 -1.16624 0.182848 11
2.40506 -4.13287 0.0828553 4
0.997307 -1.18338 0.079289 8
1.59542 -2.74286 -0.165013 32
0.991628 -1.17751 -0.0262659 8
0.980028 -1.16384 -0.12982 3
1.05724 -1.25322 -0.254486 3
1.44699 -2.49538 -0.763019 4
2.97023 -5.1273 1.35777 15
3.3337 -3.92186 1.36802 9
2.97674 -5.1365 0.932636 15
3.33532 -3.93896 0.995605 9
2.97798 -5.13658 0.516398 15
0.978899 -1.16416 0.18224 9
2.39712 -4.13748 0.0828553 4
0.993629 -1.18321 0.0791581 8
1.58688 -2.73916 -0.16462 36
0.997635 -1.18878 -0.026484 8
0.984422 -1.17316 -0.13069 3
1.05664 -1.25694 -0.254878 3
1.43979 -2.49397 -0.761726 4
2.93278 -5.12637 1.35328 15
3.32332 -3.95276 1.37254 9
2.94033 -5.13752 0.929904 15
3.33516 -3.9808 1.0018 9
2.94396 -5.14181 0.515308 15
0.970993 -1.16754 0.181936 8
2.37791 -4.15431 0.0829426 4
0.984011 -1.18474 0.0788964 4
1.5688 -2.74093 -0.164226 45
0.984779 -1.18649 -0.0263095 8
0.975072 -1.17447 -0.130255 3
1.05299 -1.26643 -0.255661 4
1.4303 -2.50777 -0.763665 4
1.0905 -1.30856 -0.384646 8
2.92351 -5.12886 1.35272 15
3.33039 -3.97521 1.37835 9
2.92524 -5.13192 0.927953 15
3.3408 -4.00168 1.00561 9
2.92388 -5.12747 0.513347 15
0.973722 -1.17495 0.182848 3
2.3756 -4.16715 0.0831171 4
0.986735 -1.19221 0.079289 4
1.56649 -2.748 -0.164488 50
0.985905 -1.19205 -0.0263968 4
0.976208 -1.18 -0.13069 4
1.0571 -1.27585 -0.257227 4
1.42353 -2.50606 -0.762372 4
1.0851 -1.30673 -0.383523 9
2.88736 -5.12974 1.34879 15
3.31879 -4.00374 1.38223 9
2.8947 -5.14071 0.926783 15
3.33076 -4.03235 1.00895 8
2.8921 -5.13402 0.512476 15
0.967556 -1.18003 0.182848 4
2.3513 -4.17517 0.0830298 4
0.975716 -1.19158 0.0788964 4
1.55208 -2.75617 -0.164488 49
0.97965 -1.19719 -0.0263968 4
0.970016 -1.18509 -0.13069 3
1.04749 -1.27738 -0.256444 4
1.41157 -2.51559 -0.763019 4
2.87692 -5.13002 1.34767 15
3.32411 -4.02441 1.3874 9
2.87575 -5.12586 0.923271 15
3.3362 -4.0533 1.01276 8
2.8807 -5.13472 0.51204 15
0.962549 -1.17772 0.18224 3
2.34523 -4.18145 0.0830734 4
0.975427 -1.19504 0.0790273 4
1.54726 -2.75887 -0.164488 45
0.985487 -1.20856 -0.0266149 4
0.972687 -1.19256 -0.131343 4
1.67948 -3.00098 -0.660442 4
1.0484 -1.28302 -0.257227 4
1.40718 -2.51805 -0.763019 4
2.83704 -5.12157 1.34149 15
3.31441 -4.05426 1.39192 9
2.84169 -5.12789 0.920929 15
3.32496 -4.08155 1.01562 8
2.84864 -5.13834 0.510951 15
0.964201 -1.19237 0.183761 3
2.31798 -4.18233 0.0828553 4
0.970731 -1.20207 0.0791581 4
1.53038 -2.76257 -0.164226 45
0.979357 -1.21354 -0.0266149 4
2.70419 -4.88768 -0.680585 23
0.963289 -1.19377 -0.130908 4
1.6524 -2.98796 -0.65568 4
1.04634 -1.29424 -0.258401 4
1.39792 -2.53148 -0.764959 4
2.82574 -5.12224 1.34037 15
3.32718 -4.08436 1.40033 8
2.86852 -5.19771 0.932636 12
2.85772 -5.17601 0.514219 12
0.962118 -1.19405 0.183761 3
2.31236 -4.19115 0.0829426 4
0.974916 -1.21152 0.0796815 4
1.52797 -2.76961 -0.164488 42
0.97881 -1.21719 -0.0266585 4
2.69566 -4.8924 -0.680585 12
0.961204 -1.19545 -0.130908 3
1.64245 -2.98224 -0.653776 8
1.03786 -1.28839 -0.256835 4
1.39073 -2.52993 -0.763665 4
2.78983 -5.12248 1.33643 15
2.84744 -5.22617 0.934977 14
2.84992 -5.22858 0.517923 14
0.960301 -1.20504 0.184674 3
2.28919 -4.20101 0.0828989 4
0.969908 -1.21873 0.0798123 4
1.51702 -2.78415 -0.164882 42
0.970648 -1.22051 -0.0266149 8
2.681 -4.92871 -0.683628 12
0.953375 -1.19852 -0.13069 3
1.61809 -2.97599 -0.650442 8
1.04345 -1.30922 -0.259967 4
1.37631 -2.53505 -0.763019 4
2.78643 -5.13542 1.33868 12
2.85336 -5.25668 0.93966 12
2.85267 -5.25544 0.520102 12
0.959957 -1.20849 0.184978 3
2.28066 -4.2028 0.0828553 4
0.96332 -1.2144 0.0794198 3
1.51454 -2.79118 -0.165145 42
0.971634 -1.22612 -0.0267022 4
2.67916 -4.94383 -0.685149 12
0.957494 -1.20797 -0.13156 3
1.61173 -2.97665 -0.649966 8
1.03654 -1.30525 -0.258793 3
1.37074 -2.53532 -0.762372 8
2.7756 -5.18001 1.34654 14
2.92251 -5.4498 0.537969 1
0.959773 -1.22128 0.186195 3
2.25346 -4.20327 0.0826371 4
0.960042 -1.22334 0.0796815 3
1.49686 -2.79221 -0.164751 33
0.966964 -1.23298 -0.0267458 4
2.66143 -4.9731 -0.687279 14
0.948282 -1.20889 -0.131125 3
1.5897 -2.97178 -0.647109 8
1.02816 -1.30872 -0.258401 4
1.35789 -2.54223 -0.762372 8
2.78466 -5.2166 1.35497 14
2.88954 -5.41095 0.533611 1
0.951497 -1.21516 0.184978 3
2.24494 -4.20499 0.0825935 4
0.95945 -1.22698 0.0798123 3
1.49081 -2.79261 -0.16462 20
0.967901 -1.2386 -0.0268331 4
2.64692 -4.96679 -0.685758 11
0.94925 -1.21446 -0.13156 3
1.5799 -2.96588 -0.645205 8
1.00755 -1.28724 -0.253703 4
1.35798 -2.55313 -0.764959 4
2.77342 -5.26392 1.36339 12
3.05709 -5.80019 1.03058 3
2.92735 -5.55159 0.546031 3
0.946647 -1.22208 0.185282 3
2.21707 -4.20563 0.0823754 4
0.953012 -1.23199 0.0798123 3
1.46521 -2.78076 -0.163438 8
0.959867 -1.24167 -0.0267894 4
2.62434 -4.98717 -0.68667 8
0.95184 -1.23137 -0.132865 3
1.55864 -2.96325 -0.642824 9
0.990171 -1.27886 -0.250962 9
1.33899 -2.54951 -0.761726 4
2.78233 -5.30328 1.37237 12
3.04122 -5.79458 1.02863 4
2.95701 -5.63167 0.553439 4
0.952123 -1.23353 0.186804 3
2.21595 -4.22316 0.0826371 4
0.956981 -1.24154 0.0803357 3
1.46499 -2.79215 -0.163963 9
0.962293 -1.24927 -0.0269203 4
2.61333 -4.98735 -0.686062 4
0.951216 -1.235 -0.133082 3
1.54664 -2.95292 -0.639967 8
0.972798 -1.26108 -0.247047 9
1.33744 -2.5585 -0.763665 8
2.76927 -5.34854 1.38023 8
3.00302 -5.7978 1.02629 4
2.91848 -5.63211 0.551914 4
0.943924 -1.2367 0.186499 3
2.19151 -4.23027 0.0825499 4
0.951769 -1.24868 0.0804665 3
1.44462 -2.7887 -0.163307 11
0.952478 -1.25049 -0.0268331 4
2.57947 -4.98819 -0.684236 3
0.947767 -1.24392 -0.133517 8
1.52051 -2.94162 -0.635681 9
0.959946 -1.25849 -0.245481 4
1.32071 -2.55903 -0.761726 4
1.47442 -1.92463 -0.550858 44
2.77761 -5.38537 1.38866 3
2.87749 -5.57915 0.986487 4
2.8938 -5.60842 0.549081 9
0.947797 -1.24622 0.187716 3
0.955653 -1.25827 0.0809899 3
1.4386 -2.789 -0.163176 8
0.95788 -1.26209 -0.0270512 4
0.945595 -1.24557 -0.133517 11
1.50976 -2.93336 -0.6333 11
0.948748 -1.2484 -0.243132 4
1.31403 -2.55703 -0.760432 4
1.4681 -1.92333 -0.549735 38
2.76721 -5.43723 1.3982 11
2.86168 -5.62055 0.99117 9
2.88247 -5.65901 0.552567 9
0.938263 -1.24721 0.187108 3
0.944534 -1.25728 0.0805974 4
1.42398 -2.79649 -0.163176 14
0.948245 -1.2631 -0.026964 4
0.943565 -1.25647 -0.13417 8
1.48994 -2.93247 -0.631396 12
0.943907 -1.25515 -0.243524 3
1.3039 -2.57034 -0.762372 4
1.45212 -1.92322 -0.547489 9
2.77298 -5.46982 1.4055 9
2.85173 -5.62283 0.990779 14
2.85232 -5.62404 0.548645 14
0.946766 -1.26255 0.189237 3
1.36934 -2.69956 0.0522263 9
0.951573 -1.27073 0.0813824 4
1.41458 -2.79006 -0.16265 11
0.949046 -1.26874 -0.0270512 4
0.939872 -1.25612 -0.133952 3
1.47375 -2.91316 -0.626634 11
0.940229 -1.25482 -0.243132 3
1.29506 -2.56398 -0.759786 4
1.45497 -1.93328 -0.549735 3
0.937173 -1.26351 0.188629 3
1.35007 -2.69528 0.0520082 9
0.941922 -1.27169 0.0811207 3
1.41 -2.81753 -0.163832 8
0.945598 -1.27754 -0.0271385 4
0.936258 -1.26502 -0.134387 3
1.45789 -2.91839 -0.626158 9
0.929217 -1.25379 -0.241958 3
1.28422 -2.57483 -0.761079 4
1.4492 -1.94672 -0.55142 4
0.942371 -1.2751 0.19015 3
1.346 -2.7001 0.0520518 8
0.944167 -1.27935 0.0815132 3
1.38617 -2.78199 -0.1616 4
0.950815 -1.28922 -0.0273566 4
0.93108 -1.26265 -0.133952 3
1.44733 -2.90994 -0.623777 9
0.93881 -1.27127 -0.24509 4
1.27928 -2.57729 -0.761079 8
1.45745 -1.96488 -0.555912 4
2.96589 -6.03228 1.05673 15
3.30149 -4.48455 1.07472 15
2.9691 -6.03618 0.585469 18
0.935458 -1.28018 0.19015 3
1.33185 -2.70711 0.0520518 8
0.935754 -1.28242 0.0813824 3
1.37269 -2.79145 -0.161732 8
0.942347 -1.29233 -0.027313 4
0.927403 -1.27153 -0.134387 3
1.43481 -2.92434 -0.625206 11
0.930678 -1.27418 -0.244698 4
1.26895 -2.59046 -0.763019 4
1.45113 -1.97862 -0.557597 3
3.15027 -6.43583 1.64359 15
3.29353 -4.47385 1.47722 15
2.95424 -6.0325 1.05595 15
3.30383 -4.50415 1.07806 14
2.95199 -6.02794 0.584161 15
0.931979 -1.27965 0.189846 3
0.941111 -1.29396 0.0820366 3
1.35794 -2.77366 -0.16055 4
0.945991 -1.30205 -0.0274875 4
0.923713 -1.27113 -0.13417 3
1.42432 -2.91581 -0.622825 9
1.26443 -2.59267 -0.763019 4
3.14195 -6.50489 1.65707 15
3.28935 -4.51582 1.48562 14
2.91724 -6.03676 1.054 15
3.30264 -4.55059 1.0852 14
2.91927 -6.03831 0.583726 15
0.925266 -1.28451 0.189846 3
0.938714 -1.30494 0.0824291 3
1.34389 -2.7805 -0.16055 4
0.939389 -1.30682 -0.0274875 4
0.923107 -1.28386 -0.135039 3
1.41167 -2.9274 -0.623777 9
1.25233 -2.60122 -0.763665 4
1.47627 -2.04168 -0.572758 4
3.15284 -6.55372 1.6683 15
3.29425 -4.53914 1.49144 14
2.90028 -6.02849 1.05165 15
3.30909 -4.57622 1.08997 14
2.89901 -6.0232 0.581765 15
0.933194 -1.3002 0.191976 3
0.933515 -1.30253 0.0821674 3
1.32714 -2.75809 -0.159106 3
0.938568 -1.31049 -0.0275312 4
1.41399 -2.94535 -0.62711 11
1.24988 -2.60775 -0.764959 3
1.52268 -2.11334 -0.592411 9
3.14865 -6.63672 1.68514 24
3.28454 -4.57593 1.4979 14
2.85491 -6.01459 1.04658 14
3.30367 -4.61942 1.09617 14
2.85996 -6.02255 0.580239 15
0.923488 -1.30103 0.191367 3
0.933931 -1.31756 0.0828216 3
1.32823 -2.79907 -0.161075 9
0.930243 -1.31335 -0.0274875 4
1.4059 -2.96824 -0.630444 11
1.23414 -2.60989 -0.763665 3
3.1381 -6.64441 1.6857 36
3.29905 -4.61307 1.50824 14
2.83809 -6.00617 1.04424 15
3.30762 -4.64373 1.10046 14
0.926972 -1.31073 0.192584 3
0.933076 -1.32122 0.0829525 3
1.31802 -2.79009 -0.160419 8
0.930844 -1.31904 -0.0275748 4
1.40803 -2.98623 -0.633777 11
1.22605 -2.6057 -0.761726 3
3.09491 -6.64583 1.68177 30
3.28102 -4.6407 1.51147 14
3.30449 -4.69106 1.1076 14
0.93309 -1.33647 0.0836067 3
1.30339 -2.79695 -0.160419 8
0.933747 -1.33838 -0.0278802 4
1.39186 -2.99381 -0.633777 11
1.21137 -2.6099 -0.761079 3
3.07832 -6.63742 1.67841 30
3.28684 -4.66615 1.51793 14
3.31182 -4.71891 1.11285 14
0.929557 -1.33589 0.0834758 3
1.29851 -2.79922 -0.160419 9
0.929977 -1.33796 -0.0278366 4
1.38663 -2.99623 -0.633777 9
1.20682 -2.61201 -0.761079 3
3.03947 -6.64459 1.67616 30
3.29083 -4.72234 1.53086 14
3.30471 -4.75979 1.11857 41
1.27704 -2.78725 0.265171 23
1.28536 -2.80803 -0.16055 8
0.928882 -1.35087 -0.0280111 4
1.37552 -3.01215 -0.635681 9
1.19458 -2.62028 -0.761726 4
3.02297 -6.63605 1.67279 29
3.30051 -4.75385 1.53926 39
3.31038 -4.78572 1.12333 49
1.25978 -2.76228 0.262557 29
1.27529 -2.79891 -0.159894 9
0.932198 -1.36072 -0.0281856 4
1.39055 -3.05923 -0.645205 9
1.65419 -2.40458 -0.457292 17
1.191 -2.62456 -0.762372 4
3.29747 -4.8029 1.5496 45
3.30885 -4.8374 1.13143 47
1.24734 -2.77338 0.262992 30
1.21759 -2.7084 0.0512228 12
1.26115 -2.80805 -0.160025 14
0.92506 -1.36559 -0.0281856 4
1.64854 -2.4234 -0.45925 15
1.17429 -2.62414 -0.760432 4
1.6044 -2.35353 -0.648564 41
3.3041 -4.83056 1.55671 45
2.22404 -4.97313 0.855372 2
3.3134 -4.86402 1.1362 47
1.25063 -2.79374 0.264736 15
1.2134 -2.71302 0.0512664 9
1.25625 -2.81024 -0.160025 24
0.926888 -1.3734 -0.0283165 4
1.64986 -2.43444 -0.460816 15
1.17023 -2.6286 -0.761079 3
1.60029 -2.35632 -0.648564 36
3.30094 -4.88236 1.56769 47
2.20008 -4.99187 0.856542 2
3.30161 -4.90164 1.14097 47
1.23249 -2.79363 0.264082 23
1.19515 -2.71018 0.0510919 8
1.23648 -2.80536 -0.159369 12
0.92223 -1.38255 -0.0284038 3
1.52327 -3.46498 -0.727581 12
1.6426 -2.45125 -0.462382 23
1.15645 -2.63469 -0.761079 4
1.59296 -2.37303 -0.65081 36
3.30457 -4.90613 1.57351 47
3.31495 -4.93999 1.14859 50
1.22861 -2.79806 0.2643 15
1.18741 -2.7054 0.050961 9
1.23359 -2.81208 -0.159631 12
0.925373 -1.39247 -0.0285783 3
1.51525 -3.46313 -0.726629 9
1.64519 -2.46436 -0.464339 24
1.15378 -2.64113 -0.762372 4
1.58923 -2.37553 -0.65081 42
3.29578 -4.9469 1.58126 49
3.30621 -4.98122 1.15431 56
1.21147 -2.79738 0.263646 11
1.17172 -2.70678 0.0508738 8
1.22627 -2.83433 -0.16055 15
2.16223 -5.00749 -0.664461 36
1.52005 -3.52259 -0.737581 8
1.63227 -2.47295 -0.464339 29
1.14231 -2.65138 -0.763665 4
1.57138 -2.3757 -0.648564 32
3.29918 -4.97074 1.58708 55
3.30023 -4.99108 1.15526 52
1.2056 -2.7972 0.263428 11
1.16403 -2.70194 0.0507429 9
1.21442 -2.82042 -0.159631 11
2.14859 -4.99985 -0.662939 38
1.62387 -2.46961 -0.463165 33
1.13578 -2.64893 -0.762372 3
1.56723 -2.37844 -0.648564 42
2.81452 -6.63988 1.65426 42
3.27489 -4.99256 1.58837 47
2.81341 -6.63405 1.13321 45
3.26242 -4.99244 1.15145 42
1.18656 -2.79452 0.262557 9
1.15525 -2.722 0.0510047 18
1.19038 -2.80626 -0.15845 4
2.1186 -5.00455 -0.662027 35
1.60552 -2.4698 -0.461599 27
1.12424 -2.66171 -0.764312 4
1.55434 -2.38688 -0.648564 32
2.79841 -6.63083 1.65089 42
3.2503 -4.97402 1.58062 39
2.79722 -6.62481 1.13087 47
3.24566 -4.98579 1.14859 41
1.18071 -2.79429 0.262339 11
1.14466 -2.7102 0.0507429 17
1.16996 -2.77152 -0.156349 9
2.10592 -4.99644 -0.660506 38
1.59986 -2.47053 -0.461207 32
1.11773 -2.65921 -0.763019 3
1.55724 -2.39953 -0.651372 35
2.76085 -6.63864 1.64921 42
3.21852 -4.98027 1.57739 38
2.75776 -6.62797 1.12892 45
3.2102 -4.98828 1.14526 39
1.16655 -2.80023 0.262339 9
1.13142 -2.71846 0.0507865 9
1.15256 -2.77069 -0.155955 9
2.07308 -4.99135 -0.658376 38
1.5829 -2.47264 -0.460033 33
1.10287 -2.6628 -0.762372 4
1.54819 -2.41406 -0.653056 38
2.74646 -6.63669 1.64752 36
3.21157 -4.9905 1.57868 38
2.74314 -6.62869 1.12814 41
3.19797 -4.9903 1.1443 33
1.16498 -2.81167 0.26321 9
3.20981 -5.02216 0.726526 8
1.12142 -2.70908 0.0505683 9
1.1501 -2.77982 -0.156349 4
2.06065 -4.98844 -0.657463 39
1.57682 -2.4736 -0.459641 36
1.09959 -2.66938 -0.763665 4
1.54486 -2.41908 -0.653618 39
2.69786 -6.63031 1.64191 30
3.18666 -5.01503 1.58062 26
2.70026 -6.63294 1.12619 33
3.1937 -5.04539 1.15288 1
1.15065 -2.82294 0.263646 4
3.18348 -5.04475 0.727134 8
1.11381 -2.73382 0.0509174 9
3.18731 -5.0586 0.31153 9
1.1355 -2.78852 -0.156481 12
2.03095 -4.99793 -0.657159 42
1.70092 -2.70476 -0.27595 14
1.56518 -2.48681 -0.460424 38
1.08285 -2.671 -0.762372 4
1.53394 -2.43179 -0.654741 29
2.6847 -6.62776 1.64022 30
3.17015 -5.00834 1.57674 3
2.68127 -6.61933 1.12307 33
3.18882 -5.05718 1.15431 4
1.14385 -2.82033 0.26321 4
3.19583 -5.0839 0.732002 11
1.10997 -2.73808 0.050961 9
3.18911 -5.08106 0.312576 9
1.12594 -2.77892 -0.155824 11
1.69884 -2.71195 -0.276385 38
1.56347 -2.49372 -0.461207 15
1.07458 -2.66392 -0.759786 3
1.54139 -2.45301 -0.659795 36
2.64519 -6.63314 1.63798 30
3.14901 -5.03306 1.57932 17
2.642 -6.62181 1.12111 33
3.19999 -5.13418 1.16813 12
1.12814 -2.82397 0.262992 8
3.18752 -5.13006 0.736261 23
1.09933 -2.75314 0.0511355 9
3.16378 -5.09981 0.312707 8
1.12062 -2.80797 -0.157137 11
1.68988 -2.72926 -0.277255 52
1.4576 -3.66272 -0.758056 8
1.55083 -2.5016 -0.461207 39
1.06418 -2.67849 -0.762372 4
1.54399 -2.48585 -0.666533 35
2.63027 -6.62596 1.63517 30
3.13255 -5.02625 1.57545 38
2.63068 -6.62366 1.12072 33
3.20529 -5.16268 1.17337 18
1.12505 -2.83056 0.263428 8
3.18862 -5.14982 0.738391 18
1.09913 -2.76667 0.0513537 8
3.15708 -5.1069 0.312838 8
1.11848 -2.81688 -0.157531 2
1.17022 -2.95034 -0.384864 9
1.67987 -2.72374 -0.276385 45
1.45391 -3.6721 -0.759484 4
1.55166 -2.5127 -0.462773 39
1.05595 -2.67136 -0.759786 3
1.55679 -2.51518 -0.673833 35
2.59289 -6.63284 1.63348 32
3.10199 -5.03383 1.57286 38
2.49618 -6.38205 1.07741 1
3.16754 -5.16002 1.16909 15
1.10708 -2.82694 0.262557 9
3.14345 -5.13683 0.734132 15
1.09148 -2.7885 0.0516591 8
3.12509 -5.11484 0.312315 9
1.11057 -2.83879 -0.15845 3
1.15475 -2.95643 -0.384864 8
1.65956 -2.72158 -0.275298 35
1.43263 -3.67256 -0.758056 4
1.54106 -2.525 -0.463556 41
1.04505 -2.68342 -0.761726 3
1.56654 -2.56066 -0.68394 15
2.57717 -6.62328 1.63011 32
3.08814 -5.031 1.57028 38
2.57722 -6.62345 1.1176 35
3.14443 -5.14252 1.16384 14
1.10937 -2.84744 0.2643 4
3.12543 -5.12748 0.732002 14
1.08752 -2.79273 0.0517027 9
1.11285 -2.85934 -0.1595 2
1.15318 -2.9677 -0.386081 8
1.65481 -2.72448 -0.275298 47
1.42888 -3.68192 -0.759484 4
1.04297 -2.692 -0.763665 3
2.53955 -6.63258 1.62899 32
3.05674 -5.03885 1.56769 38
2.53809 -6.62532 1.11565 35
3.1073 -5.14212 1.16003 14
1.09177 -2.84623 0.263646 8
3.09726 -5.14165 0.731698 14
1.07824 -2.81239 0.0519645 8
1.10232 -2.87678 -0.160156 3
1.64052 -2.7331 -0.275298 52
1.40696 -3.68247 -0.758056 4
1.02457 -2.68614 -0.760432 4
2.52393 -6.6229 1.62562 32
3.03793 -5.02765 1.56252 38
2.52504 -6.62238 1.11448 35
3.09578 -5.14333 1.15908 14
1.08946 -2.85511 0.2643 4
3.08278 -5.13588 0.730177 15
1.076 -2.82127 0.0520954 9
2.47853 -4.13752 0.250951 3
1.10263 -2.8927 -0.160944 3
1.62934 -2.72528 -0.27421 49
1.40314 -3.6918 -0.759484 4
1.02159 -2.69244 -0.761726 4
2.48408 -6.62234 1.62225 32
3.00625 -5.0326 1.55929 38
2.48339 -6.61701 1.11136 33
3.06594 -5.15261 1.15765 14
1.08462 -2.88624 0.266697 4
3.04698 -5.13701 0.728047 14
1.07224 -2.85477 0.052619 8
2.4581 -4.15258 0.251082 4
1.09498 -2.91695 -0.161994 3
1.82974 -4.8847 -0.635254 12
1.61553 -2.7335 -0.27421 49
1.38272 -3.69426 -0.758532 4
1.01132 -2.70663 -0.764312 3
1.59837 -2.69506 -0.714263 8
2.47198 -6.62166 1.62113 32
2.9888 -5.02332 1.55477 38
2.47127 -6.61628 1.11058 33
3.04817 -5.14318 1.15431 14
1.09265 -2.92313 0.269965 8
3.03132 -5.12898 0.726222 15
1.06901 -2.86132 0.0527063 9
2.4503 -4.15429 0.250951 4
1.10036 -2.94692 -0.163569 4
1.81514 -4.86897 -0.63282 12
1.60569 -2.72773 -0.273341 49
1.37627 -3.69667 -0.758532 4
1.00744 -2.71065 -0.764959 4
1.61526 -2.73319 -0.723809 8
2.43223 -6.6208 1.61776 33
2.95721 -5.02798 1.55154 39
2.43148 -6.61522 1.10824 33
3.01589 -5.14796 1.15193 14
2.99189 -5.12337 0.723179 14
1.07261 -2.91597 0.0536225 12
2.4323 -4.17353 0.251343 4
2.39852 -4.11898 -0.0825935 3
1.78108 -4.8551 -0.629777 12
1.58684 -2.72722 -0.272471 42
1.35417 -3.69437 -0.756627 4
2.31991 -3.978 -0.724698 8
0.99122 -2.70891 -0.763019 4
1.57506 -2.69747 -0.712017 8
2.42016 -6.62003 1.61664 33
2.94109 -5.02063 1.54766 38
2.41824 -6.61482 1.10746 33
2.99947 -5.1405 1.14907 14
2.9792 -5.12215 0.722266 14
1.08982 -2.97888 0.0547569 12
2.41999 -4.16914 0.25082 4
2.38881 -4.11884 -0.0825062 3
1.57331 -2.71492 -0.270949 15
1.35107 -3.70595 -0.758532 4
2.31172 -3.97991 -0.724307 8
0.988965 -2.71745 -0.764959 4
1.57772 -2.71284 -0.715386 12
2.37772 -6.61469 1.61214 33
2.90507 -5.01925 1.54249 38
2.38107 -6.62042 1.10629 33
2.96269 -5.13914 1.14526 14
2.37973 -6.6131 0.611833 36
2.94367 -5.12262 0.720137 14
1.08774 -3.02218 0.055455 4
2.40186 -4.18824 0.251213 4
2.37219 -4.13996 -0.0826808 3
1.65416 -4.60815 -0.596007 3
1.55659 -2.7188 -0.270514 15
1.33 -3.70835 -0.75758 4
2.29208 -3.9941 -0.724698 8
0.973098 -2.71804 -0.763665 4
1.57566 -2.74217 -0.721001 3
2.36732 -6.61841 1.61214 30
2.89148 -5.01595 1.53991 38
2.36618 -6.61526 1.10472 33
2.95005 -5.13792 1.14383 15
2.36818 -6.61724 0.611833 38
2.93472 -5.12775 0.720137 15
1.03114 -2.88049 0.0527935 2
2.39206 -4.1881 0.250951 4
1.57198 -4.39593 -0.243648 3
1.64528 -4.6087 -0.595702 9
1.53948 -2.6999 -0.268339 12
1.32599 -3.7176 -0.759008 4
2.29124 -4.00881 -0.726656 4
0.966734 -2.71518 -0.762372 3
1.63639 -2.85899 -0.751324 4
2.32825 -6.62193 1.6099 33
2.85919 -5.02053 1.53667 39
2.32496 -6.60892 1.1016 35
2.91219 -5.13409 1.13954 15
2.89927 -5.12794 0.718007 15
1.0235 -2.90708 0.0531862 2
2.3701 -4.20056 0.250951 4
1.54232 -4.38526 -0.242597 3
1.62277 -4.62193 -0.596311 4
1.53512 -2.72526 -0.270079 26
1.30489 -3.71986 -0.758056 8
2.26727 -4.01391 -0.725481 8
0.955693 -2.72933 -0.764959 4
1.61298 -2.85268 -0.747393 4
2.31383 -6.61408 1.60709 33
2.84446 -5.01502 1.53344 39
2.31458 -6.61257 1.1016 35
2.90443 -5.1413 1.14001 15
2.23723 -6.39148 0.589391 17
2.88634 -5.12384 0.71679 15
1.00275 -2.86403 0.0523572 8
2.36473 -4.20646 0.251082 4
1.53467 -4.38795 -0.242597 3
1.685 -3.0038 -0.0595127 12
1.62287 -4.64556 -0.599049 3
1.52548 -2.71926 -0.269209 49
1.29839 -3.72213 -0.758056 4
2.26148 -4.02001 -0.725873 8
0.948548 -2.72415 -0.763019 4
1.63248 -2.89763 -0.758623 9
2.27441 -6.61228 1.60372 32
2.81549 -5.02303 1.5315 39
2.2751 -6.61058 1.09926 35
2.86879 -5.1388 1.1362 15
2.20161 -6.3933 0.588519 17
2.85464 -5.13021 0.715573 15
0.984992 -2.85961 0.0521827 4
2.33781 -4.21005 0.250558 4
1.5068 -4.38176 -0.24181 4
1.63941 -2.95768 -0.0584219 9
1.68067 -4.89339 -0.630082 26
1.51727 -2.73809 -0.270296 49
1.27954 -3.72866 -0.758056 8
2.2416 -4.03395 -0.726264 8
0.937093 -2.73577 -0.764959 4
1.61728 -2.90614 -0.758623 8
2.26208 -6.61394 1.60316 32
2.80082 -5.0174 1.52827 39
2.26196 -6.60987 1.09848 35
2.85414 -5.13572 1.13429 14
2.18561 -6.38299 0.587212 15
2.8529 -5.1482 0.717399 12
0.981925 -2.86859 0.0523136 3
2.32925 -4.21195 0.250428 4
1.49754 -4.37965 -0.241547 8
1.6185 -2.93211 -0.0578547 9
1.68575 -4.93624 -0.635254 15
1.51128 -2.73856 -0.270079 49
1.27144 -3.72624 -0.757104 4
2.23096 -4.03138 -0.72509 8
0.931839 -2.73756 -0.764959 4
1.61458 -2.91321 -0.759746 8
2.22316 -6.61684 1.60091 32
2.7678 -5.02191 1.52504 39
2.22302 -6.61265 1.09692 35
2.84495 -5.18285 1.14144 12
2.14945 -6.39001 0.586776 17
2.85841 -5.22449 0.725917 15
0.975648 -2.89976 0.0527935 2
2.31002 -4.23106 0.25082 4
1.46982 -4.37324 -0.24076 8
1.58942 -2.9167 -0.0573748 14
1.66139 -4.95235 -0.636166 17
1.49692 -2.74643 -0.270079 50
1.25438 -3.74237 -0.759008 4
2.20912 -4.0434 -0.72509 8
0.918257 -2.74469 -0.765605 3
1.59645 -2.91763 -0.758623 8
2.20968 -6.61108 1.59867 32
2.75437 -5.01827 1.52246 39
2.2107 -6.61418 1.09653 35
2.84769 -5.20934 1.14621 12
2.13593 -6.38666 0.586122 15
2.29905 -4.22851 0.250428 4
1.46139 -4.37343 -0.240628 4
1.58432 -2.91947 -0.0573748 17
1.65509 -4.96231 -0.637079 21
1.49094 -2.74685 -0.269861 50
1.24475 -3.73524 -0.757104 4
2.20678 -4.05591 -0.726656 8
0.911943 -2.74171 -0.764312 4
1.59018 -2.91828 -0.758062 8
2.17008 -6.61137 1.59586 33
2.7223 -5.02201 1.51923 41
2.17218 -6.61393 1.09458 36
2.83439 -5.25008 1.15193 11
2.09624 -6.37883 0.584379 15
2.28516 -4.25587 0.251343 4
1.44703 -4.40711 -0.242072 4
