# .PCD v0.7 - Point Cloud Data file format
VERSION 0.7
FIELDS x y z intensity
SIZE 4 4 4 4
TYPE F F F F
COUNT 1 1 1 1
WIDTH 1526
HEIGHT 1
VIEWPOINT 0 0 0 1 0 0 0
POINTS 1526
DATA ascii
-1.66649 -0.345391 -0.0291019 50
-0.806264 -0.0257441 -0.0946187 56
-0.807634 -0.0255094 -0.149992 52
-0.815234 -0.167168 -0.12646 50
-0.809758 -0.0250253 -0.207567 50
-0.80942 -0.166634 -0.182496 49
-6.86288 -0.201499 1.57452 1
-7.21828 -1.53061 1.96511 33
-7.27441 -0.214756 1.14453 36
-7.20764 -1.51526 1.42359 35
-7.28408 -0.215028 0.634494 30
-7.06819 -1.47687 0.88108 1
-3.10313 -0.0918585 0.0535789 11
-1.67714 -0.345486 0.0879244 55
-0.648792 -0.0201884 -0.0322938 61
-1.67443 -0.344012 -0.0292328 56
-0.806303 -0.0244776 -0.0946187 56
-0.815037 -0.0243067 -0.151421 52
-0.813107 -0.165239 -0.126069 50
-0.812214 -0.0236781 -0.208214 50
-0.812064 -0.165864 -0.183058 49
-6.85897 -0.165446 1.5734 1
-7.21648 -1.49209 1.96252 33
-7.2705 -0.176546 1.14375 36
-7.21281 -1.47826 1.42311 35
-7.29005 -0.178278 0.63493 29
-7.07097 -1.43885 0.880471 1
-3.10105 -0.0760909 0.0535353 11
-1.68382 -0.337695 0.0881861 55
-0.646393 -0.0167319 -0.0321625 59
-1.67615 -0.335532 -0.0292328 59
-0.80642 -0.0202555 -0.0946187 56
-0.810243 -0.020068 -0.150468 53
-0.8188 -0.161965 -0.126852 50
-0.805081 -0.019405 -0.206274 49
-0.810535 -0.161121 -0.182496 49
-6.87386 -0.153799 1.57677 1
-7.2167 -1.47901 1.96188 33
-7.27326 -0.163911 1.14414 35
-7.21323 -1.46392 1.42263 35
-7.28288 -0.165386 0.634276 30
-7.06617 -1.42503 0.879559 1
-3.09869 -0.0700817 0.0534916 15
-1.67951 -0.333769 0.0879244 56
-0.648917 -0.0156586 -0.0322938 59
-1.67918 -0.3331 -0.0292764 62
-0.808935 -0.0189017 -0.094923 56
-0.81273 -0.0187061 -0.150945 52
-0.80698 -0.158092 -0.124894 50
-0.807531 -0.0179087 -0.20692 49
-0.810815 -0.159706 -0.182496 50
-6.8819 -0.116728 1.57845 1
-7.22223 -1.43947 1.96123 33
-7.2691 -0.124473 1.14336 36
-7.21117 -1.42423 1.42073 35
-7.28865 -0.126065 0.634712 30
-7.07378 -1.38677 0.879559 1
-3.09652 -0.0538138 0.053448 29
-1.68129 -0.324677 0.0879244 56
-0.646494 -0.0122188 -0.0321625 59
-1.67851 -0.323529 -0.0292328 64
-0.809026 -0.0145247 -0.094923 56
-0.810366 -0.0142696 -0.150468 53
-0.81022 -0.15434 -0.125285 50
-0.810028 -0.0137169 -0.207567 50
-0.809277 -0.154845 -0.181935 50
-6.91374 -0.106399 1.58575 1
-7.21526 -1.42498 1.95865 35
-7.26188 -0.112941 1.14219 33
-7.21124 -1.41117 1.42025 35
-7.06621 -1.37376 0.878342 1
-3.10161 -0.0484852 0.0535353 35
-1.67445 -0.320607 0.0875319 56
-0.646514 -0.0110905 -0.0321625 59
-1.68398 -0.321551 -0.02932 62
-0.806566 -0.0132175 -0.0946187 56
-0.807935 -0.0128205 -0.149992 53
-0.810488 -0.152926 -0.125285 50
-0.810051 -0.0123031 -0.207567 50
-0.807129 -0.153105 -0.181373 49
-7.21763 -1.38753 1.95735 33
-7.21106 -1.37327 1.41882 33
-7.06843 -1.33582 0.877733 1
-3.09681 -0.0327354 0.053448 24
-1.67856 -0.312299 0.0876627 55
-0.646563 -0.00770518 -0.0321625 59
-1.6733 -0.310707 -0.0291019 59
-0.806624 -0.00899415 -0.0946187 58
-0.80799 -0.00873105 -0.149992 53
-0.813704 -0.14914 -0.125677 50
-0.812518 -0.00822315 -0.208214 50
-0.810313 -0.149333 -0.181935 49
-7.20581 -1.37221 1.95348 33
-7.20886 -1.35851 1.41787 35
-3.1056 -0.0279456 0.268658 8
-7.06831 -1.32302 0.877429 1
-3.09687 -0.0267899 0.053448 23
-1.6791 -0.309368 0.0876627 56
-0.646576 -0.00657671 -0.0321625 59
-1.65664 -0.304574 -0.0287965 58
-0.801676 -0.0075482 -0.0940102 58
-0.80555 -0.00730284 -0.149516 53
-0.804255 -0.145899 -0.124111 49
-0.810117 -0.00664762 -0.207567 50
-0.808178 -0.147467 -0.181373 49
-7.20838 -1.33232 1.95218 33
-3.10435 -0.0106085 0.485049 8
-7.20863 -1.31941 1.41644 35
-3.08329 -0.011072 0.266697 9
-7.07048 -1.28387 0.87682 1
-3.08697 -0.0105448 0.0532735 15
-1.68075 -0.300279 0.0876627 53
-0.646601 -0.00319117 -0.0321625 59
-0.801705 -0.00321063 -0.0940102 59
-0.805577 -0.00294431 -0.149516 55
-0.809867 -0.142571 -0.124894 50
-0.810141 -0.00240579 -0.207567 50
-0.806568 -0.142653 -0.180812 47
-7.2012 -1.31799 1.9496 33
-3.09695 -0.00572187 0.483878 2
-7.20609 -1.30595 1.41548 35
-3.08579 -0.00569409 0.266914 1
-7.06516 -1.27144 0.875908 1
-3.07948 -0.00514781 0.0531426 15
-1.67385 -0.296312 0.0872702 39
-0.646606 -0.00206263 -0.0321625 59
-0.801709 -0.00195131 -0.0940102 59
-0.808036 -0.00153874 -0.149992 53
-0.810114 -0.141157 -0.124894 50
-0.810144 -0.00099182 -0.207567 50
-0.809188 -0.141821 -0.181373 49
-7.20302 -1.28068 1.94831 33
-3.05002 0.0103136 0.476464 9
-7.20778 -1.26861 1.41453 35
-3.05092 0.00979672 0.263864 14
-7.06683 -1.23357 0.875299 1
-3.07947 0.0104389 0.0531426 20
-1.69505 -0.290978 0.0883169 39
-0.644111 0.00120012 -0.0320313 59
-0.799227 0.00223518 -0.093706 61
-0.805579 0.00253911 -0.149516 55
-0.810842 -0.136913 -0.124894 49
-0.810138 0.00310868 -0.207567 52
-0.80752 -0.13716 -0.180812 47
-7.20287 -1.26768 1.94766 33
-3.05247 0.0156506 0.476854 9
-7.20273 -1.25476 1.4131 35
-3.05089 0.0151216 0.263864 14
-7.06164 -1.21996 0.874387 1
-3.05195 0.01566 0.0526626 23
-1.69556 -0.288019 0.0883169 14
-0.646605 0.00233869 -0.0321625 61
-0.799222 0.00363009 -0.093706 59
-0.806214 -0.134656 -0.124111 50
-0.810132 0.00452263 -0.207567 52
-0.807758 -0.13575 -0.180812 47
-7.20702 -1.22954 1.94701 35
-3.06963 0.0318201 0.479586 9
-7.21162 -1.21744 1.41358 36
-3.04828 0.0310692 0.263646 14
-7.06793 -1.18297 0.874387 1
-3.04433 0.0315585 0.0525317 30
-1.72659 -0.284082 0.089887 14
-0.64159 0.00578133 -0.0319 59
-1.67451 -0.274773 -0.0290146 11
-0.79423 0.00775757 -0.0930975 59
-0.698224 -0.111736 -0.0587128 38
-0.806908 -0.130432 -0.124111 50
-0.802853 0.00867335 -0.205627 52
-0.81086 -0.131925 -0.181373 49
-7.20202 -1.21575 1.94508 36
-3.05969 0.0370534 0.478025 8
-7.19458 -1.20035 1.40977 35
-3.05071 0.0364203 0.263864 15
-7.06509 -1.16982 0.873778 1
-3.05176 0.0374987 0.0526626 23
-1.75171 -0.285146 0.0911954 14
-1.69472 -0.275109 -0.0293637 11
-0.796696 0.00917666 -0.0934018 61
-0.691047 -0.1093 -0.0580604 38
-0.804699 -0.12862 -0.123719 50
-0.802835 0.0102147 -0.205627 52
-0.806284 -0.129707 -0.18025 49
-7.20372 -1.17599 1.94378 36
-3.11129 0.0545395 0.486219 1
-6.97305 -1.12574 1.36497 1
-3.0679 0.053236 0.265389 2
-7.06397 -1.13039 0.872865 1
-3.05902 0.0536119 0.0527935 3
-1.77295 -0.278819 0.0922421 14
-1.70359 -0.267118 -0.0294946 11
-0.791673 0.0133944 -0.0927933 68
-0.69161 -0.10568 -0.0580604 39
-0.805361 -0.124405 -0.123719 50
-0.80277 0.0144182 -0.205627 52
-0.806974 -0.125342 -0.18025 50
-7.19623 -1.16187 1.9412 36
-6.96531 -1.11201 1.36306 1
-3.08275 0.0588825 0.266697 11
-7.05838 -1.11813 0.871953 1
-3.08392 0.0594438 0.0532298 14
-1.80051 -0.28033 0.0936814 14
-0.649003 0.011529 -0.0322938 62
-1.71393 -0.265703 -0.0296691 15
-0.796613 0.0147384 -0.0934018 68
-0.689333 -0.104084 -0.0578429 42
-0.808015 -0.123386 -0.124111 50
-0.807572 0.0159229 -0.20692 52
-0.804764 -0.12369 -0.179689 49
-7.20202 -1.12543 1.9412 35
-6.98055 -1.07825 1.36497 1
-7.06659 -1.08153 0.872257 1
-3.08108 0.0749901 0.0531862 14
-0.643942 0.0148015 -0.0320313 68
-0.796525 0.0189092 -0.0934018 71
-0.682482 -0.0993455 -0.0571906 42
-0.800442 0.0192825 -0.148564 55
-0.80865 -0.119154 -0.124111 50
-0.800239 0.019818 -0.20498 52
-0.8054 -0.119475 -0.179689 49
-7.15079 0.189586 1.64078 33
-7.19204 -1.11101 1.93797 35
-7.26271 0.191319 1.14258 36
-6.96563 -1.06224 1.36163 1
-7.06111 -1.06808 0.871344 1
-3.09592 0.0813056 0.053448 12
-0.648907 0.0160596 -0.0322938 73
-0.79649 0.0202994 -0.0934018 70
-0.685117 -0.0985258 -0.057408 44
-0.805314 0.0208149 -0.149516 58
-0.806416 -0.117372 -0.123719 50
-0.802614 0.021423 -0.205627 52
-0.803199 -0.117701 -0.179127 49
-7.15209 0.228351 1.64134 33
-7.19317 -1.07136 1.93668 33
-7.25416 0.230375 1.14141 36
-6.95895 -1.02396 1.35925 1
-7.27615 0.229818 0.63384 26
-7.05942 -1.02878 0.870431 1
-3.08546 0.0971953 0.0532735 11
-0.6563 0.0196975 -0.0326876 76
-0.801329 0.0247704 -0.0940102 71
-0.673301 -0.0931439 -0.0563208 45
-0.802737 0.0250908 -0.14904 56
-0.804596 -0.11265 -0.123328 49
-0.804904 0.0257065 -0.206274 52
-0.803824 -0.113354 -0.179127 47
-7.15172 0.239585 1.64134 33
-7.19025 -1.0581 1.93538 33
-7.26116 0.243285 1.14258 36
-6.96073 -1.01181 1.35925 1
-7.27823 0.242601 0.634058 29
-7.05875 -1.0161 0.870127 1
-3.10527 0.103254 0.0536225 9
-0.656264 0.0208429 -0.0326876 80
-0.798805 0.0260837 -0.093706 71
-0.678393 -0.0926773 -0.0567557 45
-0.807597 0.0266622 -0.149992 58
-0.804791 -0.111246 -0.123328 50
-0.797618 0.0268547 -0.204334 52
-0.804021 -0.111951 -0.179127 49
-7.14789 0.278181 1.64078 33
-7.19569 -1.02044 1.93538 33
-7.25978 0.281301 1.14258 38
-6.96107 -0.974668 1.35829 1
-7.27686 0.280706 0.634058 29
-7.04431 -0.97639 0.867693 1
-3.12717 0.120387 0.0540152 3
-0.656146 0.0242788 -0.0326876 82
-0.793698 0.0300693 -0.0930975 73
-0.666534 -0.0874168 -0.0556684 47
-0.804994 0.0307924 -0.149516 58
-0.800453 -0.106491 -0.122545 50
-0.802292 0.031227 -0.205627 52
-0.807009 -0.108077 -0.179689 50
-7.14501 0.289309 1.64022 33
-7.19746 -1.00788 1.93538 33
-7.26673 0.293004 1.14375 35
-6.95304 -0.961166 1.35639 1
-7.27138 0.293204 0.633622 32
-7.04092 -0.964647 0.867085 1
-3.05757 -0.414006 0.159886 9
-0.656103 0.0254239 -0.0326876 85
-0.796129 0.0314182 -0.0934018 73
-0.671621 -0.0869276 -0.0561033 45
-0.807391 0.0322996 -0.149992 58
-0.800638 -0.105093 -0.122545 50
-0.802236 0.0326272 -0.205627 52
-0.804764 -0.106475 -0.179127 49
-7.15313 0.327163 1.64247 36
-7.18811 -0.969488 1.93151 32
-7.2577 0.33071 1.14258 32
-6.95538 -0.925636 1.35591 1
-7.28473 0.330685 0.63493 27
-7.03849 -0.926791 0.866172 1
-3.04484 -0.396036 0.159101 9
-0.655961 0.0288589 -0.0326876 89
-0.786039 0.0351256 -0.0921848 76
-0.662189 -0.082113 -0.0552335 47
-0.809669 0.0365005 -0.150468 58
-0.803625 -0.101223 -0.122936 50
-0.804473 0.0368018 -0.206274 52
-0.805311 -0.10226 -0.179127 50
-7.15255 0.339648 1.64247 33
-7.19218 -0.957261 1.93215 32
-7.25711 0.343376 1.14258 35
-6.95228 -0.91164 1.35496 1
-7.27419 0.342927 0.634058 27
-7.04502 -0.915148 0.866781 1
-3.048 -0.391043 0.159232 9
-0.655909 0.0300037 -0.0326876 90
-0.788455 0.0366169 -0.092489 79
-0.662332 -0.0809571 -0.0552335 47
-0.807153 0.0377946 -0.149992 58
-0.798903 -0.0991824 -0.122153 50
-0.801989 0.038227 -0.205627 52
-0.805488 -0.100855 -0.179127 49
-7.13844 0.377695 1.63966 33
-7.18767 -0.917105 1.92957 32
-7.26254 0.383027 1.14375 36
-6.95209 -0.874609 1.354 1
-7.28964 0.383198 0.635583 27
-7.04741 -0.876709 0.866476 1
-3.05255 -0.374854 0.159363 9
-0.65325 0.0333053 -0.0325564 90
-0.790723 0.0410152 -0.0927933 80
-0.657803 -0.0768741 -0.0547986 47
-0.806936 0.0421611 -0.149992 58
-0.804312 -0.0956101 -0.122936 50
-0.799366 0.0422938 -0.20498 53
-0.796354 -0.0952787 -0.176881 50
-7.1427 0.389174 1.64078 33
-7.18927 -0.904559 1.92957 30
-7.26193 0.394435 1.14375 38
-6.95117 -0.862171 1.35353 1
-7.27652 0.395242 0.634494 27
-7.27781 -0.893922 0.894771 33
-3.06057 -0.370971 0.159755 11
-0.653191 0.0344453 -0.0325564 90
-0.78818 0.0421204 -0.092489 82
-0.662881 -0.0763312 -0.0552335 49
-0.79951 0.0431597 -0.148564 58
-0.799576 -0.0936026 -0.122153 52
-0.799291 0.0436889 -0.20498 53
-0.79892 -0.094328 -0.177443 50
-7.13814 0.426422 1.64022 33
-7.18416 -0.866995 1.92698 32
-7.2573 0.432305 1.14336 38
-6.94813 -0.826102 1.3521 1
-7.27443 0.432067 0.634494 30
-7.04089 -0.827263 0.864955 1
-3.05751 -0.354359 0.159494 11
-0.653002 0.0378649 -0.0325564 90
-0.790426 0.0463965 -0.0927933 82
-0.663271 -0.0728593 -0.0552335 50
-0.801731 0.0473548 -0.14904 58
-0.802507 -0.0897037 -0.122545 50
-0.80147 0.0478822 -0.205627 52
-0.796984 -0.089856 -0.176881 50
-7.14224 0.43918 1.64134 33
-7.18327 -0.854169 1.92634 32
-7.25654 0.444971 1.14336 38
-6.94971 -0.812761 1.3521 1
-7.27366 0.444763 0.634494 32
-7.03986 -0.814686 0.864651 1
-3.05317 -0.348448 0.159232 11
-0.652935 0.0390046 -0.0325564 90
-0.663397 -0.0717016 -0.0552335 49
-0.804097 0.0489073 -0.149516 58
-0.797757 -0.0877336 -0.121762 50
-0.798967 0.0492679 -0.20498 53
-0.79714 -0.0884648 -0.176881 50
-7.13733 0.477653 1.64078 33
-7.18778 -0.815291 1.92634 32
-7.25649 0.484391 1.14375 38
-6.94655 -0.77554 1.35067 1
-7.26121 0.483447 0.633622 32
-7.03923 -0.776038 0.864042 1
-3.05749 -0.332197 0.159363 11
-0.655212 0.04259 -0.0326876 90
-0.668715 -0.068772 -0.0556684 50
-0.806269 0.0534236 -0.149992 58
-0.795752 -0.0832836 -0.12137 50
-0.798698 0.0534506 -0.20498 53
-0.797606 -0.0841506 -0.176881 50
-7.14143 0.489198 1.64191 33
-7.18679 -0.802475 1.92569 32
-7.25079 0.495451 1.14297 38
-6.9479 -0.763415 1.35067 1
-7.26036 0.496119 0.633622 33
-7.27725 -0.790872 0.893249 35
-3.05056 -0.326585 0.15897 11
-0.650156 0.0433904 -0.0324251 95
-0.787515 0.053121 -0.092489 85
-0.666358 -0.0673366 -0.0554509 52
-0.806175 0.0548307 -0.149992 58
-0.800805 -0.0824297 -0.122153 52
-0.796195 0.0546748 -0.204334 52
-0.797738 -0.0828976 -0.176881 50
-7.14363 0.526943 1.64303 33
-7.18836 -0.765832 1.92504 32
-7.25549 0.533955 1.14414 39
-6.94923 -0.727981 1.35019 1
-7.25527 0.532678 0.633404 33
-7.27142 -0.751731 0.892032 32
-3.05223 -0.310608 0.15897 11
-0.657397 0.047233 -0.0328189 99
-0.789701 0.057428 -0.0927933 88
-0.664213 -0.0637075 -0.0552335 50
-0.805887 0.0589104 -0.149992 58
-0.79877 -0.0779809 -0.121762 50
-0.800724 0.0590678 -0.205627 53
-0.803007 -0.0792272 -0.178004 50
-7.14766 0.53853 1.64415 36
-7.18969 -0.753285 1.92504 32
-7.24962 0.546245 1.14336 38
-6.94561 -0.715345 1.34924 1
-7.25185 0.545152 0.633186 35
-7.27765 -0.739544 0.892641 35
-3.05028 -0.305028 0.15884 11
-0.657314 0.0483803 -0.0328189 101
-0.792074 0.0589949 -0.0930975 88
-0.661845 -0.0622968 -0.055016 50
-0.80823 0.0605043 -0.150468 58
-0.801361 -0.076837 -0.122153 52
-0.793396 0.0599069 -0.203687 53
-0.795874 -0.0770768 -0.17632 50
-7.14221 0.576998 1.64359 35
-7.18152 -0.714426 1.92181 30
-7.25158 0.584594 1.14414 38
-6.94437 -0.678488 1.34828 1
-7.24889 0.583115 0.633186 33
-7.27896 -0.701189 0.892337 35
-3.05184 -0.289053 0.15884 11
-0.652075 0.0514183 -0.0325564 104
-0.789281 0.0629397 -0.0927933 88
-0.664641 -0.0590689 -0.0552335 50
-0.800564 0.0641346 -0.14904 58
-0.799295 -0.0724026 -0.121762 50
-0.790665 0.0638615 -0.203041 52
-0.798691 -0.0731455 -0.176881 50
-6.86937 0.565765 1.5807 1
-7.17795 -0.701418 1.92052 30
-7.24809 0.597046 1.14375 38
-6.9431 -0.66613 1.34781 1
-7.25283 0.596175 0.633622 33
-7.27523 -0.688013 0.891728 33
-3.05731 -0.284196 0.159101 11
-0.791642 0.0645231 -0.0930975 89
-0.662264 -0.0576748 -0.055016 50
-0.802896 0.0657363 -0.149516 58
-0.79942 -0.0710074 -0.121762 50
-0.797771 0.0658501 -0.20498 53
-0.803667 -0.0722167 -0.178004 50
-7.14286 0.627273 1.64471 38
-7.17431 -0.663153 1.91858 30
-7.24486 0.634989 1.14375 38
-6.94405 -0.629544 1.34733 1
-7.24713 0.633925 0.633404 33
-7.27626 -0.649688 0.891424 33
-3.06124 -0.268406 0.159232 12
-0.791294 0.0686672 -0.0930975 90
-0.665038 -0.0544274 -0.0552335 53
-0.800096 0.069722 -0.14904 58
-0.799781 -0.0668207 -0.121762 50
-0.792605 0.0695953 -0.203687 52
-0.79433 -0.0671279 -0.175758 50
-7.14187 0.638492 1.64471 35
-7.18027 -0.65107 1.91987 30
-7.2462 0.647853 1.14414 38
-6.94514 -0.617424 1.34733 1
-7.24601 0.646573 0.633404 33
-7.27244 -0.636552 0.890815 33
-3.05922 -0.262845 0.159101 12
-0.659061 0.0577764 -0.0329502 115
-0.791173 0.0700482 -0.0930975 90
-0.66265 -0.05305 -0.055016 52
-0.802418 0.0713399 -0.149516 56
-0.799896 -0.0654247 -0.121762 50
-0.794887 0.0711983 -0.204334 53
-0.799299 -0.0661729 -0.176881 50
-7.17395 -0.612637 1.91729 29
-6.9385 -0.580226 1.34543 1
-7.24252 0.684504 0.633404 30
-7.27814 -0.59867 0.89112 35
-3.0506 -0.246005 0.158578 12
-0.661224 0.061578 -0.0330815 122
-0.790795 0.0741898 -0.0930975 90
-0.660446 -0.0492607 -0.0547986 53
-0.802033 0.0755403 -0.149516 58
-0.790385 -0.0604229 -0.120196 52
-0.7921 0.075127 -0.203687 53
-0.799634 -0.0619869 -0.176881 50
-7.17742 -0.600318 1.91794 29
-6.93715 -0.566702 1.34495 1
-7.2767 -0.585766 0.890815 33
-3.05102 -0.24068 0.158578 12
-0.661115 0.062732 -0.0330815 126
-0.788195 0.0753295 -0.0927933 90
-0.663013 -0.0483068 -0.055016 53
-0.804343 0.0771787 -0.149992 58
-0.79295 -0.0592422 -0.120587 52
-0.796761 0.0771214 -0.20498 53
-0.799741 -0.0605912 -0.176881 50
-7.16852 -0.560526 1.9147 29
-6.93758 -0.530183 1.34447 1
-7.27977 -0.546386 0.890815 33
-3.05228 -0.224169 0.158578 12
-0.655811 0.0656847 -0.0328189 131
-0.792712 0.0801004 -0.0934018 90
-0.660773 -0.0446488 -0.0547986 53
-0.803913 0.0815294 -0.149992 58
-0.795711 -0.0552755 -0.120979 52
-0.793944 0.0810427 -0.204334 53
-0.79277 -0.0557064 -0.175197 52
-7.1743 -0.548385 1.916 30
-6.93115 -0.517521 1.34304 1
-7.27319 -0.5344 0.889903 33
-3.05263 -0.219375 0.158578 12
-0.655695 0.0668292 -0.0328189 134
-0.795054 0.0816032 -0.093706 90
-0.663334 -0.043677 -0.055016 55
-0.798888 0.0824202 -0.14904 58
-0.793344 -0.053705 -0.120587 52
-0.7914 0.0821746 -0.203687 53
-0.790428 -0.0542793 -0.174635 50
-7.15531 -0.510504 1.91018 29
-6.93368 -0.482432 1.34304 1
-7.26847 -0.495799 0.88899 33
-3.05374 -0.203388 0.158578 12
-0.657818 0.0705328 -0.0329502 135
-0.792149 0.0854944 -0.0934018 90
-0.661069 -0.0400347 -0.0547986 55
-0.798461 0.0864626 -0.14904 58
-0.791151 -0.0493815 -0.120196 52
-0.798175 0.0869766 -0.205627 53
-0.795561 -0.050478 -0.175758 50
-7.1586 -0.498185 1.91083 29
-6.93459 -0.46912 1.34304 1
-7.26437 -0.48278 0.888382 33
-3.05409 -0.198058 0.158578 12
-0.657694 0.0716808 -0.0329502 140
-0.791998 0.0868768 -0.0934018 90
-0.663623 -0.039045 -0.055016 55
-0.798309 0.0878561 -0.14904 58
-0.796163 -0.0483296 -0.120979 52
-0.793207 0.087968 -0.204334 53
-0.790787 -0.0487598 -0.174635 50
-2.86844 0.3325 0.657548 47
-7.15396 -0.458977 1.90889 27
-2.88263 0.333654 0.45305 47
-6.9394 -0.432959 1.34352 1
-7.26687 -0.443469 0.888382 32
-3.05262 -0.181379 0.158447 14
-0.657309 0.0751235 -0.0329502 144
-0.793981 0.0914488 -0.093706 90
-0.658846 -0.0352674 -0.0545811 55
-0.802697 0.0927459 -0.149992 58
-0.796413 -0.0440213 -0.120979 52
-0.792735 0.09212 -0.204334 52
-0.798334 -0.0449356 -0.17632 50
-2.87034 0.337291 0.65811 49
-7.15234 -0.446338 1.90824 26
-2.88204 0.338685 0.45305 47
-6.9328 -0.420396 1.34209 1
-2.88915 0.339025 0.251444 49
-7.27011 -0.430934 0.888686 33
-3.05792 -0.176346 0.158709 14
-0.659657 0.0765636 -0.0330815 148
-0.791356 0.0925419 -0.0934018 90
-0.658907 -0.0341175 -0.0545811 55
-0.800097 0.0938565 -0.149516 58
-0.791559 -0.0423375 -0.120196 52
-0.794971 0.0937906 -0.20498 53
-0.793548 -0.0432472 -0.175197 50
-2.8637 0.351719 0.656987 49
-6.98574 -0.400341 1.86301 1
-2.88029 0.353268 0.45305 49
-6.92994 -0.385025 1.34114 1
-2.88987 0.353948 0.251662 49
-7.26725 -0.39386 0.888077 33
-3.05379 -0.160597 0.158447 14
-0.661724 0.0803225 -0.0332127 146
-0.793341 0.0968511 -0.093706 90
-0.659077 -0.030667 -0.0545811 55
-0.799611 0.097905 -0.149516 58
-0.791764 -0.0383305 -0.120196 50
-0.799279 0.0984118 -0.206274 53
-0.793756 -0.0392302 -0.175197 50
-2.86549 0.357019 0.657548 49
-6.9816 -0.387877 1.86172 1
-2.87232 0.357376 0.45188 49
-6.92576 -0.371453 1.34018 1
-2.88183 0.358066 0.251009 49
-7.26544 -0.381044 0.887773 32
-3.05655 -0.155397 0.158578 14
-0.661583 0.0814773 -0.0332127 141
-0.788246 0.0976171 -0.0930975 90
-0.661616 -0.0296461 -0.0547986 55
-0.801874 0.0996072 -0.149992 58
-0.794295 -0.0370787 -0.120587 50
-0.791901 0.0990343 -0.204334 52
-0.791391 -0.0377139 -0.174635 50
-2.85869 0.371887 0.656425 49
-6.98119 -0.349975 1.86107 1
-2.86545 0.372273 0.451099 49
-6.93007 -0.335305 1.34066 1
-2.87985 0.373653 0.251009 49
-7.2723 -0.343234 0.888382 33
-3.05236 -0.138623 0.158316 14
-0.653721 0.0839704 -0.0328189 134
-0.790185 0.102065 -0.0934018 90
-0.651811 -0.0257157 -0.0539288 55
-0.796457 0.103304 -0.14904 56
-0.792012 -0.0328021 -0.120196 50
-0.788978 0.102863 -0.203687 53
-0.794011 -0.0336878 -0.175197 50
-2.86293 0.377015 0.657548 50
-6.97937 -0.337671 1.86042 1
-2.86731 0.377097 0.451489 49
-6.93064 -0.32321 1.34066 1
-2.87433 0.377525 0.250573 49
-7.26545 -0.330198 0.887469 33
-3.05507 -0.133941 0.158447 14
-0.653573 0.0851112 -0.0328189 124
-0.785086 0.102791 -0.0927933 88
-0.656827 -0.0249169 -0.0543637 56
-0.796294 0.104555 -0.14904 58
-0.789601 -0.0313068 -0.119804 50
-0.791209 0.104422 -0.204334 52
-0.796502 -0.0324159 -0.175758 50
-2.85133 0.390175 0.655302 49
-6.97129 -0.303133 1.85784 1
-2.86292 0.391269 0.451099 49
-6.92478 -0.289024 1.33923 1
-2.87238 0.392068 0.250573 47
-7.27446 -0.293726 0.888382 32
-3.05322 -0.118376 0.158316 15
-0.653134 0.0884181 -0.0328189 115
-0.721662 -0.0240774 -0.0119985 11
-0.784555 0.106764 -0.0927933 88
-0.661925 -0.0216765 -0.0547986 56
-0.795754 0.108584 -0.14904 55
-0.787283 -0.0272095 -0.119413 49
-0.793062 0.108758 -0.20498 53
-0.789354 -0.0280792 -0.174073 50
-2.85065 0.395151 0.655302 49
-6.98146 -0.291375 1.86042 1
-2.85978 0.395925 0.450709 47
-7.17544 -0.285862 1.38784 35
-2.86676 0.396396 0.250137 47
-7.27001 -0.280834 0.887773 33
-3.05591 -0.113143 0.158447 15
-0.650506 0.0892135 -0.0326876 110
-0.721703 -0.0228178 -0.0119985 9
-0.784368 0.108133 -0.0927933 86
-0.654496 -0.0202356 -0.0541462 56
-0.793133 0.109633 -0.148564 55
-0.789796 -0.0259315 -0.119804 50
-0.79046 0.109943 -0.204334 52
-0.789401 -0.0267015 -0.174073 49
-2.84365 0.409871 0.654179 47
-6.97811 -0.253419 1.85913 1
-2.86004 0.411745 0.451099 47
-7.17439 -0.248201 1.38737 35
-2.85964 0.41119 0.249701 47
-7.26646 -0.241327 0.887165 33
-3.04899 -0.0963593 0.158055 15
-0.652501 0.0929757 -0.0328189 106
-0.714321 -0.0186667 -0.0118676 9
-0.783771 0.112375 -0.0927933 85
-0.657082 -0.0168906 -0.0543637 56
-0.797386 0.114629 -0.149516 58
-0.789925 -0.0216579 -0.119804 52
-0.789874 0.114081 -0.204334 52
-0.789534 -0.0224301 -0.174073 49
-2.84059 0.413985 0.653618 47
-6.9713 -0.240984 1.85719 1
-2.85199 0.415665 0.449929 47
-6.92708 -0.227375 1.33923 1
-2.85645 0.41582 0.249483 49
-7.26935 -0.228724 0.887469 33
-3.05165 -0.0911161 0.158185 17
-0.649868 0.0937527 -0.0326876 103
-0.716851 -0.0174976 -0.0119113 9
-0.781119 0.113382 -0.092489 83
-0.657111 -0.0157437 -0.0543637 56
-0.799612 0.116378 -0.149992 53
-0.792429 -0.0203576 -0.120196 52
-0.79684 0.11652 -0.206274 52
-0.789572 -0.0210521 -0.174073 50
-2.8359 0.428982 0.653056 47
-6.97488 -0.204552 1.85784 1
-2.84489 0.429852 0.449148 47
-7.17349 -0.19804 1.38689 35
-2.84931 0.430025 0.249048 47
-7.27045 -0.190659 0.887469 33
-3.05458 -0.0752018 0.158316 17
-0.644431 0.0964048 -0.0324251 100
-0.782968 0.117844 -0.0927933 80
-0.657184 -0.0123029 -0.0543637 58
-0.796566 0.120193 -0.149516 58
-0.790057 -0.0161427 -0.119804 52
-0.793832 0.120324 -0.205627 52
-0.787237 -0.0168504 -0.173512 52
-2.83522 0.433436 0.653056 47
-6.97281 -0.19231 1.85719 1
-2.8417 0.434442 0.448758 47
-7.17628 -0.185585 1.38737 35
-2.8461 0.43462 0.24883 50
-7.27573 -0.178094 0.888077 32
-3.04972 -0.0697485 0.158055 15
-0.646729 0.0979083 -0.0325564 98
-0.785213 0.119588 -0.0930975 77
-0.659694 -0.0112163 -0.0545811 58
-0.793929 0.121209 -0.14904 55
-0.792552 -0.014825 -0.120196 52
-0.791235 0.121339 -0.20498 52
-0.779959 -0.0152876 -0.171827 50
-2.82562 0.447623 0.651372 47
-6.98097 -0.155965 1.85913 1
-2.83694 0.448928 0.448368 47
-7.17225 -0.147903 1.38641 33
-2.84378 0.449517 0.24883 50
-7.2716 -0.139898 0.887469 32
-3.05004 -0.0537793 0.158055 17
-0.648674 0.101685 -0.0326876 96
-0.789477 0.124479 -0.093706 77
-0.657254 -0.00771463 -0.0543637 58
-0.793284 0.125364 -0.14904 55
-0.787682 -0.0105785 -0.119413 52
-0.797742 0.126629 -0.20692 52
-0.784899 -0.0113039 -0.17295 50
-2.82251 0.451675 0.65081 47
-6.97157 -0.143575 1.85655 1
-2.83859 0.45427 0.448758 49
-7.16759 -0.135289 1.38546 33
-2.84053 0.454085 0.248612 50
-7.24951 -0.126801 0.884731 27
-3.05013 -0.0484559 0.158055 20
-0.643565 0.102025 -0.0324251 95
-0.784359 0.125067 -0.0930975 77
-0.657266 -0.00656749 -0.0543637 58
-0.795487 0.12714 -0.149516 58
-0.787699 -0.00920371 -0.119413 52
-0.792752 0.127247 -0.205627 50
-0.784918 -0.00993401 -0.17295 50
-2.82242 0.467338 0.651372 49
-7.00362 -0.107574 1.86495 1
-2.824 0.467106 0.446807 49
-2.84057 0.469359 0.24883 55
-0.670913 0.109905 0.0112568 4
-3.04535 -0.0324239 0.157793 21
-0.645467 0.105915 -0.0325564 91
-0.781246 0.128764 -0.0927933 74
-0.657292 -0.00301126 -0.0543637 58
-0.79481 0.131303 -0.149516 55
-0.792674 -0.00514128 -0.120196 52
-0.794457 0.131796 -0.206274 52
-0.787395 -0.00585724 -0.173512 50
-2.8144 0.471054 0.649687 49
-2.82805 0.47285 0.447587 50
-2.83238 0.473081 0.248176 55
-0.683027 0.113262 0.011475 4
-3.0454 -0.0271087 0.157793 23
-0.647743 0.107455 -0.0326876 90
-0.785914 0.130952 -0.0934018 73
-0.659787 -0.00188928 -0.0545811 58
-0.79216 0.132282 -0.14904 55
-0.790213 -0.00373107 -0.119804 52
-0.78944 0.132513 -0.20498 52
-0.78984 -0.00451188 -0.174073 52
-2.81661 0.487107 0.65081 50
-2.82788 0.488566 0.447977 52
-3.10474 -0.0173793 0.596219 9
-2.83469 0.489249 0.248612 61
-3.08677 -0.0129769 0.374216 8
-0.684887 0.117264 0.0115186 4
-3.05299 -0.010669 0.158185 23
-0.642252 0.109992 -0.0324251 90
-0.782749 0.134777 -0.0930975 73
-0.657297 0.00157754 -0.0543637 58
-0.791432 0.136566 -0.14904 55
-0.792691 0.000392713 -0.120196 52
-0.793493 0.137477 -0.206274 52
-0.787417 -0.000222656 -0.173512 50
-2.81344 0.49111 0.650249 50
-2.81981 0.491731 0.446807 53
-3.08268 -0.011841 0.59193 2
-2.83628 0.494624 0.24883 73
-3.05453 -0.00799305 0.37026 3
-0.687144 0.11889 0.0115622 4
-3.04801 -0.00585597 0.157924 17
-0.646977 0.111974 -0.0326876 90
-0.780092 0.135577 -0.0927933 70
-0.654803 0.00273256 -0.0541462 56
-0.800861 0.13965 -0.150945 56
-0.792689 0.00177622 -0.120196 52
-0.790874 0.138441 -0.205627 52
-0.780108 0.00104993 -0.171827 52
-2.81083 0.505835 0.650249 50
-2.81963 0.506927 0.447197 55
-3.06307 0.00376883 0.588117 8
-2.82884 0.508091 0.248394 77
-3.03964 0.00798487 0.368435 11
-0.698833 0.124584 0.0117804 8
-3.048 0.0101034 0.157924 18
-0.646402 0.115248 -0.0326876 90
-0.779372 0.13966 -0.0927933 70
-0.657271 0.00605155 -0.0543637 58
-0.795314 0.142826 -0.149992 56
-0.795138 0.00593013 -0.120587 55
-0.792539 0.142875 -0.206274 52
-0.777656 0.00513368 -0.171266 52
-2.80524 0.509376 0.649126 52
-2.82117 0.51229 0.447587 55
-3.05569 0.00910461 0.586687 4
-2.8255 0.512581 0.248176 67
-3.03466 0.0132762 0.367826 11
-0.693696 0.124908 0.0116931 8
-3.04798 0.0154232 0.157924 24
-0.643744 0.115928 -0.0325564 90
-0.776686 0.140573 -0.092489 64
-0.65726 0.00719869 -0.0543637 58
-0.797478 0.144656 -0.150468 55
-0.787719 0.00729463 -0.119413 53
-0.792288 0.144258 -0.206274 52
-0.780082 0.00649604 -0.171827 52
-2.80723 0.525446 0.650249 52
-2.81359 0.526144 0.446807 50
-3.05806 0.0251203 0.587164 4
-2.82278 0.527369 0.248176 58
-3.04695 0.029265 0.369348 11
-0.695489 0.128999 0.0117367 8
-3.05285 0.0314256 0.158185 26
-0.643107 0.119409 -0.0325564 90
-0.780816 0.145556 -0.0930975 62
-0.654721 0.0107321 -0.0541462 58
-0.787063 0.14701 -0.148564 55
-0.790139 0.0114397 -0.119804 52
-0.791522 0.148405 -0.206274 52
-0.780037 0.0105804 -0.171827 52
-2.80152 0.529437 0.649126 50
-2.81025 0.530595 0.446416 44
-3.058 0.0309913 0.587164 4
-2.8194 0.531832 0.247958 55
-3.04194 0.0345343 0.368739 11
-0.692784 0.129869 0.0116931 12
-3.0478 0.0367015 0.157924 23
-0.642897 0.120531 -0.0325564 90
-0.782999 0.147382 -0.0934018 62
-0.64972 0.0118209 -0.0537113 56
-0.791627 0.149302 -0.149516 55
-0.790118 0.0128187 -0.119804 52
-0.788864 0.14947 -0.205627 52
-0.777581 0.0119197 -0.171266 52
-2.79861 0.544587 0.649126 50
-2.80006 0.544375 0.445246 38
-3.07743 0.0472731 0.590977 2
-2.81893 0.547554 0.248176 55
-3.0814 0.0515951 0.373607 2
-0.697002 0.134451 0.0117804 12
-3.05255 0.0532704 0.158185 21
-0.642258 0.123896 -0.0325564 90
-0.787061 0.152569 -0.0940102 61
-0.65463 0.0153026 -0.0541462 56
-0.793216 0.154055 -0.149992 53
-0.794977 0.0170314 -0.120587 55
-0.79044 0.154065 -0.206274 52
-0.782377 0.0161972 -0.172389 52
-2.79537 0.548512 0.648564 49
-2.80647 0.550201 0.446416 49
-2.81308 0.551513 0.24774 55
-0.686956 0.133737 0.0116058 12
-3.04747 0.0579781 0.157924 23
-0.64449 0.125499 -0.0326876 90
-0.781951 0.152845 -0.0934018 61
-0.654602 0.0164451 -0.0541462 58
-0.792946 0.155439 -0.149992 53
-0.797415 0.0184611 -0.120979 55
-0.785432 0.154504 -0.20498 53
-0.777479 0.0173479 -0.171266 52
-2.79245 0.563141 0.648564 49
-2.79871 0.56391 0.445636 52
-2.80537 0.564759 0.247304 55
-0.68137 0.136222 0.0115186 12
-3.04962 0.0739904 0.158055 23
-0.643846 0.12876 -0.0326876 86
-0.778708 0.156444 -0.0930975 59
-0.657 0.0198151 -0.0543637 58
-0.789744 0.158962 -0.149516 55
-0.792371 0.0225258 -0.120196 55
-0.787007 0.158959 -0.205627 52
-0.779813 0.0214704 -0.171827 52
-2.78918 0.56704 0.648003 49
-2.79772 0.568794 0.445636 49
-7.1596 0.164813 1.38403 33
-2.80682 0.570151 0.247522 56
-7.25094 0.176947 0.885035 29
-0.68358 0.13791 0.0115622 12
-3.042 0.0791299 0.157662 24
-0.646067 0.130382 -0.0328189 83
-0.785727 0.159295 -0.0940102 59
-0.654475 0.0209004 -0.0541462 59
-0.791869 0.160833 -0.149992 53
-0.789862 0.0238492 -0.119804 55
-0.784363 0.159846 -0.20498 52
-0.779775 0.0228314 -0.171827 52
-2.7812 0.581609 0.646879 50
-6.89331 0.184198 1.83587 1
-2.79702 0.584429 0.446026 50
-7.16106 0.203616 1.38451 30
-2.80614 0.585839 0.24774 61
-7.26228 0.216537 0.886556 30
-0.682824 0.141607 0.0115622 8
-3.04652 0.0957364 0.157924 23
-0.640465 0.132851 -0.0325564 80
-0.787282 0.164054 -0.0943145 59
-0.654352 0.0244412 -0.0541462 62
-0.788586 0.164609 -0.149516 55
-0.797125 0.0283409 -0.120979 56
-0.785849 0.164587 -0.205627 50
-0.77964 0.02705 -0.171827 53
-2.78505 0.586984 0.648003 50
-6.9316 0.197301 1.84621 1
-2.796 0.58931 0.446026 53
-7.16069 0.216114 1.38451 30
-2.80755 0.59125 0.247958 73
-7.25693 0.229059 0.885948 30
-0.685022 0.143315 0.0116058 4
-3.04385 0.100975 0.157793 23
-0.635347 0.132936 -0.0322938 74
-0.784567 0.164913 -0.0940102 59
-0.659287 0.0257414 -0.0545811 62
-0.788297 0.165985 -0.149516 55
-0.799543 0.0298092 -0.12137 56
-0.783199 0.165455 -0.20498 52
-0.782026 0.0284843 -0.172389 52
-2.78183 0.602044 0.648003 52
-6.9184 0.233193 1.84298 1
-2.79046 0.603418 0.445636 55
-7.16437 0.253774 1.38546 33
-2.80441 0.605942 0.247958 77
-7.26307 0.267322 0.88686 33
-0.681819 0.146371 0.0115622 3
-3.04328 0.116911 0.157793 24
-0.632203 0.135731 -0.0321625 68
-0.790967 0.170601 -0.094923 59
-0.654166 0.0290088 -0.0541462 64
-0.787417 0.17011 -0.149516 55
-0.799381 0.0338557 -0.12137 56
-0.789399 0.1711 -0.20692 52
-0.774563 0.0323197 -0.170704 52
-2.77851 0.605893 0.647441 52
-6.92281 0.245436 1.84427 1
-2.78227 0.60622 0.444465 35
-7.16637 0.266368 1.38594 33
-2.80335 0.610836 0.247958 71
-7.26016 0.278636 0.886556 33
-0.674236 0.145959 0.0114313 3
-3.04559 0.121787 0.157924 23
-0.629526 0.136301 -0.0320313 64
-0.78585 0.170781 -0.0943145 59
-0.649137 0.0299575 -0.0537113 64
-0.787119 0.171484 -0.149516 55
-0.794386 0.0350629 -0.120587 56
-0.786741 0.171958 -0.206274 52
-0.77938 0.0337165 -0.171827 52
-2.77292 0.6199 0.646879 50
-6.9239 0.280568 1.84491 1
-2.78629 0.622398 0.445636 52
-7.16738 0.302738 1.38641 33
-2.79293 0.623386 0.247304 56
-7.25612 0.31654 0.886252 33
-0.678367 0.150462 0.0115186 3
-3.03992 0.137514 0.157662 23
-0.626368 0.139049 -0.0319 61
-0.789788 0.175981 -0.094923 59
-0.648971 0.033356 -0.0537113 67
-0.788636 0.176005 -0.149992 53
-0.794192 0.0392218 -0.120587 58
-0.790572 0.177001 -0.207567 52
-0.776758 0.037694 -0.171266 52
-2.77421 0.625276 0.647441 50
-6.92822 0.292853 1.84621 1
-2.78038 0.626173 0.444856 50
-7.16188 0.316285 1.38546 33
-2.79184 0.62826 0.247304 55
-7.2506 0.328982 0.885643 33
-0.678077 0.151764 0.0115186 3
-3.03967 0.142819 0.157662 24
-0.633429 0.141794 -0.0322938 62
-0.787059 0.176811 -0.0946187 59
-0.648912 0.0344886 -0.0537113 73
-0.788327 0.177381 -0.149992 53
-0.794122 0.0406079 -0.120587 58
-0.790231 0.178519 -0.207567 50
-0.774258 0.0389425 -0.170704 53
-2.77316 0.640826 0.648003 49
-6.92412 0.33022 1.84556 1
-2.77695 0.641207 0.444856 52
-7.16258 0.353899 1.38594 33
-2.79082 0.643917 0.247522 55
-7.24871 0.368207 0.885643 33
-0.684579 0.157003 0.0116495 4
-0.630246 0.144545 -0.0321625 61
-0.788508 0.181628 -0.094923 58
-0.65121 0.0380127 -0.0539288 74
-0.787356 0.181644 -0.149992 53
-0.796365 0.0448894 -0.120979 58
-0.789285 0.182654 -0.207567 52
-0.776469 0.0432514 -0.171266 53
-2.7674 0.644074 0.646879 50
-6.92354 0.342304 1.84556 1
-2.77835 0.646129 0.445246 53
-7.1693 0.366771 1.38737 35
-2.79212 0.649352 0.24774 59
-7.2506 0.379721 0.885948 33
-0.629993 0.145645 -0.0321625 61
-0.783389 0.181736 -0.0943145 58
-0.648655 0.039018 -0.0537113 77
-0.787038 0.183018 -0.149992 53
-0.798751 0.0464076 -0.12137 58
-0.786614 0.183479 -0.20692 50
-0.769101 0.0440987 -0.169581 53
-2.75925 0.657424 0.645756 52
-6.9193 0.377213 1.84491 1
-2.77493 0.660667 0.445246 44
-7.15265 0.402236 1.38451 35
-2.78638 0.662898 0.247522 86
-7.25099 0.417821 0.886252 33
-0.629221 0.148941 -0.0321625 61
-0.787253 0.186991 -0.094923 58
-0.648442 0.0424138 -0.0537113 79
-0.788488 0.187571 -0.150468 53
-0.796032 0.0504479 -0.120979 58
-0.788024 0.188022 -0.207567 50
-0.773724 0.0483987 -0.170704 52
-2.76047 0.662809 0.646318 52
-6.91622 0.389155 1.84427 1
-2.76897 0.664355 0.444465 41
-7.15922 0.41639 1.38594 35
-2.79248 0.669506 0.248176 102
-7.24778 0.43033 0.885948 33
-0.628961 0.150039 -0.0321625 61
-0.786926 0.188364 -0.094923 56
-0.653339 0.0438426 -0.0541462 85
-0.788159 0.188947 -0.150468 53
-0.795943 0.0518372 -0.120979 58
-0.785314 0.188966 -0.20692 52
-0.776071 0.0498902 -0.171266 52
-2.75684 0.677735 0.646318 41
-6.91643 0.426717 1.84491 1
-2.76773 0.679917 0.444856 55
-7.14959 0.453409 1.38451 35
-2.78398 0.683415 0.24774 114
-7.25277 0.470014 0.88686 33
-0.63059 0.153928 -0.0322938 59
-0.785895 0.192619 -0.094923 58
-0.645645 0.0467781 -0.0534938 86
-0.784743 0.192619 -0.149992 53
-0.798124 0.0561625 -0.12137 58
-0.786658 0.193656 -0.207567 50
-0.770927 0.0537799 -0.170143 53
-2.75814 0.682651 0.646879 42
-6.91326 0.438636 1.84427 1
-2.76905 0.684858 0.445246 55
-7.14879 0.465887 1.38451 33
-2.79004 0.69007 0.248394 126
-7.24955 0.481243 0.886556 33
-3.03851 0.206612 0.157793 18
-0.630321 0.155028 -0.0322938 59
-0.627836 0.0468193 -0.0103842 8
-0.790408 0.195051 -0.0955314 56
-0.645562 0.0479049 -0.0534938 88
-0.789169 0.195175 -0.150945 52
-0.798025 0.0575554 -0.12137 58
-0.788662 0.195615 -0.208214 50
-0.773272 0.0551488 -0.170704 52
-2.7498 0.695885 0.645756 38
-6.90854 0.473458 1.84362 1
-2.75586 0.696921 0.443685 53
-7.14389 0.501894 1.38403 35
-2.77444 0.701126 0.247304 116
-7.24445 0.519019 0.886252 33
-3.03987 0.222697 0.157924 18
-0.627081 0.157712 -0.0321625 59
-0.632578 0.0503556 -0.0104714 4
-0.782161 0.197353 -0.0946187 56
-0.642819 0.0511054 -0.0532764 90
-0.785792 0.198562 -0.150468 53
-0.792787 0.0613817 -0.120587 58
-0.787662 0.199604 -0.208214 50
-0.772973 0.0591969 -0.170704 53
-2.74859 0.700683 0.645756 50
-6.91252 0.48585 1.84491 1
-2.76421 0.704172 0.445246 56
-7.14536 0.515783 1.38451 35
-2.77803 0.707199 0.24774 114
-7.24601 0.531843 0.886556 33
-2.83144 0.721874 0.0503938 1
-3.03948 0.228002 0.157924 18
-0.629223 0.159425 -0.0322938 59
-0.629996 0.0512757 -0.0104278 4
-0.784219 0.199333 -0.094923 56
-0.65018 0.0527771 -0.0539288 90
-0.785444 0.199933 -0.150468 53
-0.795141 0.0629453 -0.120979 58
-0.787277 0.201116 -0.208214 50
-0.775298 0.0607209 -0.171266 53
-2.74711 0.71616 0.646318 50
-6.90979 0.523244 1.84491 1
-2.7508 0.716623 0.443685 55
-7.14991 0.553752 1.38594 35
-2.77176 0.72159 0.247522 116
-7.24303 0.571039 0.886556 35
-2.8252 0.736058 0.0503502 8
-3.0382 0.244444 0.157924 20
-0.62838 0.162717 -0.0322938 59
-0.629709 0.0546835 -0.0104278 4
-0.78793 0.20483 -0.0955314 55
-0.644929 0.0557881 -0.0534938 90
-0.784351 0.204179 -0.150468 52
-0.794801 0.0671077 -0.120979 58
-0.781542 0.204007 -0.20692 50
-0.770101 0.0645385 -0.170143 53
-2.74598 0.720474 0.646318 33
-6.90406 0.534933 1.84362 1
-2.75445 0.722198 0.444465 53
-7.14648 0.566038 1.38546 35
-2.77531 0.727692 0.247958 110
-7.24212 0.582416 0.886556 33
-2.81183 0.73781 0.050132 8
-3.03781 0.249216 0.157924 20
-0.623266 0.162543 -0.0320313 59
-0.627122 0.0555807 -0.0103842 3
-0.782809 0.204803 -0.094923 55
-0.647313 0.0571143 -0.0537113 90
-0.783994 0.205548 -0.150468 52
-0.794683 0.0684948 -0.120979 58
-0.783519 0.205989 -0.207567 50
-0.774856 0.066132 -0.171266 52
-2.74453 0.735474 0.646879 47
-6.90607 0.570265 1.84491 1
-2.7554 0.73789 0.445246 55
-7.13863 0.601793 1.38451 35
-2.76438 0.739795 0.247304 98
-7.2365 0.620117 0.886252 33
-2.80323 0.750737 0.0500448 9
-3.03895 0.265332 0.158055 18
-0.624847 0.166343 -0.0321625 59
-0.786518 0.210189 -0.0955314 55
-0.642053 0.0599635 -0.0532764 90
-0.780574 0.208875 -0.149992 52
-0.791853 0.0724447 -0.120587 58
-0.787129 0.211212 -0.20886 49
-0.774499 0.0701882 -0.171266 53
-2.73866 0.738513 0.645756 47
-6.90747 0.582518 1.84556 1
-2.75172 0.742054 0.444856 53
-7.14735 0.615087 1.38641 35
-2.76549 0.745268 0.247522 76
-7.23541 0.632746 0.886252 33
-2.78744 0.751717 0.049783 12
-3.036 0.270418 0.157924 17
-0.626965 0.168085 -0.0322938 59
-0.788545 0.21221 -0.0958357 55
-0.641947 0.061084 -0.0532764 90
-0.787314 0.212165 -0.151421 52
-0.791725 0.0738267 -0.120587 58
-0.78909 0.213219 -0.209507 50
-0.776802 0.0717488 -0.171827 52
-2.73698 0.753968 0.646318 50
-6.91395 0.619533 1.84815 1
-2.75256 0.757765 0.445636 55
-7.13426 0.651615 1.38451 29
-2.75674 0.758414 0.247087 56
-7.21964 0.669485 0.884731 29
-2.78828 0.76763 0.0498702 12
-3.03951 0.286771 0.158185 17
-0.626047 0.171475 -0.0322938 59
-0.78264 0.215013 -0.0952272 52
-0.646567 0.0650182 -0.0537113 90
-0.781462 0.214974 -0.150468 52
-0.793787 0.0781983 -0.120979 58
-0.783309 0.216056 -0.208214 49
-0.769138 0.0751502 -0.170143 53
-2.73096 0.75744 0.645195 49
-2.75123 0.762568 0.445636 56
-2.75781 0.76389 0.247304 55
-2.77476 0.769636 0.0496521 14
-3.03404 0.291606 0.157924 17
-0.628152 0.173236 -0.0324251 59
-0.787044 0.21771 -0.0958357 50
-0.648932 0.0663818 -0.0539288 90
-0.788177 0.218315 -0.151897 50
-0.793649 0.0795836 -0.120979 58
-0.780567 0.216908 -0.207567 47
-0.773857 0.0769442 -0.171266 53
-2.72682 0.772204 0.645195 50
-2.74944 0.778116 0.446026 55
-2.75125 0.778121 0.247087 56
-2.7731 0.784836 0.0496957 15
-0.63204 0.177886 -0.0326876 58
-0.783468 0.221286 -0.0955314 50
-0.643619 0.0692823 -0.0534938 90
-0.786985 0.222577 -0.151897 50
-0.793221 0.0837381 -0.120979 58
-0.781743 0.221655 -0.208214 47
-0.76858 0.0806521 -0.170143 53
-2.72561 0.776487 0.645195 49
-2.88702 0.287481 0.767045 44
-2.74347 0.781079 0.445246 52
-2.89853 0.293663 0.559045 45
-2.76425 0.787021 0.248394 90
-2.90778 0.298137 0.354136 44
-2.76692 0.788302 0.0496085 23
-0.631728 0.178988 -0.0326876 58
-0.783119 0.222517 -0.0955314 49
-0.645975 0.0706581 -0.0537113 90
-0.781876 0.222598 -0.150945 49
-0.790617 0.0848737 -0.120587 58
-0.781355 0.223019 -0.208214 47
-0.773301 0.0823449 -0.171266 53
-2.71917 0.790066 0.644633 50
-2.88312 0.301843 0.766399 45
-2.73934 0.795433 0.445246 50
-2.89701 0.30833 0.559045 45
-2.75545 0.799611 0.247958 165
-2.89878 0.312572 0.353223 45
-2.75809 0.8009 0.0495212 30
-2.90861 0.315652 0.151513 47
-0.633211 0.182881 -0.0328189 58
-0.779561 0.225919 -0.0952272 49
-0.645609 0.0739267 -0.0537113 90
-0.787807 0.228616 -0.152373 50
-0.792617 0.0892737 -0.120979 58
-0.770436 0.0861372 -0.170704 52
-2.72026 0.795021 0.645195 52
-2.87779 0.306371 0.765106 45
-2.72847 0.797437 0.443685 50
-2.89402 0.313125 0.558568 45
-2.76122 0.806517 0.248612 97
-2.89823 0.317631 0.353223 45
-2.76149 0.807118 0.0496085 41
-2.90557 0.320458 0.151382 47
-0.630495 0.183284 -0.0326876 58
-0.779166 0.22728 -0.0952272 45
-0.643003 0.074784 -0.0534938 90
-0.79246 0.0906569 -0.120979 58
-0.770285 0.0874818 -0.170704 52
-2.71578 0.810202 0.645195 50
-2.87369 0.321672 0.76446 45
-2.72885 0.813601 0.444465 52
-2.88741 0.328233 0.557615 47
-2.74489 0.817883 0.247522 56
-2.89647 0.333307 0.353223 47
-2.75708 0.822047 0.0496085 50
-2.9038 0.336174 0.151382 49
-0.629494 0.186693 -0.0326876 58
-0.645064 0.0785446 -0.0537113 90
-0.787068 0.0942477 -0.120196 58
-0.774642 0.0921937 -0.171827 52
-2.71217 0.813765 0.644633 49
-2.86832 0.32615 0.763168 45
-2.72756 0.817887 0.444465 55
-2.88683 0.333272 0.557615 47
-2.73868 0.82124 0.247087 55
-2.88608 0.336722 0.352006 47
-2.90078 0.340448 0.151251 49
-0.629167 0.187791 -0.0326876 58
-0.642452 0.0793833 -0.0534938 90
-0.789355 0.0959042 -0.120587 58
-0.769655 0.0928572 -0.170704 52
-2.71719 0.830809 0.646879 49
-2.86183 0.340102 0.761875 45
-2.72088 0.831434 0.444075 55
-2.88267 0.347589 0.557139 49
-2.73449 0.835091 0.247087 55
-2.88674 0.352125 0.35231 49
-2.89401 0.355032 0.150989 47
-0.623402 0.18962 -0.0324251 56
-0.644499 0.0830461 -0.0537113 90
-0.786391 0.0997401 -0.120196 58
-0.769159 0.0968858 -0.170704 52
-2.7134 0.834832 0.646318 49
-2.86124 0.345096 0.761875 47
-2.72179 0.836909 0.444465 50
-2.87956 0.352829 0.556662 49
-2.73065 0.83913 0.246869 53
-2.88366 0.356863 0.352006 49
-2.89338 0.360082 0.150989 49
-0.632612 0.193651 -0.0329502 58
-0.641882 0.0838664 -0.0534938 90
-0.791117 0.101713 -0.120979 58
-0.771407 0.0985216 -0.171266 52
-2.71582 0.851691 0.648003 50
-2.85453 0.359975 0.760583 47
-2.71722 0.851623 0.444465 49
-2.86793 0.366672 0.554756 47
-2.73082 0.855383 0.247304 90
-2.8743 0.371517 0.351093 45
-2.88644 0.375096 0.150728 47
-0.626826 0.195464 -0.0326876 58
-0.638964 0.0869089 -0.0532764 90
-0.788125 0.105541 -0.120587 56
-0.770862 0.102694 -0.171266 52
-2.71448 0.855956 0.648003 52
-2.8539 0.364957 0.760583 50
-2.71588 0.85589 0.444465 47
-2.87216 0.3723 0.555709 49
-2.71983 0.857149 0.246433 107
-2.87125 0.375714 0.350789 47
-2.88089 0.378987 0.150466 47
-0.631245 0.198062 -0.0329502 58
-0.64622 0.0889888 -0.0539288 90
-0.795285 0.107867 -0.121762 58
-0.768284 0.103594 -0.170704 52
-2.71228 0.870903 0.648564 52
-2.84723 0.378768 0.75929 49
-2.71606 0.87161 0.445246 49
-2.87024 0.386833 0.555709 49
-2.71782 0.871666 0.246651 53
-2.8717 0.391073 0.351093 47
-2.87887 0.394066 0.150466 47
-0.627823 0.2006 -0.0328189 58
-0.648213 0.0927057 -0.0541462 90
-0.789816 0.11137 -0.120979 58
-0.77256 0.108262 -0.171827 50
-2.70844 0.874886 0.648003 50
-2.85375 0.384693 0.761229 49
-2.71923 0.877868 0.446026 49
-2.86706 0.392014 0.555232 49
-2.8661 0.395415 0.350485 47
-2.87323 0.398412 0.150204 47
-0.627472 0.201695 -0.0328189 58
-0.640648 0.0928203 -0.0534938 90
-0.787174 0.112414 -0.120587 56
-0.765128 0.108628 -0.170143 52
-2.69904 0.888002 0.646879 49
-2.84684 0.399464 0.759937 47
-2.71914 0.894113 0.446807 50
-2.86254 0.406679 0.554756 47
-2.86637 0.411264 0.350789 47
-2.86362 0.412895 0.149812 44
-0.626407 0.204978 -0.0328189 58
-0.645085 0.096877 -0.0539288 90
-0.789019 0.116881 -0.120979 58
-0.766941 0.113106 -0.170704 52
-2.6907 0.889942 0.645195 47
-2.84614 0.404432 0.759937 47
-2.71304 0.896831 0.446026 55
-2.85939 0.411329 0.554279 47
-2.85836 0.41471 0.349876 45
-0.642449 0.0976467 -0.0537113 90
-0.788814 0.118258 -0.120979 58
-0.761939 0.113623 -0.169581 52
-2.686 0.904018 0.645195 47
-2.83688 0.417789 0.757998 47
-2.71299 0.912601 0.446807 55
-2.84756 0.424366 0.552373 47
-2.85124 0.42894 0.349268 47
-2.63358 0.398428 0.137774 90
-0.641929 0.101009 -0.0537113 90
-0.785742 0.122023 -0.120587 58
-0.766153 0.118324 -0.170704 52
-2.67981 0.90714 0.644072 47
-2.83615 0.42274 0.757998 47
-2.70437 0.914957 0.445636 50
-2.84431 0.42947 0.551896 47
-2.84558 0.433177 0.348659 47
-0.631687 0.212843 -0.0332127 58
-0.644215 0.102503 -0.0539288 90
-0.785527 0.123394 -0.120587 55
-0.763537 0.1193 -0.170143 50
-2.67256 0.920832 0.64351 47
-2.83143 0.437714 0.757352 47
-2.69705 0.92877 0.445246 47
-2.84445 0.444732 0.552373 49
-2.84319 0.448567 0.348659 49
-2.82551 0.44781 0.148111 39
-0.625844 0.214519 -0.0329502 58
-0.633827 0.10433 -0.0530589 90
-0.777552 0.126362 -0.119413 55
-0.767694 0.124178 -0.171266 52
-2.66651 0.923432 0.642387 49
-2.82589 0.441917 0.756059 47
-2.69325 0.932197 0.444856 44
-2.83882 0.448937 0.551419 49
-2.83023 0.4511 0.347138 44
-2.8396 0.454591 0.148896 39
-0.62311 0.214792 -0.0328189 56
-0.636104 0.105826 -0.0532764 90
-0.782208 0.128489 -0.120196 55
-0.765092 0.125006 -0.170704 52
-2.66163 0.937381 0.642387 49
-2.82362 0.456214 0.756059 47
-2.68834 0.946286 0.444856 44
-2.83409 0.462908 0.550943 49
-2.83028 0.466312 0.347442 47
-2.84703 0.471067 0.149419 55
-0.629078 0.220435 -0.0332127 58
-0.638018 0.109447 -0.0534938 90
-0.783961 0.132981 -0.120587 55
-0.771641 0.130181 -0.172389 50
-2.66016 0.941561 0.642387 50
-2.81805 0.460371 0.754767 49
-2.67737 0.947676 0.443295 45
-2.83086 0.467458 0.550466 50
-2.82701 0.470847 0.347138 49
-1.44933 0.512336 0.0262222 4
-2.85113 0.476851 0.149681 70
-0.631045 0.222367 -0.033344 58
-0.681938 0.117982 -0.011475 4
-0.632912 0.109746 -0.0530589 90
-0.778856 0.133545 -0.119804 55
-0.769008 0.131133 -0.171827 52
-2.65732 0.956766 0.642949 49
-2.8156 0.47512 0.754767 49
-2.67005 0.960844 0.442904 47
-2.83321 0.483091 0.551419 50
-2.82695 0.486059 0.347442 50
-1.44428 0.51907 0.0261786 4
-2.84614 0.491352 0.14955 70
-0.622788 0.223236 -0.0329502 56
-0.678847 0.121128 -0.0114313 4
-0.632309 0.113169 -0.0530589 90
-0.778146 0.137621 -0.119804 55
-0.768311 0.135158 -0.171827 50
-2.65106 0.959742 0.641826 49
-2.81001 0.47923 0.753475 47
-2.66605 0.964662 0.442514 47
-2.82502 0.48729 0.54999 50
-2.82365 0.490572 0.347138 55
-1.45268 0.52525 0.0263531 4
-2.84528 0.496319 0.14955 79
-0.627091 0.226025 -0.0332127 58
-0.688487 0.124018 -0.0116058 8
-1.42342 0.515475 -0.181327 4
-0.634564 0.114697 -0.0532764 89
-0.782771 0.139818 -0.120587 55
-0.772876 0.137321 -0.17295 52
-2.64354 0.973228 0.641264 50
-2.80975 0.494841 0.754121 49
-2.65615 0.977364 0.441734 47
-2.8176 0.501224 0.549036 50
-2.8234 0.506276 0.347442 56
-1.44522 0.53112 0.0262659 4
-2.84009 0.511268 0.149419 82
-0.623557 0.228442 -0.0330815 58
-0.685345 0.127302 -0.0115622 8
-1.42992 0.526608 -0.182544 4
-0.641311 0.119331 -0.0539288 88
-0.779597 0.143482 -0.120196 55
-0.764925 0.140228 -0.171266 50
-2.6443 0.978226 0.641826 49
-2.80888 0.499744 0.754121 49
-2.6523 0.980678 0.441344 50
-2.81913 0.50657 0.549513 52
-2.8226 0.51071 0.347442 55
-1.45367 0.537116 0.0264404 4
-2.83437 0.514844 0.149157 58
-0.623157 0.22953 -0.0330815 56
-1.42909 0.528853 -0.182544 4
-0.63865 0.120008 -0.0537113 85
-1.2939 0.479449 -0.260939 4
-0.779345 0.144843 -0.120196 55
-0.767102 0.141857 -0.171827 50
-2.63686 0.9912 0.641264 49
-2.80156 0.513093 0.752828 50
-2.64713 0.994552 0.441344 50
-2.81412 0.520391 0.549036 52
-2.81745 0.525032 0.347138 53
-1.44625 0.542706 0.0263531 4
-2.83163 0.529678 0.149157 55
-0.621947 0.23279 -0.0330815 56
-1.43559 0.539831 -0.183761 4
-0.638013 0.123351 -0.0537113 80
-1.29146 0.485992 -0.260939 3
-0.776148 0.148472 -0.119804 53
-0.995411 0.375018 -0.275463 4
-0.766349 0.145872 -0.171827 50
-2.63513 0.9958 0.641264 50
-2.80066 0.517982 0.752828 50
-2.64308 0.998297 0.440953 52
-2.81794 0.526686 0.54999 52
-2.81409 0.529494 0.346834 50
-1.44754 0.546366 0.0263968 4
-2.82825 0.53416 0.149027 53
-0.626209 0.235643 -0.033344 55
-1.43 0.540576 -0.183153 4
-0.635349 0.124005 -0.0534938 79
-1.2929 0.489116 -0.261415 4
-0.773461 0.149373 -0.119413 53
-0.999204 0.378646 -0.276756 4
-0.766093 0.147209 -0.171827 50
-2.6297 1.01004 0.641264 50
-2.79782 0.533127 0.752828 50
-2.63533 1.0117 0.440563 52
-2.81273 0.540974 0.549513 50
-1.47215 0.56421 0.134874 4
-2.81118 0.544712 0.346834 49
-1.43766 0.551247 0.0262659 4
-2.82532 0.549454 0.149027 55
-0.620306 0.237126 -0.0330815 56
-1.43632 0.551874 -0.18437 4
-0.639582 0.128274 -0.0539288 79
-1.29711 0.498753 -0.262844 3
-0.770217 0.153089 -0.119021 52
-0.99045 0.381261 -0.274816 4
-0.762893 0.150894 -0.171266 52
-2.63265 1.01593 0.642387 50
-2.79926 0.538461 0.753475 50
-2.63817 1.01807 0.441344 52
-2.81179 0.545882 0.549513 50
-1.48045 0.570368 0.135745 4
-2.81023 0.549617 0.346834 49
-1.44369 0.556458 0.0263968 4
-2.82436 0.554384 0.149027 55
-0.62222 0.239108 -0.0332127 56
-1.43072 0.552588 -0.183761 4
-0.636912 0.128914 -0.0537113 77
-1.30767 0.505452 -0.265224 3
-0.774796 0.155375 -0.119804 52
-0.989783 0.382989 -0.274816 3
-0.767412 0.153149 -0.172389 52
