# .PCD v0.7 - Point Cloud Data file format
VERSION 0.7
FIELDS x y z intensity
SIZE 4 4 4 4
TYPE F F F F
COUNT 1 1 1 1
WIDTH 1516
HEIGHT 1
VIEWPOINT 0 0 0 1 0 0 0
POINTS 1516
DATA ascii
-0.817443 -0.0884949 -0.2108 50
-0.812908 -0.233876 -0.186989 45
-7.06702 -0.752922 1.63011 26
-7.23211 -2.12617 2.00776 33
-7.01304 -0.748408 1.10902 1
-7.22325 -2.10855 1.45457 33
-7.00081 -0.748328 0.612923 1
-7.31286 -2.12512 0.929454 32
-3.10433 -0.331507 0.0538843 21
-1.69364 -0.487067 0.0905412 50
-0.655261 -0.0709578 -0.0328189 56
-1.69583 -0.487069 -0.0301927 55
-0.819322 -0.088092 -0.0967484 56
-0.82154 -0.233381 -0.0715426 52
-0.813196 -0.0871628 -0.151897 53
-0.819372 -0.23334 -0.129592 49
-0.815209 -0.0866741 -0.210153 50
-0.813315 -0.232457 -0.186989 45
-6.85284 -0.69267 1.57958 1
-7.23655 -2.085 2.00582 33
-7.00962 -0.709708 1.10785 1
-7.22711 -2.06867 1.45314 33
-7.27484 -0.737778 0.636673 36
-7.32187 -2.08484 0.92915 32
-3.10851 -0.315499 0.0539279 17
-1.69385 -0.477213 0.0904104 50
-0.660591 -0.0680271 -0.0330815 55
-1.69364 -0.476519 -0.0301054 59
-0.81238 -0.0829145 -0.0958357 56
-0.820356 -0.228395 -0.0713251 52
-0.816098 -0.0830059 -0.152373 53
-0.822957 -0.229724 -0.129984 49
-0.818055 -0.0826431 -0.2108 50
-0.816903 -0.228723 -0.18755 47
-6.8515 -0.681664 1.57901 1
-7.24017 -2.07236 2.00582 33
-7.01318 -0.698941 1.10824 1
-7.22835 -2.05538 1.45266 33
-7.28603 -0.726066 0.637544 30
-7.30842 -2.0686 0.92702 32
-3.09911 -0.309086 0.0537534 14
-1.6922 -0.473872 0.0902795 50
-0.660709 -0.066874 -0.0330815 58
-1.69447 -0.473563 -0.0301054 74
-0.817448 -0.0821261 -0.0964442 55
-0.818356 -0.226286 -0.0711077 52
-0.816241 -0.0815814 -0.152373 52
-0.820981 -0.227614 -0.129592 49
-0.818198 -0.0812152 -0.2108 50
-0.810232 -0.22544 -0.185866 44
-6.8477 -0.645097 1.57733 1
-7.24824 -2.03504 2.00517 33
-6.99954 -0.66059 1.10551 1
-7.23157 -2.01679 1.45123 35
-7.27473 -0.687775 0.636237 36
-7.32393 -2.03163 0.927629 33
-3.10561 -0.293865 0.0538407 12
-1.69706 -0.465672 0.0904104 50
-0.656079 -0.0629472 -0.0328189 56
-1.70166 -0.466315 -0.0301927 90
-0.807984 -0.0769211 -0.0952272 55
-0.82193 -0.222663 -0.0713251 52
-0.809313 -0.0767664 -0.150945 52
-0.82692 -0.224634 -0.130375 49
-0.811385 -0.0764063 -0.20886 50
-0.813748 -0.221849 -0.186427 45
-6.93129 -0.640752 1.59642 1
-7.23318 -2.01718 2 32
-6.99822 -0.648145 1.10512 1
-7.22597 -2.00028 1.44932 33
-7.28088 -0.675537 0.636673 36
-7.31551 -2.01554 0.926107 35
-3.09123 -0.286524 0.0535789 11
-1.68824 -0.460058 0.089887 52
-0.653702 -0.0615732 -0.0326876 56
-1.69524 -0.461355 -0.0300618 90
-0.810588 -0.0757374 -0.0955314 55
-0.819916 -0.220567 -0.0711077 50
-0.814334 -0.0758003 -0.151897 53
-0.82017 -0.221221 -0.129201 49
-0.81634 -0.0752836 -0.210153 50
-0.804743 -0.217827 -0.184181 44
-7.05843 -0.613983 1.62506 1
-7.24399 -1.97802 2 33
-6.99425 -0.60963 1.10394 1
-7.23635 -1.96241 1.44932 35
-7.26955 -0.634837 0.635365 36
-7.31673 -1.97334 0.92489 35
-3.0902 -0.270118 0.0535353 11
-1.69794 -0.452866 0.0902795 52
-0.651528 -0.0579337 -0.0325564 56
-1.69771 -0.452176 -0.0300618 85
-0.808514 -0.0711373 -0.0952272 55
-0.81625 -0.214975 -0.0706728 52
-0.814732 -0.0713933 -0.151897 53
-0.818933 -0.216279 -0.128809 50
-0.816723 -0.0710082 -0.210153 50
-0.812963 -0.215382 -0.185866 47
-7.08609 -0.60517 1.63124 1
-7.23111 -1.96094 1.99548 33
-7.00258 -0.599273 1.10512 1
-7.22554 -1.94594 1.44646 33
-7.2756 -0.622572 0.635801 36
-7.31263 -1.95991 0.923978 33
-3.08818 -0.264512 0.0534916 11
-1.689 -0.447614 0.0897562 50
-0.649141 -0.056585 -0.0324251 56
-1.69367 -0.447921 -0.0299745 79
-0.816624 -0.21355 -0.0706728 50
-0.817301 -0.070177 -0.152373 52
-0.81454 -0.21357 -0.128026 49
-0.819252 -0.0697835 -0.2108 52
-0.808596 -0.212838 -0.184742 47
-7.07459 -0.566894 1.62787 1
-7.23395 -1.92245 1.99354 33
-7.00316 -0.562402 1.10472 1
-7.23056 -1.90809 1.44551 33
-7.27866 -0.585739 0.635801 36
-7.31319 -1.91907 0.922761 33
-3.08948 -0.248878 0.0534916 11
-1.68891 -0.438131 0.0896253 52
-0.651917 -0.0533838 -0.0325564 56
-1.68866 -0.437443 -0.0298436 73
-0.808094 -0.206747 -0.069803 49
-0.812752 -0.0656525 -0.151421 52
-0.822811 -0.211184 -0.129201 49
-0.81478 -0.0652587 -0.209507 50
-0.804988 -0.207358 -0.183619 44
-7.08285 -0.555116 1.62955 1
-7.22562 -1.90673 1.99031 33
-6.99428 -0.549407 1.10316 1
-7.22709 -1.89234 1.44408 35
-7.27967 -0.573034 0.635801 36
-7.30933 -1.90442 0.921848 33
-3.09244 -0.243141 0.0535353 11
-1.69209 -0.435812 0.0897562 52
-0.656987 -0.0526342 -0.0328189 56
-1.68216 -0.432607 -0.0297127 73
-0.810864 -0.205963 -0.0700204 50
-0.815313 -0.0644231 -0.151897 53
-0.813622 -0.207255 -0.127635 49
-0.814904 -0.0636944 -0.209507 52
-0.814775 -0.208422 -0.185866 49
-7.06146 -0.515019 1.62394 1
-7.22648 -1.86519 1.98773 32
-6.99715 -0.511557 1.10316 1
-7.22501 -1.85142 1.4417 35
-7.27522 -0.533095 0.635147 35
-7.31712 -1.86423 0.921544 35
-3.11362 -0.2284 0.0538843 8
-1.68958 -0.425418 0.0894945 52
-0.652273 -0.0488313 -0.0325564 56
-1.67237 -0.420419 -0.0294946 15
-0.811903 -0.0600205 -0.0955314 56
-0.811932 -0.201715 -0.0700204 50
-0.813201 -0.059835 -0.151421 53
-0.817088 -0.203602 -0.128026 49
-0.812817 -0.0592553 -0.20886 52
-0.811171 -0.202801 -0.184742 47
-7.07441 -0.50479 1.62674 1
-7.21569 -1.84896 1.98385 32
-6.99056 -0.500038 1.10199 1
-7.21872 -1.83638 1.43979 35
-7.27614 -0.520396 0.635147 36
-7.3032 -1.84847 0.919414 33
-1.69267 -0.423376 0.0896253 52
-0.657338 -0.0480463 -0.0328189 58
-0.814472 -0.0589199 -0.0958357 56
-0.809868 -0.199687 -0.069803 49
-0.813305 -0.0584156 -0.151421 53
-0.819836 -0.202783 -0.128418 49
-0.812919 -0.0578366 -0.20886 52
-0.811489 -0.201527 -0.184742 47
-7.07452 -0.467582 1.62618 1
-7.22027 -1.81124 1.98256 32
-6.99308 -0.463429 1.10199 1
-7.22316 -1.79863 1.43884 35
-7.28365 -0.483891 0.635583 35
-7.31278 -1.8102 0.919414 33
-1.69001 -0.413308 0.0893636 52
-0.657573 -0.0447186 -0.0328189 58
-0.817245 -0.0548164 -0.0961399 56
-0.803615 -0.193792 -0.0691506 49
-0.808692 -0.0539799 -0.150468 53
-0.820886 -0.198487 -0.128418 49
-0.813202 -0.0537213 -0.20886 52
-0.810169 -0.196687 -0.184181 47
-7.07525 -0.456469 1.62618 1
-7.21405 -1.7963 1.97997 33
-6.99881 -0.45154 1.10277 1
-7.21438 -1.78307 1.43645 33
-7.27702 -0.470697 0.63493 35
-7.31352 -1.79684 0.91911 35
-1.68831 -0.409762 0.0892328 52
-0.65765 -0.0435709 -0.0328189 58
-0.814863 -0.0532324 -0.0958357 56
-0.803952 -0.192389 -0.0691506 47
-0.813683 -0.0528783 -0.151421 52
-0.818834 -0.196464 -0.128026 49
-0.813294 -0.0523019 -0.20886 52
-0.810511 -0.195273 -0.184181 47
-6.96818 -0.411737 1.60091 1
-7.22804 -1.75964 1.98126 35
-7.00107 -0.414888 1.10277 1
-7.21169 -1.74238 1.43407 35
-7.2769 -0.432441 0.634712 33
-7.31318 -1.7562 0.917893 35
-1.69043 -0.400917 0.0892328 52
-0.655384 -0.0398657 -0.0326876 58
-1.56133 -0.369352 -0.0274003 18
-0.817608 -0.0491097 -0.0961399 56
-0.802559 -0.187456 -0.0689331 47
-0.811499 -0.048475 -0.150945 53
-0.81745 -0.191597 -0.127635 49
-0.815968 -0.048181 -0.209507 52
-0.811522 -0.191026 -0.184181 47
-6.8716 -0.394016 1.57845 1
-7.21702 -1.74361 1.97739 33
-7.27544 -0.418351 1.14609 38
-7.21025 -1.72738 1.43312 35
-7.27765 -0.41974 0.634712 33
-7.30899 -1.7417 0.91698 33
-1.68627 -0.396808 0.0889711 53
-0.647975 -0.0382959 -0.0322938 58
-1.5644 -0.367205 -0.0274439 20
-0.812738 -0.0474021 -0.0955314 56
-0.800462 -0.185478 -0.0687157 47
-0.814033 -0.0471965 -0.151421 52
-0.81298 -0.189024 -0.126852 49
-0.808825 -0.0462137 -0.207567 50
-0.809486 -0.189042 -0.183619 49
-6.86633 -0.356455 1.57677 1
-7.2193 -1.70287 1.97545 33
-7.27759 -0.378981 1.14609 38
-7.21203 -1.68792 1.43169 33
-7.27732 -0.380229 0.634494 32
-7.30622 -1.69931 0.915459 33
-1.68596 -0.387114 0.0888403 53
-0.648167 -0.0349026 -0.0322938 59
-1.57124 -0.359866 -0.0275312 20
-0.808026 -0.0427504 -0.094923 56
-0.791719 -0.17903 -0.0678459 44
-0.809374 -0.0425423 -0.150468 53
-0.816396 -0.185183 -0.127243 49
-0.811468 -0.042099 -0.208214 50
-0.810497 -0.184659 -0.183619 47
-6.86932 -0.34579 1.57733 1
-7.22461 -1.69082 1.97609 35
-7.27824 -0.366279 1.14609 36
-7.20779 -1.67366 1.43026 35
-7.27798 -0.367527 0.634494 33
-1.68177 -0.383048 0.0885786 53
-0.65072 -0.0338958 -0.0324251 59
-1.56942 -0.356562 -0.0274875 21
-0.813056 -0.0415851 -0.0955314 55
-0.787176 -0.176529 -0.0674109 44
-0.806996 -0.0410093 -0.149992 53
-0.814312 -0.183202 -0.126852 50
-0.806716 -0.0404493 -0.20692 49
-0.808445 -0.182693 -0.183058 49
-6.87103 -0.309818 1.57733 1
-7.22131 -1.65153 1.97286 35
-7.27507 -0.329213 1.14531 36
-7.21138 -1.63607 1.42931 35
-7.27726 -0.330572 0.634276 33
-1.68612 -0.37508 0.0887094 55
-0.648394 -0.0303767 -0.0322938 59
-1.59072 -0.353004 -0.0278366 21
-0.805819 -0.0371395 -0.0946187 56
-0.78323 -0.171312 -0.066976 42
-0.809645 -0.0370321 -0.150468 52
-0.815229 -0.179078 -0.126852 50
-0.811736 -0.0365746 -0.208214 50
-0.811735 -0.179138 -0.183619 49
-6.874 -0.29793 1.57789 1
-7.21947 -1.63786 1.97157 33
-7.27317 -0.316409 1.14492 36
-7.20972 -1.62114 1.42835 35
-7.28529 -0.318195 0.63493 32
-7.0711 -1.58084 0.884122 1
-1.68921 -0.372681 0.0888403 55
-0.645952 -0.0291379 -0.0321625 59
-1.61573 -0.355671 -0.0282729 30
-0.808362 -0.0358386 -0.094923 56
-0.768944 -0.16669 -0.0656713 41
-0.81216 -0.0357226 -0.150945 52
-0.81554 -0.177655 -0.126852 50
-0.806979 -0.0348164 -0.20692 49
-0.807293 -0.176651 -0.182496 47
-6.88038 -0.260918 1.57901 1
-7.21408 -1.59563 1.96769 33
-7.27477 -0.277053 1.14492 36
-7.20852 -1.58126 1.42645 35
-7.28441 -0.278679 0.634712 32
-7.0747 -1.5415 0.883514 1
-1.679 -0.360879 0.0881861 53
-0.651085 -0.0259435 -0.0324251 59
-1.63961 -0.351705 -0.0286656 44
-0.811024 -0.0315567 -0.0952272 56
-0.767372 -0.162132 -0.0654539 41
-0.812342 -0.0313278 -0.150945 52
-0.818871 -0.173909 -0.127243 50
-0.811977 -0.0307651 -0.208214 50
-0.808237 -0.172281 -0.182496 47
-7.06094 -0.256622 1.62057 21
-7.22157 -1.58408 1.96899 33
-7.27026 -0.265446 1.14414 36
-7.21367 -1.5692 1.42692 35
-7.28738 -0.266055 0.63493 32
-7.06984 -1.52881 0.882601 1
-3.13239 -0.114603 0.0541025 9
-1.68445 -0.359297 0.0884478 55
-0.64115 -0.0244481 -0.0319 59
-1.66221 -0.353585 -0.0290583 50
-0.811072 -0.0302827 -0.0952272 56
-0.767654 -0.160792 -0.0654539 41
-0.812395 -0.02991 -0.150945 52
-0.811934 -0.170911 -0.126069 50
-0.812029 -0.0293478 -0.208214 50
-0.806126 -0.170493 -0.181935 47
-6.87469 -0.213853 1.57733 1
-7.22005 -1.54548 1.9664 33
-7.27155 -0.227375 1.14414 36
-7.21432 -1.53114 1.42549 35
-7.29112 -0.229245 0.635147 29
-7.06803 -1.48971 0.881384 1
-3.09045 -0.0974277 0.0533607 9
-1.68386 -0.349957 0.0883169 55
-0.64626 -0.0212441 -0.0321625 59
-1.66887 -0.346197 -0.0291455 53
-0.81122 -0.0260355 -0.0952272 56
-0.766048 -0.156258 -0.0652364 41
-0.810083 -0.0257241 -0.150468 52
-0.810402 -0.166148 -0.125677 50
-0.812167 -0.0252374 -0.208214 50
-0.807008 -0.16627 -0.181935 49
-6.86531 -0.20157 1.57508 1
-7.21565 -1.53136 1.96446 33
-7.27194 -0.214684 1.14414 36
-7.20764 -1.51526 1.42359 35
-7.28902 -0.216446 0.63493 30
-7.06577 -1.47636 0.880776 1
-3.10313 -0.0918585 0.0535789 11
-1.68203 -0.346507 0.0881861 56
-0.646296 -0.0201161 -0.0321625 61
-1.67437 -0.344304 -0.0292328 58
-0.806303 -0.0244776 -0.0946187 56
-0.807673 -0.0242408 -0.149992 53
-0.815524 -0.165745 -0.12646 49
-0.8098 -0.023612 -0.207567 50
-0.80968 -0.165363 -0.182496 49
-6.8663 -0.164423 1.57508 1
-7.21674 -1.49083 1.96252 33
-7.27053 -0.175277 1.14375 36
-7.21307 -1.477 1.42311 35
-7.29506 -0.177125 0.635365 29
-7.06636 -1.43662 0.879863 1
-3.10856 -0.0757289 0.0536661 12
-1.68633 -0.337899 0.0883169 55
-0.643897 -0.0166726 -0.0320313 59
-1.68111 -0.336234 -0.02932 61
-0.808905 -0.0201724 -0.094923 56
-0.810246 -0.0199266 -0.150468 52
-0.813962 -0.160979 -0.126069 49
-0.805084 -0.0192645 -0.206274 50
-0.803403 -0.159514 -0.180812 49
-6.8763 -0.153853 1.57733 1
-7.20986 -1.47629 1.95994 35
-7.27326 -0.163911 1.14414 35
-7.21083 -1.46343 1.42216 35
-7.28291 -0.164115 0.634276 30
-7.0686 -1.42552 0.879863 1
-3.10369 -0.0701926 0.0535789 15
-1.68196 -0.334263 0.0880552 56
-0.648917 -0.0156586 -0.0322938 59
-1.67924 -0.332806 -0.0292764 62
-0.806454 -0.018848 -0.0946187 56
-0.81028 -0.0185124 -0.150468 53
-0.814241 -0.159558 -0.126069 50
-0.81236 -0.0180073 -0.208214 52
-0.808428 -0.159221 -0.181935 49
-6.88431 -0.117971 1.57901 1
-7.21251 -1.43883 1.95865 33
-7.26908 -0.125742 1.14336 35
-7.21092 -1.42548 1.42073 35
-7.28365 -0.127251 0.634276 30
-7.07354 -1.38801 0.879559 1
-3.10151 -0.0544398 0.0535353 29
-1.68124 -0.324971 0.0879244 56
-0.643995 -0.0122894 -0.0320313 59
-1.68336 -0.324783 -0.02932 62
-0.809023 -0.0146659 -0.094923 58
-0.810363 -0.014411 -0.150468 52
-0.812643 -0.154817 -0.125677 50
-0.810026 -0.0138583 -0.207567 52
-0.80925 -0.154986 -0.181935 49
-6.90885 -0.107531 1.58463 1
-7.21027 -1.4253 1.95735 33
-7.26682 -0.113017 1.14297 33
-7.20858 -1.41195 1.41977 35
-7.06864 -1.37423 0.878646 1
-3.11909 -0.0492953 0.0538407 36
-1.67935 -0.321559 0.0877936 56
-0.649008 -0.0112412 -0.0322938 59
-1.67411 -0.31994 -0.0291455 64
-0.809048 -0.0132539 -0.094923 58
-0.810387 -0.0129967 -0.150468 53
-0.815335 -0.15387 -0.126069 50
-0.812463 -0.0124774 -0.208214 50
-0.807129 -0.153105 -0.181373 49
-7.21526 -1.38707 1.95671 33
-7.21588 -1.37419 1.41977 35
-7.0733 -1.33674 0.878342 1
-3.09431 -0.0327101 0.0534044 23
-1.67856 -0.312299 0.0876627 56
-0.646563 -0.00770518 -0.0321625 59
-1.66593 -0.309317 -0.028971 64
-0.809106 -0.00901754 -0.094923 58
-0.80799 -0.00873105 -0.149992 53
-0.808852 -0.148221 -0.124894 49
-0.810103 -0.00820292 -0.207567 50
-0.80792 -0.148877 -0.181373 49
-7.20581 -1.37221 1.95348 33
-7.21368 -1.35942 1.41882 35
-3.1056 -0.0279456 0.268658 8
-7.06343 -1.3221 0.87682 1
-3.11437 -0.0269334 0.0537534 23
-1.6791 -0.309368 0.0876627 56
-0.641583 -0.00653662 -0.0319 59
-1.6591 -0.305032 -0.0288401 64
-0.806639 -0.00758631 -0.0946187 58
-0.808004 -0.00732083 -0.149992 53
-0.806682 -0.146354 -0.124502 49
-0.812532 -0.00666321 -0.208214 50
-0.805784 -0.147015 -0.180812 49
-7.20601 -1.33188 1.95154 33
-3.10928 -0.0106232 0.485829 4
-7.20863 -1.31941 1.41644 35
-3.07582 -0.0110485 0.266043 9
-7.07292 -1.28431 0.877125 1
-3.09447 -0.010567 0.0534044 14
-1.67584 -0.299387 0.087401 53
-0.649098 -0.00319814 -0.0322938 59
-1.66319 -0.296497 -0.0288837 47
-0.806668 -0.00322189 -0.0946187 59
-0.716201 -0.12503 -0.0604524 36
-0.81294 -0.00295845 -0.150945 53
-0.809867 -0.142571 -0.124894 50
-0.807726 -0.00240284 -0.20692 52
-0.808964 -0.143092 -0.181373 47
-7.20595 -1.31886 1.95089 35
-3.08213 -0.00570118 0.481537 2
-7.21092 -1.30683 1.41644 35
-3.07085 -0.00567323 0.265607 9
-7.07005 -1.27232 0.876516 1
-3.08448 -0.00515392 0.0532298 14
-1.67385 -0.296312 0.0872702 38
-0.644109 -0.00206002 -0.0320313 59
-1.64648 -0.290504 -0.0285783 47
-0.804191 -0.00195304 -0.0943145 59
-0.713966 -0.123339 -0.0602349 36
-0.805581 -0.00153831 -0.149516 53
-0.810114 -0.141157 -0.124894 50
-0.810144 -0.00099182 -0.207567 50
-0.809188 -0.141821 -0.181373 49
-7.2054 -1.2811 1.94895 35
-3.05249 0.0103231 0.476854 9
-7.20294 -1.26775 1.41358 35
-3.04843 0.0097876 0.263646 14
-7.06683 -1.23357 0.875299 1
-3.07197 0.0104101 0.0530117 20
-1.6803 -0.288403 0.0875319 18
-0.644111 0.00131254 -0.0320313 59
-1.66024 -0.284312 -0.0287965 47
-0.809153 0.00228022 -0.094923 59
-0.702335 -0.117463 -0.0591477 38
-0.803125 0.00252711 -0.14904 55
-0.810842 -0.136913 -0.124894 49
-0.805308 0.00308171 -0.206274 50
-0.80752 -0.13716 -0.180812 49
-7.20049 -1.26726 1.94701 35
-3.05247 0.0156506 0.476854 9
-7.20053 -1.25308 1.41263 35
-3.05089 0.0151216 0.263864 15
-7.06164 -1.21996 0.874387 1
-3.05195 0.0161926 0.0526626 24
-1.6931 -0.287594 0.0881861 14
-0.649101 0.00246635 -0.0322938 61
-1.65334 -0.28014 -0.0286656 11
-0.801704 0.00364568 -0.0940102 59
-0.702538 -0.116237 -0.0591477 38
-0.808027 0.00396138 -0.149992 55
-0.81108 -0.135498 -0.124894 50
-0.802886 0.00460966 -0.205627 52
-0.805358 -0.135332 -0.18025 49
-7.2001 -1.22706 1.94508 36
-3.05234 0.0321658 0.476854 9
-6.96744 -1.1748 1.36544 1
-3.05575 0.0316821 0.2643 14
-7.05835 -1.18009 0.87317 1
-3.04932 0.0321448 0.052619 30
-1.72418 -0.283369 0.0897562 14
-0.649079 0.00586499 -0.0322938 61
-1.67703 -0.274892 -0.0290583 11
-0.804153 0.00801226 -0.0943145 61
-0.698224 -0.111736 -0.0587128 38
-0.806908 -0.130432 -0.124111 50
-0.80768 0.00887501 -0.20692 50
-0.806079 -0.130973 -0.18025 49
-7.19985 -1.21409 1.94443 36
-3.05969 0.0370534 0.478025 8
-7.19942 -1.20116 1.41072 35
-3.05071 0.0369527 0.263864 14
-7.05775 -1.1686 0.872865 1
-3.05176 0.0374987 0.0526626 23
-0.646572 0.00696559 -0.0321625 61
-1.69723 -0.27522 -0.0294073 11
-0.80414 0.00927541 -0.0943145 61
-0.698418 -0.110517 -0.0587128 38
-0.807134 -0.129024 -0.124111 50
-0.807664 0.0102847 -0.20692 52
-0.803881 -0.129305 -0.179689 49
-7.19637 -1.17607 1.94184 35
-3.12859 0.0543042 0.488951 1
-7.20298 -1.16431 1.41024 35
-3.06791 0.0527005 0.265389 2
-7.05642 -1.13045 0.871953 1
-3.07903 0.053434 0.0531426 3
-0.649022 0.0103962 -0.0322938 61
-1.70354 -0.267415 -0.0294946 11
-0.801599 0.0134398 -0.0940102 67
-0.68915 -0.105287 -0.0578429 39
-0.805361 -0.124405 -0.123719 50
-0.802773 0.0142781 -0.205627 52
-0.806952 -0.125483 -0.18025 49
-7.19841 -1.16351 1.94184 35
-6.96531 -1.11201 1.36306 1
-3.08027 0.0582962 0.266479 11
-7.05593 -1.11774 0.871648 1
-3.08392 0.0594438 0.0532298 14
-0.646507 0.0114793 -0.0321625 65
-1.71635 -0.266392 -0.0297127 15
-0.804055 0.0148891 -0.0943145 68
-0.691793 -0.104473 -0.0580604 41
-0.807893 0.0152428 -0.149992 56
-0.808015 -0.123386 -0.124111 50
-0.802744 0.0158192 -0.205627 52
-0.804764 -0.12369 -0.179689 49
-7.19506 -1.12305 1.93926 35
-6.97104 -1.07552 1.36306 1
-7.06678 -1.0803 0.872257 1
-3.09855 0.0759645 0.0534916 14
-0.646438 0.0148642 -0.0321625 64
-0.796521 0.0190482 -0.0934018 70
-0.69233 -0.100849 -0.0580604 42
-0.812706 0.0197413 -0.150945 56
-0.806231 -0.118638 -0.123719 50
-0.80265 0.0200222 -0.205627 53
-0.807829 -0.119706 -0.18025 49
-7.16053 0.189846 1.64303 44
-7.19223 -1.10975 1.93797 35
-7.26268 0.192587 1.14258 36
-6.96805 -1.06261 1.36211 1
-7.05639 -1.0661 0.870736 1
-3.09842 0.0813724 0.0534916 12
-0.651402 0.0161267 -0.0324251 73
-0.801448 0.0205744 -0.0940102 68
-0.685117 -0.0985258 -0.057408 42
-0.807764 0.0210235 -0.149992 58
-0.811319 -0.11797 -0.124502 49
-0.8002 0.0213543 -0.20498 52
-0.810445 -0.118663 -0.180812 49
-7.14965 0.228273 1.64078 33
-7.19794 -1.07208 1.93797 33
-7.2591 0.230533 1.14219 36
-6.95653 -1.0236 1.35877 1
-7.27366 0.229739 0.633622 26
-7.05942 -1.02878 0.870431 1
-3.09295 0.0974348 0.0534044 11
-0.658795 0.0197776 -0.0328189 79
-0.806289 0.0249324 -0.0946187 71
-0.683159 -0.0945785 -0.0571906 45
-0.810095 0.0253336 -0.150468 58
-0.804596 -0.11265 -0.123328 50
-0.80249 0.0256252 -0.205627 52
-0.803824 -0.113354 -0.179127 49
-7.14685 0.239421 1.64022 33
-7.19502 -1.05881 1.93668 35
-7.25622 0.243119 1.1418 36
-6.9583 -1.01146 1.35877 1
-7.27574 0.242517 0.63384 29
-7.05384 -1.01539 0.869519 1
-3.12775 0.104011 0.0540152 11
-0.656264 0.0208429 -0.0326876 79
-0.801285 0.026169 -0.0940102 71
-0.670997 -0.0916142 -0.0561033 45
-0.805144 0.026577 -0.149516 56
-0.807235 -0.111598 -0.123719 50
-0.807271 0.0271968 -0.20692 52
-0.804021 -0.111951 -0.179127 49
-7.1528 0.277123 1.64191 33
-7.19073 -1.02101 1.93409 33
-7.25736 0.279938 1.14219 36
-6.95847 -0.975541 1.35782 1
-7.27442 0.27934 0.63384 30
-7.05151 -0.978648 0.868606 1
-3.12219 0.119647 0.0539279 3
-0.656146 0.0242788 -0.0326876 82
-0.796183 0.0300286 -0.0934018 73
-0.669001 -0.0877582 -0.0558859 45
-0.807452 0.0307495 -0.149992 58
-0.802165 -0.107542 -0.178566 49
-7.14987 0.289507 1.64134 33
-7.1925 -1.00846 1.93409 33
-7.26427 0.292904 1.14336 36
-6.95061 -0.960829 1.35591 1
-7.27143 0.291935 0.633622 32
-7.04338 -0.964986 0.867389 1
-3.06251 -0.414684 0.160148 9
-0.656103 0.0254239 -0.0326876 85
-0.788691 0.0311116 -0.092489 76
-0.669153 -0.0865905 -0.0558859 45
-0.802493 0.0319549 -0.14904 55
-0.804764 -0.106475 -0.179127 49
-7.15064 0.3283 1.64191 35
-7.19067 -0.968558 1.93215 32
-7.26257 0.332203 1.14336 32
-6.95798 -0.924747 1.35639 1
-7.28716 0.33207 0.635147 27
-7.04358 -0.926213 0.866781 1
-3.05481 -0.396806 0.159625 9
-0.653467 0.0287439 -0.0325564 89
-0.793469 0.0356095 -0.0930975 77
-0.672067 -0.0834098 -0.0561033 47
-0.807211 0.0365267 -0.149992 58
-0.803625 -0.101223 -0.122936 50
-0.799642 0.0367122 -0.20498 53
-0.805329 -0.10212 -0.179127 49
-7.15255 0.339648 1.64247 35
-7.18517 -0.955047 1.93021 32
-7.26204 0.343611 1.14336 33
-6.94985 -0.911319 1.35448 1
-7.28657 0.344788 0.635147 27
-7.04748 -0.915469 0.867085 1
-3.04553 -0.390721 0.159101 9
-0.655909 0.0300037 -0.0326876 90
-0.790933 0.0367364 -0.0927933 77
-0.667271 -0.0815969 -0.0556684 47
-0.812049 0.0381744 -0.150945 58
-0.801352 -0.0995013 -0.122545 50
-0.801989 0.038227 -0.205627 53
-0.798242 -0.0999031 -0.177443 50
-7.18752 -0.91836 1.92957 32
-7.25521 0.38137 1.14258 35
-6.9495 -0.875514 1.35353 1
-7.29219 0.382056 0.635801 27
-7.05218 -0.878556 0.867085 1
-3.05496 -0.375695 0.159494 9
-0.653256 0.0331912 -0.0325564 90
-0.785775 0.0406123 -0.0921848 79
-0.667676 -0.0782185 -0.0556684 49
-0.806944 0.0420203 -0.149992 58
-0.801862 -0.095304 -0.122545 50
-0.796963 0.0420228 -0.204334 53
-0.796337 -0.0954177 -0.176881 50
-7.18911 -0.905813 1.92957 32
-7.26193 0.394435 1.14375 38
-6.95102 -0.863384 1.35353 1
-7.27659 0.393972 0.634494 27
-7.03646 -0.864118 0.864955 1
-3.04818 -0.36945 0.159101 9
-0.658183 0.034604 -0.0328189 90
-0.790658 0.0422572 -0.0927933 80
-0.662867 -0.0764469 -0.0552335 49
-0.801968 0.0431563 -0.14904 58
-0.802027 -0.0939044 -0.122545 50
-0.796888 0.0434137 -0.204334 53
-0.79892 -0.094328 -0.177443 50
-6.88037 0.410972 1.5807 1
-7.18416 -0.866995 1.92698 32
-7.24991 0.431863 1.14219 36
-6.95301 -0.826685 1.35305 1
-7.27692 0.432215 0.634712 30
-7.275 -0.85493 0.893858 33
-3.05007 -0.353485 0.159101 11
-0.653008 0.037751 -0.0325564 90
-0.792903 0.0465463 -0.0930975 82
-0.668206 -0.0735554 -0.0556684 49
-0.806631 0.0476527 -0.149992 58
-0.802507 -0.0897037 -0.122545 50
-0.803881 0.0480304 -0.206274 53
-0.804241 -0.0907188 -0.178566 50
-7.13989 0.437783 1.64078 33
-7.18806 -0.854742 1.92763 32
-7.259 0.445123 1.14375 38
-6.952 -0.814261 1.35257 1
-7.26869 0.444458 0.634058 32
-7.27401 -0.841944 0.893554 33
-3.05069 -0.348161 0.159101 11
-0.657925 0.0391981 -0.0328189 90
-0.790344 0.047776 -0.0927933 82
-0.670807 -0.0726749 -0.0558859 50
-0.804097 0.0489073 -0.149516 58
-0.797757 -0.0877336 -0.121762 50
-0.798976 0.0491284 -0.20498 53
-0.79714 -0.0884648 -0.176881 50
-7.13742 0.476407 1.64078 33
-7.18524 -0.816271 1.92569 32
-7.25657 0.483125 1.14375 38
-6.94885 -0.777027 1.35114 1
-7.26378 0.482345 0.63384 32
-7.04403 -0.777815 0.864651 1
-3.05247 -0.332183 0.159101 11
-0.65522 0.0424756 -0.0326876 90
-0.785131 0.0515794 -0.0921848 85
-0.668703 -0.0688887 -0.0556684 50
-0.801381 0.0529507 -0.14904 58
-0.798206 -0.0835554 -0.121762 52
-0.803526 0.0536414 -0.206274 53
-0.797592 -0.0842898 -0.176881 50
-7.13909 0.487785 1.64134 33
-7.18185 -0.803189 1.9244 32
-7.25818 0.495958 1.14414 38
-6.94532 -0.764357 1.35019 1
-7.26044 0.494852 0.633622 35
-7.26985 -0.790063 0.892337 33
-3.04311 -0.325776 0.158578 11
-0.652654 0.043448 -0.0325564 95
-0.787515 0.053121 -0.092489 86
-0.66387 -0.0671844 -0.0552335 50
-0.801288 0.0543493 -0.14904 59
-0.798351 -0.0821621 -0.121762 50
-0.798613 0.0547051 -0.20498 53
-0.797738 -0.0828976 -0.176881 52
-7.1412 0.526763 1.64247 33
-7.18596 -0.765574 1.9244 32
-7.24564 0.533228 1.14258 38
-6.94435 -0.727466 1.34924 1
-7.25279 0.532495 0.633186 35
-7.28129 -0.752758 0.893249 35
-3.05223 -0.310608 0.15897 11
-0.652409 0.0469786 -0.0325564 98
-0.789701 0.057428 -0.0927933 88
-0.666701 -0.0638467 -0.0554509 50
-0.803439 0.0587273 -0.149516 59
-0.793858 -0.0774716 -0.120979 50
-0.798316 0.0588859 -0.20498 53
-0.800584 -0.0789734 -0.177443 50
-7.14027 0.539226 1.64247 33
-7.18729 -0.753031 1.9244 32
-7.24469 0.545873 1.14258 38
-6.94329 -0.71388 1.34876 1
-7.25433 0.54534 0.633404 35
-7.27765 -0.739544 0.892641 35
-3.05277 -0.30528 0.15897 11
-0.657305 0.048495 -0.0328189 101
-0.787125 0.0586176 -0.092489 88
-0.664334 -0.0624321 -0.0552335 52
-0.798442 0.0597546 -0.148564 58
-0.793992 -0.0760859 -0.120979 50
-0.798201 0.0604184 -0.20498 53
-0.795874 -0.0770768 -0.17632 50
-7.13968 0.578048 1.64303 35
-7.18645 -0.713653 1.92311 30
-7.24902 0.58566 1.14375 38
-6.94693 -0.677516 1.34876 1
-7.24382 0.583979 0.632751 35
-7.27908 -0.699918 0.892337 33
-3.0494 -0.288281 0.158709 11
-0.654554 0.051734 -0.0326876 104
-0.791743 0.0632795 -0.0930975 88
-0.664652 -0.0589529 -0.0552335 50
-0.800552 0.0642743 -0.14904 58
-0.796837 -0.072165 -0.12137 52
-0.793061 0.0641987 -0.203687 52
-0.798704 -0.0730061 -0.176881 50
-6.87413 0.567365 1.58182 1
-7.17567 -0.699929 1.91987 30
-7.24317 0.59664 1.14297 38
-6.94566 -0.665154 1.34828 1
-7.25024 0.597236 0.633404 33
-7.27523 -0.688013 0.891728 33
-3.05482 -0.283961 0.15897 11
-0.656951 0.0530827 -0.0328189 108
-0.786697 0.0641113 -0.092489 88
-0.662274 -0.0575592 -0.055016 50
-0.797993 0.0654665 -0.148564 58
-0.792045 -0.0703077 -0.120587 50
-0.79776 0.0659894 -0.20498 53
-0.801242 -0.071984 -0.177443 50
-7.14043 0.627059 1.64415 36
-7.17431 -0.663153 1.91858 30
-7.2424 0.634773 1.14336 38
-6.94894 -0.629991 1.34828 1
-7.24961 0.634143 0.633622 33
-7.27873 -0.649911 0.891728 33
-3.06373 -0.268628 0.159363 12
-0.656664 0.0565217 -0.0328189 111
-0.791294 0.0686672 -0.0930975 89
-0.667528 -0.0545318 -0.0554509 53
-0.804986 0.0701566 -0.149992 58
-0.794862 -0.06638 -0.120979 50
-0.79501 0.0698108 -0.204334 53
-0.799182 -0.0675678 -0.176881 52
-7.1272 0.638431 1.64134 27
-7.17065 -0.650191 1.91729 32
-7.23637 0.646971 1.14258 36
-6.9428 -0.615993 1.34686 1
-7.24849 0.646795 0.633622 33
-7.27491 -0.63677 0.89112 33
-3.05424 -0.26241 0.15884 12
-0.654078 0.0574441 -0.0326876 115
-0.791173 0.0700482 -0.0930975 90
-0.670103 -0.0535829 -0.0556684 53
-0.802418 0.0713399 -0.149516 58
-0.797436 -0.0652087 -0.12137 52
-0.79247 0.0711169 -0.203687 52
-0.796872 -0.0659572 -0.17632 50
-7.17646 -0.611591 1.91794 30
-6.9386 -0.579015 1.34543 1
-7.2733 -0.59699 0.890511 33
-3.05562 -0.245881 0.15884 12
-0.656253 0.0611047 -0.0328189 122
-0.788312 0.0740913 -0.0927933 90
-0.660446 -0.0492607 -0.0547986 53
-0.80202 0.0756803 -0.149516 58
-0.797767 -0.0610324 -0.12137 52
-0.796894 0.0757307 -0.20498 53
-0.797217 -0.0616448 -0.17632 50
-7.17752 -0.599065 1.91794 27
-6.94204 -0.567105 1.3459 1
-7.27423 -0.585565 0.890511 33
-3.05351 -0.240881 0.158709 12
-0.656145 0.06225 -0.0328189 126
-0.790664 0.0755699 -0.0930975 89
-0.660531 -0.048108 -0.0547986 53
-0.801887 0.07708 -0.149516 58
-0.795411 -0.0594411 -0.120979 52
-0.794358 0.0768845 -0.204334 52
-0.794885 -0.0601936 -0.175758 52
-2.85589 0.290185 0.653618 53
-7.16842 -0.561777 1.9147 29
-6.93993 -0.531583 1.34495 1
-7.26978 -0.546906 0.889599 33
-3.04975 -0.224515 0.158447 12
-0.660778 0.0661927 -0.0330815 130
-0.790258 0.0797087 -0.0930975 90
-0.663257 -0.0448347 -0.055016 53
-0.794162 0.0803834 -0.148088 58
-0.795711 -0.0552755 -0.120979 52
-0.793958 0.0809041 -0.204334 53
-0.797619 -0.0562169 -0.17632 50
-2.8578 0.29542 0.654179 47
-7.16939 -0.549265 1.9147 29
-6.93604 -0.517889 1.344 1
-7.27072 -0.534217 0.889599 33
-3.05512 -0.219557 0.158709 12
-0.658178 0.0670875 -0.0329502 134
-0.792586 0.0813455 -0.0934018 90
-0.658366 -0.0433139 -0.0545811 55
-0.798903 0.0822807 -0.14904 59
-0.790882 -0.0535233 -0.120196 52
-0.798605 0.0829356 -0.205627 53
-0.792857 -0.0544611 -0.175197 52
-2.85616 0.310878 0.654179 47
-7.16262 -0.509775 1.91212 29
-6.93376 -0.481222 1.34304 1
-7.2735 -0.494871 0.889599 33
-3.05626 -0.203025 0.158709 12
-0.657818 0.0705328 -0.0329502 135
-0.7946 0.0859036 -0.093706 90
-0.658584 -0.0398661 -0.0545811 55
-0.803325 0.0871398 -0.149992 58
-0.796078 -0.0497191 -0.120979 52
-0.798159 0.087116 -0.205627 52
-0.79557 -0.0503392 -0.175758 50
-2.85567 0.315364 0.654179 49
-7.15387 -0.496597 1.90953 27
-6.93459 -0.46912 1.34304 1
-7.27179 -0.483279 0.889294 33
-3.0516 -0.197893 0.158447 12
-0.660175 0.0719565 -0.0330815 140
-0.791998 0.0868768 -0.0934018 90
-0.656168 -0.0385524 -0.0543637 55
-0.803171 0.0885417 -0.149992 58
-0.796163 -0.0483296 -0.120979 52
-0.798006 0.0885089 -0.205627 53
-0.795648 -0.0490894 -0.175758 50
-2.85156 0.330031 0.653618 50
-7.16111 -0.460695 1.91083 27
-2.86307 0.330874 0.449929 52
-6.94178 -0.434325 1.344 1
-2.86753 0.330897 0.249483 56
-7.26927 -0.444891 0.888686 33
-3.05757 -0.182217 0.158709 14
-0.662282 0.0755853 -0.0332127 146
-0.791533 0.0910225 -0.0934018 90
-0.65884 -0.0353824 -0.0545811 55
-0.7954 0.0917493 -0.148564 56
-0.793941 -0.0440087 -0.120587 52
-0.79515 0.0922642 -0.20498 53
-0.791032 -0.0446185 -0.174635 50
-2.85104 0.33451 0.653618 50
-7.15708 -0.447891 1.90953 26
-2.86248 0.33587 0.449929 52
-6.93028 -0.421455 1.34161 1
-2.8719 0.336483 0.249919 62
-7.26508 -0.431905 0.888077 32
-3.0529 -0.176584 0.158447 14
-0.65967 0.0764485 -0.0330815 148
-0.791373 0.0924038 -0.0934018 90
-0.661387 -0.0343797 -0.0547986 55
-0.797676 0.0934272 -0.14904 58
-0.791552 -0.0424756 -0.120196 52
-0.794987 0.0936519 -0.20498 53
-0.79354 -0.0433857 -0.175197 50
-2.84671 0.350129 0.653056 50
-6.97616 -0.398564 1.86042 1
-2.85572 0.350748 0.449148 53
-6.93246 -0.383953 1.34161 1
-2.87003 0.352017 0.249919 73
-7.26731 -0.392591 0.888077 33
-3.05381 -0.160064 0.158447 14
-0.661724 0.0803225 -0.0332127 146
-0.736243 -0.0347025 -0.0122603 8
-0.788398 0.0963788 -0.0930975 90
-0.661563 -0.0308008 -0.0547986 56
-0.794723 0.0974387 -0.148564 58
-0.796695 -0.0385993 -0.120979 50
-0.792073 0.097652 -0.204334 53
-0.791331 -0.038957 -0.174635 50
-2.84616 0.3546 0.653056 50
-6.97202 -0.386117 1.85913 1
-2.85517 0.355234 0.449148 53
-6.93067 -0.371719 1.34114 1
-2.86941 0.357025 0.249919 70
-7.26544 -0.381044 0.887773 33
-3.05406 -0.155266 0.158447 14
-0.656629 0.0808567 -0.0329502 142
-0.738799 -0.0335469 -0.0123039 9
-0.785784 0.0973078 -0.0927933 88
-0.661616 -0.0296461 -0.0547986 56
-0.796987 0.0991328 -0.14904 58
-0.791829 -0.0369486 -0.120196 50
-0.794297 0.0993382 -0.20498 52
-0.791391 -0.0377139 -0.174635 50
-2.84668 0.369813 0.653618 50
-6.9763 -0.350947 1.85978 1
-2.85572 0.370497 0.449538 55
-6.93001 -0.336515 1.34066 1
-2.8651 0.371223 0.249701 59
-7.26982 -0.343115 0.888077 33
-3.05733 -0.139391 0.158578 14
-0.658687 0.0845019 -0.0330815 134
-0.785264 0.101421 -0.0927933 90
-0.661758 -0.026297 -0.0547986 56
-0.791608 0.102526 -0.148088 56
-0.792012 -0.0328021 -0.120196 50
-0.793784 0.103357 -0.20498 52
-0.786711 -0.0333334 -0.173512 50
-2.84609 0.374284 0.653618 50
-6.97449 -0.338652 1.85913 1
-2.85017 0.374835 0.448758 53
-7.17082 -0.335832 1.38737 36
-2.85704 0.375247 0.249048 55
-7.26793 -0.330312 0.887773 33
-3.05008 -0.133715 0.158185 14
-0.653588 0.0849971 -0.0328189 124
-0.782626 0.102465 -0.092489 88
-0.661803 -0.025142 -0.0547986 56
-0.796294 0.104555 -0.14904 55
-0.789601 -0.0313068 -0.119804 50
-0.791209 0.104422 -0.204334 52
-0.789201 -0.0320741 -0.174073 50
-2.8392 0.389013 0.652495 50
-6.97376 -0.302023 1.85848 1
-2.85062 0.390089 0.449148 53
-6.92483 -0.287816 1.33923 1
-2.86491 0.391554 0.249919 55
-7.27204 -0.292355 0.888077 32
-3.05324 -0.117843 0.158316 15
-0.658081 0.0890983 -0.0330815 115
-0.726661 -0.0241503 -0.0120858 11
-0.784537 0.1069 -0.0927933 88
-0.656948 -0.0214774 -0.0543637 56
-0.795735 0.108723 -0.14904 58
-0.789754 -0.0271721 -0.119804 50
-0.795435 0.109229 -0.205627 53
-0.791793 -0.0280426 -0.174635 50
-2.83858 0.393473 0.652495 50
-6.96945 -0.289647 1.85719 1
-2.84504 0.394383 0.448368 50
-7.17299 -0.285763 1.38737 36
-2.85929 0.395869 0.249483 52
-7.2651 -0.279371 0.887165 33
-3.05344 -0.112514 0.158316 15
-0.650506 0.0892135 -0.0326876 110
-0.7292 -0.0229771 -0.0121294 9
-0.784349 0.10827 -0.0927933 86
-0.659473 -0.020426 -0.0545811 56
-0.797975 0.110453 -0.149516 58
-0.789801 -0.0257937 -0.119804 52
-0.788069 0.109606 -0.203687 52
-0.79184 -0.0266607 -0.174635 50
-2.834 0.408476 0.651933 47
-6.9757 -0.25333 1.85848 1
-2.84294 0.409274 0.448368 50
-7.17439 -0.248201 1.38737 35
-2.84731 0.409412 0.248612 50
-7.2739 -0.241579 0.888077 33
-3.04899 -0.0963593 0.158055 15
-0.650014 0.0927317 -0.0326876 106
-0.77886 0.111662 -0.0921848 83
-0.657085 -0.0167759 -0.0543637 56
-0.797386 0.114629 -0.149516 56
-0.787457 -0.0215752 -0.119413 50
-0.789874 0.114081 -0.204334 52
-0.789534 -0.0224301 -0.174073 50
-2.82846 0.412716 0.65081 47
-6.96889 -0.240899 1.85655 1
-2.83977 0.413878 0.447977 49
-6.92957 -0.226248 1.33971 1
-2.85152 0.415101 0.249048 50
-7.26687 -0.228645 0.887165 33
-3.05165 -0.0911161 0.158185 15
-0.652321 0.0942282 -0.0328189 103
-0.781119 0.113382 -0.092489 83
-0.657113 -0.015629 -0.0543637 58
-0.797184 0.116021 -0.149516 56
-0.785026 -0.0201224 -0.119021 52
-0.787265 0.115243 -0.203687 53
-0.782268 -0.0208123 -0.172389 50
-2.82619 0.428013 0.65081 47
-6.98216 -0.203551 1.85978 1
-2.83261 0.428495 0.447197 49
-7.17598 -0.196857 1.38737 35
-2.84677 0.430149 0.24883 50
-7.27296 -0.189457 0.887773 33
-3.0521 -0.0746038 0.158185 17
-0.654287 0.0980175 -0.0329502 100
-0.782947 0.117981 -0.0927933 80
-0.659676 -0.0122525 -0.0545811 56
-0.794119 0.119961 -0.14904 58
-0.787589 -0.0160772 -0.119413 50
-0.789037 0.11973 -0.204334 52
-0.787239 -0.016713 -0.173512 50
-2.82551 0.432452 0.65081 47
-6.96802 -0.190957 1.8559 1
-2.83681 0.433693 0.447977 49
-7.17877 -0.184397 1.38784 35
-2.84356 0.43474 0.248612 50
-7.27077 -0.17797 0.887469 32
-3.05471 -0.0698705 0.158316 15
-0.64918 0.0984006 -0.0326876 98
-0.777856 0.118454 -0.0921848 76
-0.657206 -0.0110412 -0.0543637 56
-0.793908 0.121347 -0.14904 55
-0.790084 -0.0147638 -0.119804 52
-0.791213 0.121478 -0.20498 52
-0.784829 -0.0154135 -0.17295 50
-2.8184 0.446476 0.649687 49
-6.97372 -0.155798 1.85719 1
-2.83207 0.448153 0.447587 50
-7.17715 -0.148007 1.38737 33
-2.8364 0.448346 0.248176 53
-7.2716 -0.139898 0.887469 32
-3.05004 -0.0537793 0.158055 17
-0.648656 0.101798 -0.0326876 97
-0.782126 0.123307 -0.0927933 77
-0.654765 -0.00755298 -0.0541462 56
-0.793284 0.125364 -0.14904 55
-0.785213 -0.0105302 -0.119021 52
-0.795357 0.126246 -0.206274 52
-0.792206 -0.0114544 -0.174635 50
-2.81762 0.451394 0.649687 47
-6.96674 -0.143472 1.85525 1
-2.82884 0.452704 0.447197 50
-7.17252 -0.134133 1.38641 33
-2.8307 0.452508 0.24774 55
-7.24951 -0.126801 0.884731 27
-0.673929 0.106905 0.0113004 8
-3.05263 -0.0484995 0.158185 20
-0.646012 0.102534 -0.0325564 95
-0.77946 0.124277 -0.092489 77
-0.657268 -0.00645278 -0.0543637 58
-0.79791 0.127531 -0.149992 58
-0.792636 -0.00929162 -0.120196 52
-0.787962 0.126611 -0.204334 52
-0.787354 -0.00997993 -0.173512 49
-2.81513 0.466632 0.649687 50
-7.00605 -0.10639 1.86559 1
-2.82391 0.467598 0.446807 50
-2.82821 0.467816 0.24774 56
-0.678292 0.111251 0.0113877 4
-3.04536 -0.0318923 0.157793 21
-0.650392 0.106734 -0.0328189 91
-0.776328 0.128084 -0.0921848 76
-0.657292 -0.00301126 -0.0543637 56
-0.792367 0.131037 -0.14904 55
-0.790205 -0.00511025 -0.119804 53
-0.78967 0.131135 -0.20498 52
-0.782524 -0.00565434 -0.172389 52
-2.8168 0.471457 0.650249 50
-2.82318 0.472034 0.446807 52
-2.83721 0.4744 0.248612 68
-0.680561 0.112848 0.0114313 4
-3.0504 -0.027161 0.158055 23
-0.647743 0.107455 -0.0326876 90
-0.78102 0.130128 -0.0927933 71
-0.657297 -0.00186407 -0.0543637 58
-0.799396 0.133647 -0.150468 56
-0.787744 -0.00370436 -0.119413 52
-0.794202 0.133321 -0.206274 52
-0.784968 -0.00445406 -0.17295 50
-2.80709 0.484951 0.648564 50
-2.82067 0.486809 0.446807 53
-3.11456 -0.0179931 0.598126 9
-2.82986 0.487905 0.248176 90
-3.09173 -0.0135451 0.374824 9
-0.684908 0.117144 0.0115186 4
-3.0505 -0.0111888 0.158055 23
-0.642252 0.109992 -0.0324251 90
-0.780328 0.134215 -0.0927933 71
-0.657297 0.00157754 -0.0543637 58
-0.796292 0.13727 -0.149992 55
-0.787753 0.000420293 -0.119413 53
-0.788759 0.136507 -0.20498 52
-0.782545 -0.000327773 -0.172389 52
-2.80864 0.49027 0.649126 49
-2.81738 0.491306 0.446416 55
-3.08023 -0.0118277 0.591453 1
-2.83882 0.494558 0.249048 90
-3.05701 -0.00800344 0.370565 3
-0.687144 0.11889 0.0115622 4
-3.05051 -0.00586469 0.158055 17
-0.649436 0.112405 -0.0328189 90
-0.780092 0.135577 -0.0927933 70
-0.659784 0.00271691 -0.0545811 56
-0.798468 0.139085 -0.150468 56
-0.79022 0.0017857 -0.119804 53
-0.790874 0.138441 -0.205627 52
-0.782544 0.00103803 -0.172389 52
-2.80595 0.505459 0.649126 52
-2.80496 0.504788 0.444856 53
-3.06552 0.00430301 0.588594 8
-2.83365 0.509468 0.24883 90
-3.04212 0.00851842 0.368739 11
-0.691432 0.123374 0.0116495 8
-3.05299 0.010645 0.158185 18
-0.646382 0.11536 -0.0326876 90
-0.784231 0.14068 -0.0934018 68
-0.65727 0.00616626 -0.0543637 58
-0.795289 0.142965 -0.149992 56
-0.78773 0.00591979 -0.119413 52
-0.787762 0.142147 -0.20498 52
-0.782527 0.00527196 -0.172389 52
-2.80515 0.509866 0.649126 52
-2.81631 0.511405 0.446807 55
-3.06551 0.00965334 0.588594 4
-2.82296 0.512628 0.247958 83
-3.03466 0.0132762 0.367826 11
-0.691215 0.124581 0.0116495 8
-3.05048 0.0154319 0.158055 24
-0.643723 0.11604 -0.0325564 90
-0.791332 0.143251 -0.0943145 67
-0.657259 0.00731341 -0.0543637 58
-0.795039 0.144352 -0.149992 55
-0.790188 0.00730239 -0.119804 53
-0.792263 0.144397 -0.206274 52
-0.78739 0.00651135 -0.173512 52
-2.80244 0.524547 0.649126 50
-2.81117 0.525689 0.446416 50
-3.05806 0.0251203 0.587164 4
-2.82033 0.52691 0.247958 61
-3.03951 0.0292052 0.368435 11
-0.690576 0.128078 0.0116495 9
-3.05035 0.0314038 0.158055 26
-0.648035 0.120218 -0.0328189 90
-0.788132 0.146933 -0.0940102 67
-0.657213 0.01064 -0.0543637 58
-0.794298 0.148375 -0.149992 55
-0.78767 0.011419 -0.119413 53
-0.789149 0.147955 -0.205627 52
-0.787345 0.010634 -0.173512 52
-2.79443 0.527589 0.647441 52
-2.80782 0.530136 0.446026 44
-3.0531 0.0304164 0.586211 3
-2.81451 0.530906 0.247522 56
-3.04194 0.0345343 0.368739 11
-0.690351 0.129283 0.0116495 12
-3.05029 0.0367277 0.158055 23
-0.640466 0.119954 -0.0324251 90
-0.780561 0.146919 -0.0930975 61
-0.652213 0.011734 -0.0539288 58
-0.789216 0.148843 -0.14904 55
-0.797525 0.0128937 -0.120979 55
-0.786518 0.148879 -0.20498 50
-0.780017 0.0119418 -0.171827 52
-2.79871 0.544098 0.649126 50
-2.80258 0.544358 0.445636 38
-3.0848 0.0468362 0.592407 2
-2.81169 0.545635 0.247522 55
-3.11119 0.0515042 0.377258 2
-0.694572 0.133851 0.0117367 12
-3.04756 0.0526592 0.157924 23
-0.642258 0.123896 -0.0325564 90
-0.784652 0.151956 -0.093706 61
-0.65463 0.0153026 -0.0541462 58
-0.790834 0.153445 -0.149516 55
-0.792509 0.0169935 -0.120196 55
-0.788097 0.153461 -0.205627 52
-0.78238 0.0160607 -0.172389 52
-2.79297 0.548042 0.648003 50
-2.80163 0.549249 0.445636 49
-2.80829 0.550062 0.247304 55
-0.691861 0.134702 0.0116931 12
-3.04747 0.0579781 0.157924 23
-0.64204 0.125017 -0.0325564 90
-0.781951 0.152845 -0.0934018 61
-0.657092 0.0164895 -0.0543637 58
-0.790565 0.154825 -0.149516 53
-0.794947 0.0184189 -0.120587 55
-0.79017 0.155444 -0.206274 52
-0.777479 0.0173479 -0.171266 52
-2.78758 0.562662 0.647441 49
-2.79619 0.563909 0.445246 50
-2.80527 0.565248 0.247304 55
-0.688696 0.137827 0.0116495 12
-3.04711 0.0744656 0.157924 23
-0.643824 0.128872 -0.0326876 86
-0.626782 0.0193309 -0.0103405 4
-0.781113 0.157073 -0.0934018 59
-0.652017 0.019815 -0.0539288 58
-0.794526 0.160077 -0.150468 55
-0.789898 0.0226085 -0.119804 55
-0.784613 0.158614 -0.20498 52
-0.779809 0.0216065 -0.171827 52
-2.78908 0.567527 0.648003 50
-2.79762 0.569282 0.445636 50
-7.15712 0.166007 1.38355 32
-2.80428 0.570143 0.247304 58
-7.25835 0.178391 0.885948 29
-0.681107 0.13753 0.0115186 9
-3.04947 0.0798451 0.158055 24
-0.643598 0.129995 -0.0326876 83
-0.629246 0.0204872 -0.0103842 4
-0.780837 0.158436 -0.0934018 59
-0.651982 0.0209529 -0.0539288 59
-0.789437 0.160478 -0.149516 53
-0.8022 0.0242866 -0.121762 56
-0.791431 0.161444 -0.20692 52
-0.777335 0.022911 -0.171266 52
-2.78369 0.581623 0.647441 50
-6.88851 0.18287 1.83457 1
-2.79229 0.582929 0.445246 50
-7.15619 0.20223 1.38355 30
-2.80868 0.585859 0.247958 65
-7.24743 0.214839 0.884731 29
-0.685295 0.142 0.0116058 8
-3.04154 0.0950566 0.157662 23
-0.642909 0.133363 -0.0326876 82
-0.63663 0.0238969 -0.0105151 4
-0.780025 0.162386 -0.0934018 59
-0.649374 0.0242917 -0.0537113 59
-0.788615 0.164471 -0.149516 55
-0.79713 0.0282018 -0.120979 55
-0.792966 0.165946 -0.207567 52
-0.779644 0.026914 -0.171827 52
-2.78028 0.585977 0.646879 52
-6.92681 0.195958 1.84491 1
-2.7961 0.588822 0.446026 55
-7.16315 0.216186 1.38498 30
-2.80765 0.59076 0.247958 90
-7.25945 0.227868 0.886252 30
-3.04636 0.100522 0.157924 23
-0.640232 0.133969 -0.0325564 73
-0.634089 0.0249286 -0.0104714 4
-0.779741 0.163748 -0.0934018 59
-0.654309 0.0255832 -0.0541462 64
-0.790727 0.166357 -0.149992 53
-0.802016 0.0297464 -0.121762 58
-0.787923 0.166462 -0.206274 52
-0.779596 0.0282747 -0.171827 52
-2.77707 0.601011 0.646879 50
-6.92323 0.233353 1.84427 1
-2.79046 0.603418 0.445636 55
-7.16682 0.25386 1.38594 33
-2.80928 0.606997 0.248394 90
-7.26555 0.267411 0.887165 33
-3.04827 0.117095 0.158055 24
-0.629763 0.135202 -0.0320313 65
-0.631447 0.0282661 -0.0104278 4
-0.778843 0.167964 -0.0934018 59
-0.649188 0.0288245 -0.0537113 65
-0.792213 0.171155 -0.150468 53
-0.799381 0.0338557 -0.12137 56
-0.794118 0.172132 -0.208214 52
-0.776997 0.032406 -0.171266 52
-2.77851 0.605893 0.647441 50
-6.92281 0.245436 1.84427 1
-2.78227 0.60622 0.444465 38
-7.16146 0.266189 1.38498 30
-2.80335 0.610836 0.247958 90
-7.26016 0.278636 0.886556 33
-3.04808 0.121883 0.158055 24
-0.631965 0.136835 -0.0321625 62
-0.626401 0.0291736 -0.0103405 8
-0.781003 0.169718 -0.093706 59
-0.654114 0.0301505 -0.0541462 67
-0.791913 0.172538 -0.150468 53
-0.796854 0.0351569 -0.120979 58
-0.789099 0.172478 -0.20692 52
-0.776945 0.0336264 -0.171266 52
-2.76816 0.618835 0.645756 50
-6.92631 0.280664 1.84556 1
-2.78388 0.621859 0.445246 52
-7.16983 0.30284 1.38689 32
-2.79293 0.623386 0.247304 62
-7.25116 0.316327 0.885643 33
-0.685685 0.1521 0.0116495 3
-3.04241 0.137623 0.157793 23
-0.633676 0.140688 -0.0322938 61
-0.626245 0.0323437 -0.0103405 8
-0.780103 0.173805 -0.093706 59
-0.651459 0.0334655 -0.0539288 67
-0.788636 0.176005 -0.149992 53
-0.794192 0.0392218 -0.120587 56
-0.785861 0.175938 -0.206274 52
-0.779193 0.0377969 -0.171827 53
-2.76945 0.624202 0.646318 49
-6.9234 0.292652 1.84491 1
-2.78279 0.626717 0.445246 52
-7.16188 0.316285 1.38546 30
-2.78941 0.627712 0.247087 55
-7.25308 0.329093 0.885948 33
-0.685392 0.153416 0.0116495 3
-3.04217 0.142933 0.157793 24
-0.633429 0.141794 -0.0322938 61
-0.628685 0.0335509 -0.0103842 8
-0.784639 0.176263 -0.0943145 58
-0.653888 0.0347163 -0.0541462 73
-0.788327 0.177381 -0.149992 53
-0.794122 0.0406079 -0.120587 58
-0.787876 0.177983 -0.20692 50
-0.774258 0.0389425 -0.170704 52
-2.76366 0.638627 0.645756 50
-6.92654 0.330333 1.84621 1
-2.77455 0.64065 0.444465 52
-7.16503 0.354019 1.38641 33
-2.7884 0.643356 0.247304 56
-7.25119 0.368331 0.885948 33
-0.684579 0.157003 0.0116495 3
-0.630246 0.144545 -0.0321625 61
-0.625998 0.0368241 -0.0103405 8
-0.786091 0.181067 -0.0946187 58
-0.65121 0.0380127 -0.0539288 74
-0.787356 0.181644 -0.149992 53
-0.793899 0.0447653 -0.120587 58
-0.789285 0.182654 -0.207567 52
-0.776469 0.0432514 -0.171266 52
-2.76503 0.643521 0.646318 50
-6.92112 0.342187 1.84491 1
-2.77354 0.645008 0.444465 53
-7.1546 0.366029 1.38451 35
-2.7897 0.648787 0.247522 70
-7.2506 0.379721 0.885948 33
-0.634855 0.14678 -0.0324251 61
-0.623437 0.0377845 -0.0102969 8
-0.788222 0.182866 -0.094923 58
-0.648655 0.039018 -0.0537113 77
-0.789427 0.183578 -0.150468 52
-0.796285 0.0462793 -0.120979 56
-0.788965 0.184031 -0.207567 50
-0.771534 0.0442228 -0.170143 52
-2.75688 0.656858 0.645195 52
-6.91689 0.377084 1.84427 1
-2.76532 0.658375 0.443685 45
-7.16246 0.402781 1.38641 35
-2.79364 0.664631 0.248176 96
-7.24356 0.417397 0.885339 33
-0.634078 0.150102 -0.0324251 61
-0.625733 0.0410843 -0.0103405 8
-0.782427 0.185836 -0.0943145 58
-0.64347 0.0421253 -0.0532764 80
-0.783715 0.186427 -0.149516 55
-0.798497 0.0505892 -0.12137 58
-0.785676 0.187458 -0.20692 50
-0.776156 0.0485356 -0.171266 53
-2.7581 0.662239 0.645756 52
-6.91863 0.389289 1.84491 1
-2.76657 0.663778 0.444075 42
-7.15677 0.416249 1.38546 35
-2.78764 0.668342 0.24774 127
-7.24778 0.43033 0.885948 33
-0.631388 0.150624 -0.0322938 61
-0.628155 0.0423254 -0.0103842 8
-0.789338 0.188946 -0.0952272 56
-0.650853 0.043694 -0.0539288 85
-0.788159 0.188947 -0.150468 53
-0.795943 0.0518372 -0.120979 58
-0.785314 0.188966 -0.20692 50
-0.776071 0.0498902 -0.171266 52
-2.75448 0.677152 0.645756 41
-6.90919 0.426276 1.84298 1
-2.76773 0.679917 0.444856 56
-7.15204 0.453563 1.38498 35
-2.78156 0.68282 0.247522 118
-7.24534 0.469538 0.885948 33
-0.628166 0.153331 -0.0321625 59
-0.620434 0.0452356 -0.0102533 8
-0.788304 0.193214 -0.0952272 56
-0.64813 0.0469397 -0.0537113 86
-0.787126 0.193208 -0.150468 52
-0.793196 0.0558455 -0.120587 58
-0.78197 0.192494 -0.206274 50
-0.768496 0.0536256 -0.169581 52
-2.75105 0.680891 0.645195 42
-6.91085 0.438485 1.84362 1
-2.76666 0.684264 0.444856 56
-7.15369 0.466203 1.38546 35
-2.7852 0.688872 0.247958 108
-7.2446 0.480918 0.885948 33
-3.04349 0.206942 0.158055 18
-0.625475 0.153825 -0.0320313 59
-0.625342 0.0466523 -0.0103405 4
-0.785592 0.193854 -0.094923 56
-0.648047 0.0480708 -0.0537113 89
-0.789169 0.195175 -0.150945 52
-0.798025 0.0575554 -0.12137 58
-0.783976 0.194444 -0.20692 50
-0.773272 0.0551488 -0.170704 53
-2.74508 0.694688 0.644633 39
-6.91095 0.473622 1.84427 1
-2.76304 0.69874 0.444856 56
-7.14634 0.502064 1.38451 35
-2.78168 0.70296 0.247958 106
-7.2395 0.518668 0.885643 33
-3.03987 0.222697 0.157924 18
-0.627108 0.157603 -0.0321625 59
-0.630085 0.050176 -0.0104278 4
-0.782161 0.197353 -0.0946187 56
-0.645312 0.0511717 -0.0534938 90
-0.783414 0.197956 -0.149992 53
-0.797713 0.061733 -0.12137 58
-0.787662 0.199604 -0.208214 50
-0.775403 0.0593677 -0.171266 52
-2.74871 0.700204 0.645756 50
-6.91252 0.48585 1.84491 1
-2.75703 0.70234 0.444075 55
-7.15035 0.514885 1.38546 35
-2.77562 0.706583 0.247522 130
-7.23859 0.531303 0.885643 33
-2.85094 0.726326 0.0507429 1
-3.04197 0.228185 0.158055 18
-0.629251 0.159315 -0.0322938 59
-0.632489 0.0514596 -0.0104714 4
-0.784219 0.199333 -0.094923 55
-0.645221 0.0522979 -0.0534938 90
-0.783067 0.199323 -0.149992 53
-0.800067 0.0633052 -0.121762 58
-0.784973 0.200377 -0.207567 52
-0.772869 0.0605459 -0.170704 52
-2.74488 0.715065 0.645756 52
-6.90748 0.521857 1.84427 1
-2.75331 0.716766 0.444075 55
-7.14756 0.552317 1.38546 35
-2.77429 0.721735 0.24774 136
-7.23818 0.569389 0.885948 35
-2.83501 0.738089 0.0505247 1
-3.04322 0.244305 0.158185 20
-0.62838 0.162717 -0.0322938 59
-0.629719 0.0545736 -0.0104278 4
-0.783165 0.203437 -0.094923 55
-0.644929 0.0557881 -0.0534938 90
-0.789135 0.205286 -0.151421 52
-0.789878 0.066722 -0.120196 58
-0.788585 0.205711 -0.20886 50
-0.772541 0.0645918 -0.170704 53
-2.73656 0.717997 0.644072 32
-6.90896 0.534097 1.84491 1
-2.75683 0.722825 0.444856 55
-7.14648 0.566038 1.38546 35
-2.77303 0.726575 0.24774 116
-7.23965 0.582219 0.886252 33
-2.81908 0.739717 0.0502629 1
-3.0403 0.249416 0.158055 20
-0.628095 0.163814 -0.0322938 59
-0.782809 0.204803 -0.094923 55
-0.647313 0.0571143 -0.0537113 90
-0.78403 0.205411 -0.150468 52
-0.794683 0.0684948 -0.120979 58
-0.785854 0.206607 -0.208214 49
-0.772427 0.06594 -0.170704 52
-2.73969 0.734689 0.645756 45
-6.90838 0.571667 1.84556 1
-2.7505 0.73709 0.444465 55
-7.13853 0.603039 1.38451 35
-2.77627 0.743505 0.248394 102
-7.23887 0.621591 0.886556 33
-2.8031 0.751226 0.0500448 9
-3.03891 0.265862 0.158055 18
-0.62964 0.167748 -0.0324251 59
-0.781689 0.209036 -0.094923 55
-0.642042 0.0600756 -0.0532764 90
-0.787646 0.210928 -0.151421 52
-0.789393 0.0722347 -0.120196 58
-0.78243 0.210088 -0.207567 49
-0.772059 0.0701183 -0.170704 53
-2.73853 0.738991 0.645756 49
-6.91459 0.584329 1.8475 1
-2.75172 0.742054 0.444856 53
-7.15214 0.616753 1.38737 33
-2.76295 0.745101 0.247304 88
-7.2181 0.631245 0.884122 30
-2.7873 0.752203 0.049783 11
-3.03351 0.2702 0.157793 17
