# .PCD v0.7 - Point Cloud Data file format
VERSION 0.7
FIELDS x y z intensity
SIZE 4 4 4 4
TYPE F F F F
COUNT 1 1 1 1
WIDTH 1579
HEIGHT 1
VIEWPOINT 0 0 0 1 0 0 0
POINTS 1579
DATA ascii
-0.848276 -2.25123 -0.459976 53
-0.424232 -2.26692 -0.360196 45
-0.848358 -2.24675 -0.633694 85
-0.420367 -2.25902 -0.521659 44
-2.10903 -5.57654 1.3662 15
-1.03622 -5.6299 1.52246 14
-2.10173 -5.56016 0.933807 23
-1.03739 -5.57615 1.09474 15
-0.827502 -2.19268 0.201983 3
-1.04746 -5.59256 0.693364 18
-0.84896 -2.24707 0.0413186 52
-0.426696 -2.25402 0.11841 4
-0.850975 -2.25121 -0.124712 50
-0.429827 -2.26641 -0.0396606 50
-0.851937 -2.25139 -0.290854 53
-0.431069 -2.27297 -0.198971 47
-0.850462 -2.24515 -0.459024 52
-0.428641 -2.2686 -0.360587 45
-0.855246 -2.25189 -0.635633 65
-0.423865 -2.25589 -0.521097 44
-2.13217 -5.54686 1.3617 15
-1.05861 -5.5815 1.51083 14
-2.12558 -5.53257 0.931075 21
-1.06428 -5.55859 1.09235 15
-0.842034 -2.19515 0.202637 3
-1.09549 -5.67941 0.704925 18
-0.860714 -2.24259 0.0413186 52
-0.438412 -2.24923 0.118279 4
-0.860958 -2.24206 -0.124449 52
-0.442557 -2.26651 -0.0397042 50
-0.862321 -2.24212 -0.290245 52
-0.442965 -2.27068 -0.198971 47
-0.865247 -2.24739 -0.460452 53
-0.440979 -2.26875 -0.360979 45
-0.866155 -2.24513 -0.634987 82
-0.436522 -2.25596 -0.521659 45
-2.13474 -5.5276 1.35777 15
-1.06247 -5.5488 1.50243 14
-2.13071 -5.52001 0.929514 24
-1.07908 -5.58323 1.0976 15
-0.847658 -2.19832 0.203073 3
-1.09733 -5.64114 0.700361 15
-0.865527 -2.24342 0.0413622 50
-0.443374 -2.25589 0.118672 3
-0.866671 -2.24521 -0.124712 52
-0.446991 -2.26819 -0.0397479 49
-0.870321 -2.25233 -0.291766 53
-0.445975 -2.26502 -0.198536 45
-0.870055 -2.24816 -0.460928 53
-0.445409 -2.2704 -0.36137 45
-0.872695 -2.25036 -0.636927 73
-0.440526 -2.25766 -0.52222 44
-2.16543 -5.52088 1.3589 14
-1.0924 -5.55283 1.50501 14
-2.1686 -5.53177 0.933416 15
-1.11018 -5.59215 1.10046 15
-0.859683 -2.19632 0.203291 3
-1.11862 -5.59394 0.695189 17
-0.878697 -2.24366 0.0414495 50
-0.453712 -2.24619 0.118279 2
-0.881152 -2.24761 -0.125106 50
-0.458465 -2.26589 -0.0397479 49
-0.878471 -2.23851 -0.290549 52
-0.458806 -2.26753 -0.198971 45
-0.88322 -2.2483 -0.461881 52
-0.456324 -2.2632 -0.360587 44
-0.883188 -2.24367 -0.63628 61
-0.452815 -2.25771 -0.522782 45
-2.19116 -5.55788 1.369 15
-1.10817 -5.58172 1.51341 14
-2.22173 -5.63824 0.952147 26
-1.11515 -5.56113 1.09474 14
-0.867168 -2.20409 0.204162 3
-0.88392 -2.2443 0.0414931 52
-0.458125 -2.24785 0.11841 3
-0.88599 -2.24839 -0.125237 50
-0.462419 -2.26509 -0.0397479 49
-0.886936 -2.24851 -0.292071 53
-0.463256 -2.26917 -0.199188 45
-0.88624 -2.24447 -0.461405 52
-0.461735 -2.26966 -0.361762 44
-0.891945 -2.2532 -0.639513 61
-0.457233 -2.25931 -0.523343 45
-2.24929 -5.61605 1.38641 17
-1.13306 -5.54961 1.5063 14
-2.24761 -5.61467 0.950196 27
-1.15559 -5.61051 1.1057 9
-0.880006 -2.20167 0.20438 3
-0.896589 -2.24196 0.0415367 52
-0.47028 -2.24533 0.11841 2
-0.89868 -2.24604 -0.125368 50
-0.475176 -2.265 -0.0397915 47
-0.899088 -2.24368 -0.292071 52
-0.476143 -2.27159 -0.199623 45
-0.899286 -2.24192 -0.461881 52
-0.473613 -2.26721 -0.361762 45
-0.901927 -2.24401 -0.63822 59
-0.468959 -2.25441 -0.522782 45
-2.2481 -5.58765 1.38023 17
-2.24998 -5.5951 0.947464 26
-1.21212 -5.83438 1.1505 2
-0.885707 -2.20476 0.204816 2
-0.902367 -2.24503 0.041624 50
-0.472275 -2.23726 0.118018 2
-0.903531 -2.24679 -0.125499 50
-0.480153 -2.26906 -0.0398787 47
-0.903539 -2.24456 -0.292375 53
-0.479597 -2.26832 -0.199406 45
-0.905954 -2.24718 -0.463309 52
-0.478073 -2.2688 -0.362153 44
-0.907653 -2.24691 -0.639513 59
-0.472995 -2.25606 -0.523343 44
-2.2718 -5.56227 1.37686 15
-1.226 -5.8041 1.57803 8
-2.27271 -5.56724 0.944733 26
-1.2345 -5.79457 1.14383 11
-0.895913 -2.19794 0.204598 3
-0.912774 -2.23812 0.0415804 50
-0.484506 -2.2372 0.118148 3
-0.915836 -2.2445 -0.125631 50
-0.491632 -2.2666 -0.0398787 47
-0.916219 -2.2421 -0.292679 53
-0.491594 -2.2683 -0.199623 44
-0.917317 -2.24256 -0.463309 52
-0.489946 -2.26626 -0.362153 44
-0.919014 -2.24229 -0.639513 59
-0.485308 -2.25594 -0.523905 45
-2.27498 -5.54517 1.3735 15
-1.23412 -5.7925 1.57545 23
-2.27585 -5.54728 0.942001 26
-1.23486 -5.74681 1.13477 14
-0.90353 -2.20559 0.20547 2
-0.918577 -2.24115 0.0416676 53
-0.487883 -2.23391 0.118018 2
-0.922597 -2.24982 -0.126025 50
-0.496116 -2.26819 -0.0399224 47
-0.919187 -2.2382 -0.292375 52
-0.495552 -2.26744 -0.199623 44
-0.921229 -2.24096 -0.463309 52
-0.493901 -2.2654 -0.362153 44
-0.92569 -2.24738 -0.641453 59
-0.489756 -2.25747 -0.524467 45
-2.3012 -5.52379 1.37125 18
-1.25365 -5.7364 1.56188 12
-2.30012 -5.52389 0.94005 24
-1.25441 -5.69232 1.12524 24
-0.917938 -2.20772 0.206123 3
-0.933183 -2.24323 0.0417985 53
-0.502274 -2.24351 0.118672 3
-0.935325 -2.24726 -0.126156 50
-0.507985 -2.26556 -0.0399224 45
-0.935674 -2.24481 -0.293896 53
-0.507957 -2.26724 -0.199841 44
-0.934843 -2.24063 -0.464262 52
-0.506289 -2.2652 -0.362545 41
-0.936511 -2.24028 -0.640806 59
-0.501046 -2.25249 -0.523905 39
-2.31081 -5.52242 1.37181 18
-1.25382 -5.68938 1.5496 21
-2.3069 -5.51303 0.938879 26
-0.919867 -2.20152 0.205688 3
-0.937097 -2.24159 0.0417985 52
-0.506189 -2.24263 0.118672 3
-0.937317 -2.24102 -0.125893 50
-0.508662 -2.25003 -0.0396606 36
-0.93863 -2.24088 -0.293592 52
-0.509738 -2.25663 -0.198971 18
-0.940653 -2.24352 -0.465214 52
-0.506477 -2.24744 -0.359804 11
-0.945103 -2.24977 -0.64404 62
-0.503392 -2.24448 -0.52222 2
-2.34066 -5.50983 1.37181 14
-2.33863 -5.50769 0.94005 15
-0.934302 -2.20355 0.206341 3
-0.950776 -2.24126 0.0418858 52
-0.519597 -2.24725 0.119064 3
-0.954898 -2.24987 -0.126681 50
-0.520436 -2.24734 -0.0396606 36
-0.952295 -2.2405 -0.2942 50
-0.519878 -2.24665 -0.198319 18
-0.953349 -2.24082 -0.46569 52
-0.518238 -2.24476 -0.359804 11
-0.954973 -2.24035 -0.642746 59
-0.513515 -2.23469 -0.520536 3
-2.37896 -5.5756 1.38922 14
-2.39381 -5.61034 0.958391 27
-0.938147 -2.20192 0.206341 3
-0.955668 -2.24189 0.0419294 52
-0.523518 -2.24634 0.119064 4
-0.957843 -2.2459 -0.12655 50
-0.522105 -2.23668 -0.0394861 9
-0.959131 -2.24568 -0.295113 53
-0.521555 -2.23603 -0.197449 9
-0.959191 -2.24367 -0.466643 50
-0.519936 -2.23423 -0.358238 9
-0.959834 -2.24089 -0.643393 59
-0.51687 -2.23141 -0.519974 8
-2.43138 -5.61406 1.40213 20
-2.42217 -5.59547 0.958 26
-0.95461 -2.20841 0.207431 3
-0.967393 -2.23686 0.0419294 52
-0.53355 -2.23628 0.118672 11
-0.96998 -2.24069 -0.12655 50
-0.533809 -2.23392 -0.0394861 12
-0.971864 -2.2429 -0.295417 53
-0.533646 -2.23318 -0.197449 9
-0.972881 -2.24312 -0.467595 52
-0.53106 -2.22907 -0.357847 9
-0.971554 -2.23584 -0.643393 59
-0.528547 -2.22868 -0.519974 8
-2.43631 -5.59864 1.39933 17
-2.42996 -5.5867 0.95722 26
-0.959457 -2.20902 0.207649 3
-0.534452 -2.22958 0.276859 9
-0.973682 -2.23958 0.0420167 52
-0.537452 -2.23535 0.118672 11
-0.974887 -2.24128 -0.126681 50
-0.538287 -2.23542 -0.0395297 11
-0.976769 -2.24348 -0.295722 52
-0.537543 -2.23224 -0.197449 11
-0.975812 -2.23917 -0.467119 50
-0.536664 -2.23535 -0.359021 9
-0.978749 -2.24061 -0.645333 59
-0.531313 -2.22301 -0.518851 8
-2.46459 -5.58092 1.3982 15
-2.45616 -5.56444 0.955659 24
-0.974412 -2.21063 0.208302 3
-0.548267 -2.23389 0.277771 8
-0.986405 -2.23674 0.0420603 50
-0.548947 -2.22998 0.118541 11
-0.988627 -2.24071 -0.126944 50
-0.548594 -2.22519 -0.0393988 12
-0.988893 -2.23816 -0.295722 52
-0.549814 -2.23182 -0.197666 11
-0.990895 -2.24059 -0.468547 50
-0.547193 -2.22771 -0.358238 9
-0.992426 -2.23987 -0.646626 58
-0.545055 -2.22721 -0.520536 8
-2.46446 -5.557 1.39315 15
-2.45789 -5.54477 0.952928 23
-0.979279 -2.2112 0.20852 3
-0.550004 -2.2258 0.276859 8
-0.992335 -2.23958 0.0421476 52
-0.552449 -2.22911 0.118541 11
-0.993549 -2.24127 -0.127075 50
-0.55427 -2.23151 -0.0395297 12
-0.994423 -2.24114 -0.29633 52
-0.554303 -2.23327 -0.197884 11
-0.994804 -2.23885 -0.468547 50
-0.554021 -2.23874 -0.360196 9
-0.998301 -2.24254 -0.647919 59
-0.547975 -2.22398 -0.519974 8
-2.49153 -5.53958 1.39203 15
-2.4798 -5.51606 0.950196 18
-0.993522 -2.21303 0.209174 3
-0.562857 -2.2277 0.277467 9
-1.00673 -2.24137 0.0422784 52
-0.564113 -2.22619 0.118541 11
-1.00835 -2.24286 -0.127469 49
-0.564338 -2.22382 -0.0394424 12
-1.00716 -2.23817 -0.296634 52
-0.565989 -2.23034 -0.197884 11
-1.00713 -2.23603 -0.469023 50
-0.564534 -2.23102 -0.359413 8
-1.00864 -2.23526 -0.647273 58
-0.561383 -2.22817 -0.521659 4
-2.49718 -5.52634 1.38978 15
-2.49552 -5.52523 0.952537 26
-0.996358 -2.20903 0.208956 3
-0.56553 -2.2219 0.276859 9
-1.01104 -2.23944 0.0422784 50
-0.567997 -2.2252 0.118541 11
-1.01535 -2.24792 -0.127862 50
-0.57006 -2.23011 -0.0395733 11
-1.01312 -2.24093 -0.297243 52
-0.571104 -2.23418 -0.198319 11
-1.01407 -2.24097 -0.470452 53
-0.567822 -2.22763 -0.359021 8
-1.01493 -2.23772 -0.648566 58
-0.564082 -2.22246 -0.520536 4
-2.52806 -5.51497 1.39034 15
-2.53053 -5.52287 0.954488 21
-1.01348 -2.21492 0.210045 3
-0.578783 -2.22362 0.277467 8
-1.02587 -2.24093 0.0424093 50
-0.580654 -2.22451 0.118672 9
-1.0271 -2.24258 -0.127862 49
-0.582118 -2.22699 -0.0395733 11
-1.02626 -2.23767 -0.297547 52
-0.583419 -2.23357 -0.198536 9
-1.02823 -2.23991 -0.471404 49
-0.582338 -2.23409 -0.360587 4
-1.02764 -2.23457 -0.649213 58
-0.577313 -2.2241 -0.521659 3
-2.54691 -5.53311 1.39596 14
-2.58458 -5.61489 0.971268 24
-1.01735 -2.21315 0.210045 3
-0.583288 -2.225 0.277771 8
-1.03187 -2.24367 0.0424966 50
-0.583906 -2.22108 0.118541 9
-1.03101 -2.24078 -0.127862 50
-0.585373 -2.22355 -0.0395297 11
-1.03224 -2.24038 -0.298155 52
-0.585431 -2.22531 -0.197884 9
-1.03214 -2.23812 -0.471404 49
-0.585614 -2.23068 -0.360196 4
-1.03256 -2.23496 -0.649859 58
-0.582416 -2.2278 -0.522782 3
-2.61913 -5.61241 1.41954 15
-2.61506 -5.60621 0.972049 26
-1.02643 -2.20346 0.20961 3
-0.595815 -2.22682 0.27838 4
-1.04216 -2.23616 0.042453 50
-0.59835 -2.23016 0.119195 8
-1.04379 -2.23761 -0.127994 50
-0.595976 -2.21814 -0.0394861 11
-1.04567 -2.23962 -0.298764 52
-0.597074 -2.22222 -0.197884 8
-1.0445 -2.23509 -0.47188 50
-0.598799 -2.23485 -0.36137 4
-1.04796 -2.23845 -0.652446 58
-0.592438 -2.22012 -0.521659 2
-2.61754 -5.58357 1.41336 15
-2.61016 -5.57033 0.966585 17
-1.0345 -2.21069 0.210481 3
-0.598419 -2.22098 0.277771 4
-1.04963 -2.24094 0.0425839 50
-0.60418 -2.23635 0.119588 9
-1.04875 -2.23805 -0.128125 50
-0.598551 -2.21227 -0.0393988 9
-1.04958 -2.23779 -0.298764 50
-0.601597 -2.22358 -0.198101 3
-1.05153 -2.23992 -0.473309 49
-0.59887 -2.21949 -0.359021 4
-1.05328 -2.23862 -0.653092 58
-0.596312 -2.21908 -0.521659 2
-2.63202 -5.53633 1.40494 14
-2.62436 -5.52268 0.960732 15
-1.04965 -2.2118 0.211135 3
-0.611081 -2.22011 0.278076 3
-1.06565 -2.24444 0.0427584 52
-0.610338 -2.21137 0.11841 12
-1.0626 -2.23703 -0.128388 50
-0.610511 -2.209 -0.0393988 4
-1.06381 -2.23656 -0.299372 50
-0.609941 -2.20839 -0.197014 4
-1.06574 -2.23863 -0.474261 49
-0.608916 -2.20907 -0.357847 4
-1.06915 -2.24179 -0.655679 56
-0.60767 -2.21347 -0.521097 4
-2.64386 -5.53878 1.40663 14
-2.64357 -5.53814 0.964244 17
-1.05351 -2.20997 0.211135 3
-0.612981 -2.21186 0.277163 3
-1.06741 -2.23807 0.0426711 52
-0.61486 -2.21271 0.118541 9
-1.06758 -2.23743 -0.128519 50
-0.612371 -2.2007 -0.0392679 11
-1.06878 -2.23694 -0.299677 52
-0.611808 -2.20012 -0.196362 11
-1.06965 -2.23677 -0.474261 50
-0.61146 -2.20324 -0.357064 9
-1.07411 -2.2421 -0.656326 56
-0.611532 -2.2124 -0.521097 4
-2.65893 -5.4937 1.39876 15
-2.65317 -5.48422 0.95722 21
-1.07158 -2.21787 0.212442 3
-0.623884 -2.20623 0.276859 8
-1.0802 -2.2347 0.0427148 52
-0.621029 -2.19024 0.117494 11
-1.08037 -2.23406 -0.12865 50
-0.621852 -2.19025 -0.039137 9
-1.08481 -2.24024 -0.300894 52
-0.62197 -2.19209 -0.195927 9
-1.08456 -2.23776 -0.47569 50
-0.621652 -2.19526 -0.356281 8
-1.08794 -2.24079 -0.657619 55
-0.623108 -2.20917 -0.521097 4
-2.66968 -5.4939 1.39989 15
-2.67461 -5.50401 0.961513 23
-0.62571 -2.19797 0.275946 9
-1.08738 -2.23956 0.0428457 52
-0.624171 -2.18675 0.117363 9
-1.08754 -2.2389 -0.129044 49
-0.627038 -2.19397 -0.0392243 9
-1.0898 -2.24058 -0.301198 50
-0.628511 -2.20059 -0.196796 9
-1.09062 -2.24027 -0.476642 50
-0.629514 -2.20843 -0.35863 4
-1.09291 -2.24105 -0.658265 55
-0.625642 -2.20339 -0.519974 4
-2.70583 -5.49249 1.40326 15
-2.70012 -5.48328 0.960342 26
-0.637897 -2.19705 0.27625 9
-1.10019 -2.23607 0.0428893 50
-0.638383 -2.19304 0.117887 9
-1.10036 -2.23542 -0.129175 49
-0.6406 -2.19786 -0.0393552 9
-1.10042 -2.23262 -0.300894 50
-0.639333 -2.19487 -0.196579 9
-1.10124 -2.23233 -0.476166 49
-0.641368 -2.20758 -0.359021 4
-1.1057 -2.23747 -0.658912 56
-0.640534 -2.21179 -0.522782 4
-2.71337 -5.48604 1.4027 15
-2.71201 -5.48568 0.961513 23
-1.10631 -2.23863 0.0429765 52
-0.641827 -2.19204 0.117887 9
-1.10536 -2.23573 -0.129306 49
-0.653517 -2.22794 -0.0399224 9
-1.10723 -2.23755 -0.301806 52
-0.654293 -2.23201 -0.200058 8
-1.10405 -2.22821 -0.47569 49
-0.650036 -2.22306 -0.361762 4
-1.11068 -2.2377 -0.659559 56
-0.648742 -2.22717 -0.526713 8
-2.75953 -5.50661 1.41168 15
-2.75508 -5.5001 0.966585 21
-1.11763 -2.233 0.0429765 50
-0.659678 -2.21019 0.119064 8
-1.11929 -2.23437 -0.129569 49
-0.667628 -2.23419 -0.0400969 11
-1.12116 -2.23616 -0.302415 52
-0.665971 -2.22856 -0.200058 14
-1.12082 -2.23356 -0.47807 50
-0.668671 -2.2433 -0.365677 15
-1.12634 -2.24067 -0.662145 56
-0.663149 -2.23309 -0.528959 26
-2.77133 -5.50613 1.4128 14
-2.77689 -5.51954 0.970878 20
-1.12416 -2.23532 0.0430638 52
-0.668527 -2.22578 0.11998 15
-1.12431 -2.23465 -0.1297 49
-0.679391 -2.25937 -0.0405768 36
-1.12506 -2.2342 -0.302415 50
-0.680545 -2.26319 -0.20332 50
-1.12582 -2.23379 -0.478547 50
-0.677518 -2.2587 -0.368418 52
-1.13282 -2.24282 -0.663438 56
-0.669816 -2.24127 -0.531205 50
-2.85535 -5.59738 1.44032 17
-2.86058 -5.61002 0.989609 27
-1.13926 -2.23608 0.0431947 50
-0.691452 -2.25796 0.121943 49
-1.13713 -2.23095 -0.129832 50
-0.693061 -2.26044 -0.0406641 52
-1.14165 -2.23692 -0.303632 52
-0.69311 -2.26198 -0.203538 52
-1.13901 -2.22985 -0.479023 50
-0.690052 -2.25748 -0.368809 52
-1.14564 -2.239 -0.664085 56
-0.684049 -2.24461 -0.532889 50
-2.8608 -5.58638 1.43863 15
-2.86151 -5.59014 0.986877 24
-1.13638 -2.22181 0.215275 4
-1.1443 -2.23631 0.0432383 50
-0.695728 -2.25926 0.122074 47
-1.14558 -2.23785 -0.130357 49
-0.69847 -2.26401 -0.0407514 53
-1.14629 -2.23733 -0.303936 52
-0.697057 -2.26076 -0.203538 52
-1.14627 -2.23441 -0.480451 50
-0.693991 -2.25627 -0.368809 55
-1.15176 -2.2413 -0.665378 56
-0.689701 -2.25052 -0.534574 50
-2.87991 -5.55187 1.43358 15
-2.87823 -5.55097 0.982585 20
-1.15449 -2.22929 0.216582 4
-1.74433 -5.59803 0.71466 20
-1.1556 -2.23049 0.0432383 52
-0.70829 -2.25797 0.122204 47
-1.15728 -2.23182 -0.130357 47
-0.709176 -2.25806 -0.0407077 52
-1.15914 -2.2335 -0.30424 52
-0.708885 -2.25708 -0.203538 50
-1.15982 -2.23293 -0.481404 50
-0.708729 -2.26204 -0.370375 58
-1.16532 -2.23972 -0.666672 55
-0.700754 -2.24455 -0.534012 50
-2.88059 -5.52955 1.42909 15
-2.87194 -5.51527 0.977121 20
-1.75306 -5.61562 1.13572 15
-1.16068 -2.23169 0.217018 4
-1.76817 -5.63998 0.720441 21
-1.1622 -2.2327 0.0433256 52
-0.713723 -2.2615 0.122466 47
-1.16464 -2.23644 -0.130751 49
-0.713864 -2.2592 -0.0407514 50
-1.16189 -2.22927 -0.303936 52
-0.714314 -2.2606 -0.203972 52
-1.16599 -2.23526 -0.482356 50
-0.711938 -2.25844 -0.369984 52
-1.17074 -2.23962 -0.667318 55
-0.706121 -2.24798 -0.535136 49
-2.89795 -5.49019 1.42291 15
-1.71203 -5.41689 1.51083 1
-2.89252 -5.48218 0.974 20
-1.73201 -5.44728 1.10332 1
-1.17622 -2.23199 0.217671 4
-1.80845 -5.66107 0.724396 26
-1.17387 -2.22659 0.0433256 50
-0.725189 -2.25522 0.122335 47
-1.17633 -2.23031 -0.130751 49
-0.725316 -2.25292 -0.0407077 49
-1.17625 -2.22734 -0.304545 50
-0.727657 -2.26157 -0.204407 64
-1.17807 -2.22891 -0.482356 49
-0.723004 -2.25233 -0.369592 52
-1.18245 -2.23346 -0.667318 56
-0.719011 -2.24644 -0.535697 49
-2.94309 -5.5545 1.44088 11
-1.7952 -5.64641 1.57609 15
-3.00056 -5.66528 1.00756 35
-1.74226 -5.44659 1.10379 1
-1.18362 -2.23653 0.218325 4
-1.81658 -5.65585 0.724092 26
-1.1801 -2.22895 0.0434129 50
-0.728731 -2.25408 0.122335 47
-1.18256 -2.23267 -0.131013 50
-0.731543 -2.25879 -0.0408386 50
-1.18324 -2.23207 -0.305457 50
-0.730841 -2.25792 -0.20419 53
-1.18541 -2.23336 -0.483784 49
-0.728442 -2.25577 -0.370375 55
-1.18975 -2.23779 -0.669258 55
-0.722539 -2.24531 -0.535697 50
-3.04127 -5.6678 1.47457 14
-1.82894 -5.65334 1.58062 23
-3.04069 -5.66907 1.01107 15
-1.83798 -5.64779 1.14669 21
-1.18903 -2.21954 0.217236 4
-1.8454 -5.64391 0.723788 24
-1.19491 -2.22956 0.0435437 50
-0.74285 -2.25736 0.122728 49
-1.19778 -2.23304 -0.131407 50
-0.742966 -2.25506 -0.0408386 50
-1.19726 -2.23021 -0.306066 49
-0.744977 -2.26117 -0.204842 49
-1.19554 -2.22517 -0.483308 49
-0.739477 -2.24958 -0.369984 52
-1.20106 -2.23173 -0.669258 55
-0.7373 -2.25076 -0.537943 58
-3.03382 -5.63032 1.46615 15
-1.83433 -5.63636 1.57674 15
-3.0295 -5.62463 1.00405 15
-1.84425 -5.63025 1.14383 17
-1.85216 -5.63125 0.722571 23
-1.20037 -2.22946 0.0435874 50
-0.746789 -2.25606 0.122728 50
-1.20405 -2.23534 -0.131669 49
-0.748464 -2.25851 -0.0409259 50
-1.20468 -2.23467 -0.306978 49
-0.748922 -2.25986 -0.204842 52
-1.20525 -2.23387 -0.485689 50
-0.744172 -2.25063 -0.370375 53
-1.20879 -2.2358 -0.671198 53
-0.740469 -2.24716 -0.537382 49
-3.06891 -5.62237 1.46839 33
-1.86025 -5.61259 1.57286 15
-3.06107 -5.61032 1.00444 38
-1.81022 -5.42955 1.10475 1
-1.87867 -5.60937 0.721049 21
-1.21443 -2.22753 0.0436746 50
-0.758984 -2.25198 0.122728 42
-1.21933 -2.23558 -0.132063 49
-0.761467 -2.2568 -0.0409695 52
-1.21914 -2.23247 -0.307587 49
-0.761536 -2.25827 -0.20506 52
-1.2185 -2.22947 -0.486165 49
-0.758294 -2.25373 -0.37155 61
-1.22164 -2.23155 -0.671844 53
-0.753387 -2.24543 -0.537943 49
-3.07773 -5.61755 1.46839 36
-1.87081 -5.61163 1.57351 15
-3.07462 -5.61417 1.006 39
-1.81969 -5.42639 1.10475 1
-1.88116 -5.5876 0.718615 20
-1.22192 -2.23199 0.0438055 50
-0.765706 -2.26025 0.123251 47
-1.22443 -2.23564 -0.132195 47
-0.765405 -2.25547 -0.0409695 49
-1.22264 -2.23056 -0.307587 47
-0.767067 -2.26166 -0.205495 53
-1.22594 -2.23379 -0.487594 49
-0.76144 -2.25006 -0.371158 50
-1.2267 -2.23153 -0.672491 53
-0.759234 -2.25117 -0.539628 49
-3.10356 -5.59496 1.46671 23
-1.89455 -5.58836 1.56963 15
-3.09559 -5.58288 1.00327 21
-1.84555 -5.41246 1.10379 1
-1.82777 -5.33581 0.687279 1
-1.23441 -2.22796 0.0438492 49
-0.77753 -2.25621 0.123251 47
-1.23733 -2.23138 -0.132326 47
-0.776 -2.2492 -0.0409259 49
-1.23672 -2.22846 -0.308195 47
-0.778898 -2.25761 -0.205495 52
-1.23723 -2.22756 -0.487594 49
-0.774808 -2.25072 -0.371941 50
-1.24386 -2.23584 -0.675724 55
-0.769439 -2.24256 -0.538505 49
-3.12755 -5.61507 1.47345 33
-1.90197 -5.57819 1.56769 15
-3.12456 -5.61198 1.00951 35
-1.906 -5.55519 1.13382 15
-1.8403 -5.342 0.688496 1
-1.2399 -2.22777 0.0438928 49
-0.781467 -2.25485 0.123251 47
-1.24243 -2.2314 -0.132457 45
-0.782368 -2.25493 -0.0410568 49
-1.24302 -2.23063 -0.308804 49
-0.78446 -2.26096 -0.20593 52
-1.2447 -2.23183 -0.489022 49
-0.778735 -2.24936 -0.371941 50
-1.24815 -2.23345 -0.675724 55
-0.774932 -2.24582 -0.539628 49
-3.16028 -5.60231 1.47457 33
-1.92738 -5.55412 1.56382 14
-3.15609 -5.59715 1.0099 36
-1.88182 -5.39216 1.10236 1
-1.88146 -5.3671 0.693059 1
-1.25401 -2.2256 0.0439801 49
-0.795306 -2.2553 0.123513 47
-1.25778 -2.23138 -0.132851 47
-0.795385 -2.25302 -0.0411004 50
-1.25874 -2.23036 -0.309717 49
-0.797112 -2.25917 -0.206147 52
-1.25797 -2.22719 -0.489498 47
-0.79171 -2.24744 -0.372333 50
-1.26101 -2.22899 -0.676371 55
-0.787071 -2.24159 -0.539628 49
-3.17988 -5.61642 1.47962 33
-1.93866 -5.55531 1.56511 14
-3.17315 -5.60452 1.01224 35
-1.95852 -5.58113 1.14192 15
-1.90564 -5.40594 0.698536 1
-1.26035 -2.22776 0.0440673 49
-0.800071 -2.25626 0.123644 47
-1.26168 -2.22918 -0.132851 45
-0.800147 -2.25399 -0.041144 49
-1.2614 -2.226 -0.309412 49
-0.801882 -2.26013 -0.206364 61
-1.26306 -2.22713 -0.489975 49
-0.795631 -2.24606 -0.372333 50
-1.27087 -2.23728 -0.679604 55
-0.792595 -2.24481 -0.540751 49
-3.2153 -5.61026 1.48243 33
-1.97641 -5.57275 1.57286 14
-3.21376 -5.60981 1.01614 33
-1.99908 -5.60583 1.14907 15
-1.93799 -5.41025 0.700361 1
-1.2741 -2.22569 0.0441546 49
-0.811481 -2.25219 0.123644 47
-1.27333 -2.22255 -0.132851 45
-0.811545 -2.24991 -0.041144 49
-1.27759 -2.22819 -0.310629 49
-0.814545 -2.25824 -0.206582 90
-1.27921 -2.22922 -0.491879 49
-0.808652 -2.24665 -0.373116 50
-1.28218 -2.23082 -0.679604 55
-0.804765 -2.24307 -0.541312 49
-3.22874 -5.61097 1.48412 33
-1.99666 -5.59887 1.58126 14
-3.22847 -5.61276 1.0177 35
-2.02472 -5.64357 1.15765 18
-1.94994 -5.41386 0.701274 1
-1.28211 -2.22974 0.0442855 49
-0.816256 -2.25312 0.123775 47
-1.28219 -2.22898 -0.133376 47
-0.818014 -2.25554 -0.0412749 49
-1.28396 -2.23026 -0.311238 49
-0.817641 -2.25447 -0.206364 49
-1.28433 -2.22911 -0.492355 49
-0.812572 -2.24524 -0.373116 50
-1.29009 -2.23463 -0.681544 55
-0.808679 -2.24166 -0.541312 49
-3.26395 -5.60184 1.48636 36
-2.045 -5.63795 1.59548 15
-3.26625 -5.60801 1.02005 35
-2.06179 -5.65365 1.16194 23
-1.97836 -5.4009 0.70097 1
-1.29503 -2.22515 0.0443291 49
-0.831009 -2.2557 0.124167 47
-1.29636 -2.22655 -0.133639 47
-0.829345 -2.24874 -0.0412313 49
-1.29726 -2.22542 -0.311542 49
-0.829434 -2.25016 -0.206364 50
-1.29761 -2.22425 -0.492832 47
-0.82686 -2.24791 -0.37429 49
-1.30177 -2.22784 -0.681544 55
-0.822464 -2.24183 -0.542435 49
-3.27644 -5.60301 1.48805 30
-2.05814 -5.64345 1.59806 17
-3.26509 -5.58582 1.01692 15
-2.06997 -5.64543 1.16098 21
-1.98427 -5.3908 0.700057 1
-1.30143 -2.2272 0.0444164 49
-0.832828 -2.24971 0.123905 41
-1.3015 -2.22643 -0.13377 47
-0.834133 -2.24963 -0.0412749 49
-1.30326 -2.22767 -0.312151 49
-0.835082 -2.25338 -0.206799 49
-1.30645 -2.23045 -0.494736 47
-0.831634 -2.24878 -0.374682 49
-1.3081 -2.22973 -0.682837 53
-0.826823 -2.24282 -0.542997 49
-3.29084 -5.56063 1.48131 3
-2.085 -5.62843 1.59677 15
-3.27291 -5.53252 1.01029 1
-2.09339 -5.62108 1.15812 20
-2.00813 -5.36871 0.698536 1
-1.31396 -2.22274 0.04446 49
-0.846344 -2.24999 0.124167 47
-1.3153 -2.22411 -0.134032 47
-0.846385 -2.24772 -0.0413186 49
-1.31617 -2.22295 -0.312455 47
-0.848221 -2.25379 -0.207234 59
-1.31898 -2.22592 -0.495212 47
-0.843397 -2.2444 -0.374682 49
-1.3206 -2.22516 -0.683484 53
-0.840255 -2.24303 -0.54412 49
-3.29957 -5.55545 1.48131 2
-2.08978 -5.6112 1.59289 15
-3.23841 -5.4525 0.996633 1
-2.09461 -5.59443 1.15336 17
-2.01227 -5.35126 0.69671 1
-1.32167 -2.22689 0.0445909 49
-0.85027 -2.24851 0.124167 47
-1.32173 -2.22611 -0.134295 47
-0.851187 -2.24858 -0.0413622 49
-1.32386 -2.22704 -0.313367 47
-0.85303 -2.25464 -0.207452 55
-1.32537 -2.22783 -0.496165 47
-0.849049 -2.24754 -0.375465 47
-1.32943 -2.23114 -0.68607 52
-0.845876 -2.24612 -0.545243 50
-3.31702 -5.51664 1.47569 3
-2.11486 -5.58888 1.58966 15
-3.30254 -5.49472 1.00756 3
-2.11691 -5.56503 1.14955 15
-2.11802 -5.5447 0.723483 21
-1.3346 -2.22208 0.0446345 45
-0.862922 -2.24636 0.124298 45
-1.33594 -2.22344 -0.134558 47
-0.862056 -2.24176 -0.0413186 47
-1.33678 -2.22221 -0.313672 47
-0.863935 -2.24782 -0.207234 50
-1.33829 -2.22296 -0.496641 47
-0.861686 -2.24537 -0.375856 47
-1.34484 -2.23035 -0.68801 52
-0.857625 -2.24166 -0.545243 49
-3.3282 -5.5156 1.47682 14
-2.1169 -5.56486 1.58385 14
-3.25597 -5.39594 0.990389 2
-2.11962 -5.54298 1.14573 15
-2.12326 -5.52941 0.721962 21
-1.34106 -2.22403 0.0447218 47
-0.867736 -2.24718 0.124429 45
-1.34498 -2.22965 -0.135083 47
-0.868657 -2.24725 -0.0414495 47
-1.34451 -2.22624 -0.314584 47
-0.86875 -2.24863 -0.207452 47
-1.34598 -2.22692 -0.498069 47
-0.866487 -2.24617 -0.376248 47
-1.34873 -2.228 -0.68801 52
-0.863276 -2.24471 -0.546366 50
-3.33132 -5.45386 1.46502 12
-2.13906 -5.53567 1.57868 14
-3.39618 -5.56215 1.02434 9
-2.14241 -5.51579 1.1424 15
-2.15758 -5.53209 0.723788 17
-1.35659 -2.22337 0.0448527 47
-0.880397 -2.24493 0.12456 45
-1.35833 -2.22447 -0.135214 47
-0.882229 -2.24733 -0.0415367 49
-1.35744 -2.22129 -0.314889 47
-0.881809 -2.24622 -0.207669 47
-1.36018 -2.22403 -0.499022 47
-0.880028 -2.24621 -0.377031 49
-1.36038 -2.22091 -0.68801 53
-0.876781 -2.2447 -0.547489 49
-3.32554 -5.42312 1.45829 14
-2.14785 -5.52968 1.57803 14
-3.3878 -5.52674 1.01888 12
-2.17616 -5.57112 1.15479 15
-3.40657 -5.5595 0.567384 11
-2.21061 -5.63925 0.738391 24
-1.36217 -2.2229 0.0448963 47
-0.885225 -2.24572 0.12469 45
-1.36482 -2.22635 -0.135476 47
-0.885238 -2.24346 -0.0414931 47
-1.36521 -2.22526 -0.315801 47
-0.886637 -2.24699 -0.207887 47
-1.36792 -2.22792 -0.50045 47
-0.885748 -2.24926 -0.377814 50
-1.36844 -2.22446 -0.68995 53
-0.878926 -2.23863 -0.546366 47
-3.32785 -5.36158 1.44649 12
-2.19454 -5.56067 1.59031 14
-3.40724 -5.49155 1.01575 12
-2.2351 -5.63495 1.17052 23
-3.35913 -5.41613 0.554528 1
-2.23743 -5.61798 0.737174 32
-1.37774 -2.2221 0.0450272 47
-0.897362 -2.24089 0.12469 45
-1.37778 -2.22129 -0.135608 47
-0.901065 -2.24792 -0.0416676 49
-1.37461 -2.21362 -0.315193 47
-0.900234 -2.24695 -0.208322 50
-1.37995 -2.22049 -0.50045 47
-0.898425 -2.24689 -0.378206 49
-1.3839 -2.22342 -0.69189 53
-0.893719 -2.24064 -0.548051 47
-3.31694 -5.32534 1.43807 12
-2.22913 -5.61971 1.6084 15
-3.42108 -5.49457 1.01731 14
-2.23949 -5.61736 1.16766 20
-3.34883 -5.37855 0.55126 1
-2.23981 -5.59832 0.735044 27
-1.38294 -2.22182 0.0450708 45
-0.902736 -2.24412 0.124952 45
-1.38694 -2.22736 -0.136133 45
-0.904987 -2.24635 -0.0416676 47
-1.38728 -2.2262 -0.317323 45
-0.904154 -2.24537 -0.208322 47
-1.38512 -2.22016 -0.500926 45
-0.902345 -2.24532 -0.378206 49
-1.39034 -2.22509 -0.693183 53
-0.899041 -2.24376 -0.549174 49
-3.32399 -5.27492 1.42909 12
-2.25664 -5.60612 1.60776 15
-3.46429 -5.49956 1.02161 12
-2.2633 -5.59457 1.16527 20
-3.43442 -5.45425 0.560847 12
-2.26443 -5.57502 0.733523 26
-1.3995 -2.22325 0.0452454 47
-0.915412 -2.24167 0.125083 45
-1.40391 -2.22851 -0.136658 47
-0.917286 -2.24405 -0.0417112 47
-1.39892 -2.2189 -0.317323 47
-0.917774 -2.24522 -0.208756 49
-1.4029 -2.2235 -0.503307 44
-0.917802 -2.24972 -0.379772 47
-1.40675 -2.22619 -0.69577 52
-0.909863 -2.23676 -0.548612 47
-3.31495 -5.2403 1.42123 12
-2.2601 -5.58649 1.60323 15
-3.52009 -5.56655 1.03526 12
-2.2685 -5.57657 1.16241 18
-3.51049 -5.55349 0.571742 12
-2.26761 -5.55497 0.731394 29
-1.40377 -2.22056 0.0452454 47
-0.92121 -2.2447 0.125345 45
-1.40646 -2.22395 -0.136527 45
-0.922146 -2.24476 -0.0417549 47
-1.40545 -2.22065 -0.317931 45
-0.922633 -2.24592 -0.208974 47
-1.40678 -2.22104 -0.503307 45
-0.921727 -2.24811 -0.379772 47
-1.41102 -2.22348 -0.69577 53
-0.917435 -2.2442 -0.550858 52
-3.32223 -5.18946 1.41224 12
-2.28754 -5.56748 1.60129 15
-3.52219 -5.50375 1.02707 12
-2.29299 -5.55327 1.16003 18
-3.54585 -5.54281 0.572613 11
-2.29288 -5.53116 0.729872 27
-1.42211 -2.2237 0.0454635 47
-0.935253 -2.24429 0.125606 44
-1.42212 -2.22286 -0.13692 45
-0.936194 -2.24436 -0.0418421 47
-1.4228 -2.22137 -0.319148 49
-0.936288 -2.24566 -0.209409 47
-1.42142 -2.21753 -0.50426 45
-0.934429 -2.24554 -0.380163 49
-1.42656 -2.22216 -0.69771 52
-0.931423 -2.2437 -0.551981 52
-3.31062 -5.1535 1.40382 12
-2.28898 -5.54338 1.59548 15
-3.55353 -5.53352 1.0337 11
-2.29799 -5.53793 1.15765 18
-3.55148 -5.53032 0.57196 11
-2.30062 -5.52526 0.729568 30
-1.42734 -2.22332 0.0455071 47
-0.938777 -2.24282 0.125606 45
-1.4287 -2.22458 -0.137183 47
-0.941071 -2.24503 -0.0418858 45
-1.42763 -2.22122 -0.319452 44
-0.942121 -2.24862 -0.209844 47
-1.42928 -2.22124 -0.505688 45
-0.938347 -2.2439 -0.380163 49
-1.43698 -2.22981 -0.700943 52
-0.93308 -2.23774 -0.550858 47
-3.31499 -5.10137 1.39427 12
-2.31607 -5.5295 1.59483 15
-3.56227 -5.48379 1.02785 9
-2.31839 -5.50812 1.15383 15
-3.56993 -5.49766 0.570434 9
-2.33048 -5.51542 0.729872 24
-1.44403 -2.22445 0.0456817 49
-0.953422 -2.24477 0.125999 47
-1.44305 -2.22125 -0.137446 47
-0.953396 -2.24254 -0.0419294 47
-1.44465 -2.22203 -0.320669 45
-0.955822 -2.24825 -0.210279 49
-1.44318 -2.21809 -0.50664 44
-0.952963 -2.24578 -0.381338 49
-1.45089 -2.22656 -0.702236 52
-0.949508 -2.24405 -0.553666 49
-3.30258 -5.06294 1.38529 11
-2.32759 -5.5299 1.59613 14
-3.57453 -5.4817 1.02863 9
-2.3595 -5.57601 1.16909 14
-3.57816 -5.48933 0.570216 11
-2.38463 -5.61645 0.743867 26
-1.44829 -2.22167 0.0456817 47
-0.958314 -2.2454 0.12613 47
-1.45239 -2.22709 -0.137971 47
-0.960241 -2.24777 -0.0420603 45
-1.4526 -2.22574 -0.321582 47
-0.959745 -2.24658 -0.210279 47
-1.45108 -2.22173 -0.508069 45
-0.958809 -2.24866 -0.382121 47
-1.45781 -2.22781 -0.703529 52
-0.954372 -2.24463 -0.554227 50
-3.32321 -5.03483 1.38248 9
-2.38115 -5.57276 1.61228 12
-3.60414 -5.46228 1.02863 8
-2.40993 -5.61321 1.17957 18
-3.61055 -5.47405 0.570652 8
-2.41596 -5.60575 0.744172 29
-1.46128 -2.21615 0.0457253 47
-0.970449 -2.24019 0.12613 45
-1.46403 -2.21946 -0.137971 45
-0.972388 -2.24255 -0.0420603 45
-1.46599 -2.21992 -0.321886 45
-0.97248 -2.24381 -0.210496 49
-1.46714 -2.21998 -0.509497 45
-0.97057 -2.24361 -0.382121 47
-1.47079 -2.22216 -0.704176 52
-0.967463 -2.24167 -0.554789 50
-3.3069 -4.99305 1.37237 4
-2.41085 -5.61522 1.62585 14
-3.68362 -5.56366 1.04892 8
-2.42069 -5.61125 1.18005 20
-3.68474 -5.56533 0.580893 11
-2.42083 -5.59283 0.742955 27
-1.46791 -2.21776 0.0458126 45
-0.97595 -2.24324 0.126391 47
-1.46928 -2.21898 -0.138102 45
-0.976301 -2.24085 -0.0420603 45
-1.47222 -2.22175 -0.322495 47
-0.979365 -2.24896 -0.211148 49
-1.47237 -2.21946 -0.509974 45
-0.976444 -2.24645 -0.382904 47
-1.47868 -2.22562 -0.706116 52
-0.972912 -2.24462 -0.555912 50
-2.44309 -5.6118 1.62844 15
-3.71958 -5.55455 1.05087 9
-2.44612 -5.59218 1.17862 17
-3.71425 -5.54867 0.581111 11
-2.4461 -5.57099 0.741738 26
-1.48051 -2.21238 0.0458562 45
-0.989689 -2.24267 0.126653 45
-1.48505 -2.21748 -0.138496 45
-0.990647 -2.24274 -0.0421912 45
-1.4866 -2.21813 -0.323103 45
-0.990125 -2.24152 -0.210931 47
-1.48632 -2.21606 -0.510926 45
-0.989185 -2.24356 -0.383295 47
-1.49127 -2.22011 -0.706762 52
-0.983675 -2.23727 -0.55535 49
-2.44805 -5.59646 1.6252 14
-3.72651 -5.54395 1.05009 9
-2.4529 -5.57848 1.17671 17
-3.7142 -5.52771 0.579586 11
-2.44982 -5.55308 0.739912 23
-1.48894 -2.21575 0.0459871 45
-0.994609 -2.24323 0.126784 45
-1.4931 -2.2211 -0.13889 45
-0.99355 -2.23872 -0.0421476 45
-1.49185 -2.21759 -0.323407 45
-0.996047 -2.24435 -0.211366 47
-1.49293 -2.21753 -0.511878 45
-0.99509 -2.24635 -0.384078 47
-1.49958 -2.22325 -0.708702 50
-0.990519 -2.24224 -0.557035 50
-2.47438 -5.5743 1.62262 14
-3.75089 -5.51554 1.04853 8
-2.47908 -5.55883 1.17528 15
-3.73845 -5.4993 0.578714 11
-2.47376 -5.52615 0.738087 23
-1.50333 -2.21206 0.0460743 45
-1.00775 -2.24009 0.126915 45
-1.50892 -2.21944 -0.139283 45
-1.00871 -2.24016 -0.0422784 45
-1.50802 -2.21564 -0.32432 45
-1.00778 -2.2391 -0.211366 47
-1.50629 -2.21145 -0.512354 45
-1.00723 -2.24094 -0.384078 47
-1.51529 -2.22135 -0.710642 50
-1.00561 -2.24352 -0.55872 49
-2.48116 -5.56336 1.62068 14
-3.75355 -5.49879 1.04658 4
-2.47676 -5.52761 1.16956 15
-3.76349 -5.51539 0.581111 9
-2.48543 -5.52636 0.738695 26
-1.51142 -2.21563 0.0462052 45
-1.01371 -2.24288 0.127176 45
-1.5142 -2.21886 -0.139415 45
-1.01467 -2.24295 -0.0423657 45
-1.51609 -2.21915 -0.325233 45
-1.01578 -2.24643 -0.212236 47
-1.51847 -2.22097 -0.515211 45
-1.01316 -2.24368 -0.384861 47
-1.52326 -2.22467 -0.712582 50
-1.00953 -2.24176 -0.55872 49
-2.50233 -5.53532 1.61616 14
-3.77011 -5.46347 1.04346 8
-2.50876 -5.52395 1.17147 18
-3.76307 -5.45528 0.576753 11
-2.52262 -5.53403 0.741434 24
-1.52546 -2.21206 0.0462925 45
-1.02608 -2.23999 0.127307 45
-1.52967 -2.21733 -0.139809 45
-1.02913 -2.24461 -0.0424966 45
-1.53012 -2.21553 -0.325841 45
-1.0292 -2.24579 -0.212671 49
-1.52969 -2.21325 -0.515211 45
-1.02451 -2.23852 -0.384861 47
-1.53588 -2.21892 -0.713229 50
-1.02287 -2.24106 -0.559843 49
-2.50701 -5.51994 1.61293 14
-3.8148 -5.50762 1.05322 8
-2.5367 -5.55976 1.18005 15
-3.81654 -5.51217 0.583508 8
-2.57765 -5.62893 0.75482 30
-1.53359 -2.21556 0.0464234 45
-1.03207 -2.24274 0.127569 45
-1.53638 -2.21876 -0.140071 45
-1.032 -2.24054 -0.042453 47
-1.53682 -2.21693 -0.32645 45
-1.03519 -2.24852 -0.213106 49
-1.53915 -2.21864 -0.517116 45
-1.03252 -2.24571 -0.386427 47
-1.54388 -2.22219 -0.715168 50
-1.02678 -2.23927 -0.559843 49
-2.54495 -5.52649 1.61874 14
-3.88893 -5.55229 1.0657 8
-2.59047 -5.59988 1.19149 18
-3.87679 -5.53699 0.588301 11
-2.60396 -5.6086 0.753907 27
-1.54803 -2.21159 0.0465107 45
-1.0459 -2.24183 0.127831 45
-1.54941 -2.21273 -0.140202 45
-1.04688 -2.2419 -0.0425839 45
-1.0459 -2.24081 -0.212888 49
-1.55215 -2.21256 -0.517592 45
-1.04426 -2.24028 -0.386427 47
-1.55689 -2.21605 -0.715815 52
-1.03952 -2.23608 -0.560404 49
-2.56876 -5.55274 1.62779 14
-3.90004 -5.54751 1.06609 9
-2.61056 -5.61762 1.19625 20
-3.88358 -5.52614 0.587865 11
-2.60013 -5.5748 0.749952 20
-1.55477 -2.21298 0.0465979 45
-1.04981 -2.24001 0.127831 44
-1.55758 -2.21615 -0.140596 44
-1.05185 -2.24234 -0.0426275 45
-1.05297 -2.24575 -0.21354 47
-1.56167 -2.21787 -0.519497 47
-1.05234 -2.2474 -0.387993 45
-1.56493 -2.21924 -0.717755 50
-1.04444 -2.23647 -0.560966 49
-3.34776 -4.70797 1.32352 3
-2.62851 -5.60483 1.64718 14
-3.92045 -5.51494 1.06375 8
-2.62532 -5.57278 1.18958 15
-3.90669 -5.49761 0.586994 11
-2.61234 -5.5252 0.745084 15
-1.57068 -2.21092 0.0467288 45
-1.06366 -2.23899 0.128092 44
-1.06357 -2.2368 -0.0426275 45
-1.06578 -2.24246 -0.213758 47
-1.57611 -2.21366 -0.520449 45
-1.0641 -2.24186 -0.387993 47
-1.58214 -2.21888 -0.720341 50
-1.05822 -2.23538 -0.562089 49
-3.39337 -4.75624 1.33868 4
-2.62699 -5.5762 1.64007 14
-3.92146 -5.49603 1.06141 8
-2.62142 -5.53934 1.18338 14
-3.91194 -5.4847 0.58634 9
-2.61773 -5.51167 0.743867 20
-1.06756 -2.23713 0.128092 45
-1.07069 -2.24171 -0.0427584 47
-1.06969 -2.24059 -0.213758 45
-1.5814 -2.21291 -0.520925 45
-1.06907 -2.24223 -0.388385 47
-1.58742 -2.21808 -0.720988 50
-1.06212 -2.23353 -0.562089 49
-3.44329 -4.77139 1.34823 9
-2.64472 -5.53838 1.63296 14
-3.93284 -5.45139 1.05673 4
-2.65568 -5.5366 1.18577 15
-3.92457 -5.44192 0.583943 9
-2.6487 -5.50236 0.744476 23
-1.08143 -2.23601 0.128354 45
-1.08459 -2.24058 -0.0428457 47
-1.08504 -2.2415 -0.21441 44
-1.08293 -2.24105 -0.389168 47
-1.60326 -2.21561 -0.722928 50
-1.0759 -2.23233 -0.563212 49
-2.66064 -5.54683 1.63684 14
-2.65354 -5.50496 1.18005 15
-2.65615 -5.49326 0.743867 23
-1.0875 -2.23862 0.128616 44
-1.09176 -2.24543 -0.0429765 47
-1.09112 -2.24409 -0.214845 45
-1.08791 -2.24138 -0.38956 49
-1.60751 -2.21252 -0.722928 49
-1.08085 -2.23264 -0.563773 49
-2.67374 -5.49759 1.6265 14
-2.68556 -5.49761 1.18148 15
-2.69455 -5.49664 0.746301 29
-1.1018 -2.23718 0.128877 44
-1.10279 -2.23725 -0.0429329 45
-1.10505 -2.24282 -0.21528 47
-1.10181 -2.24009 -0.390343 47
-1.6248 -2.21186 -0.725514 50
-1.09506 -2.23114 -0.564896 49
-2.69391 -5.51462 1.63296 15
-2.69623 -5.49511 1.18195 18
-2.69662 -5.47903 0.744476 24
-1.10862 -2.24217 0.12927 44
-1.16317 -1.58349 -0.101476 12
-1.1078 -2.23757 -0.0429765 44
-1.10896 -2.24089 -0.21528 45
-1.10898 -2.24481 -0.391517 47
-1.63152 -2.2129 -0.726808 49
-1.10071 -2.23379 -0.56602 49
-3.31045 -4.45501 1.2713 4
-2.72072 -5.49875 1.63231 14
-2.73709 -5.50778 1.18767 18
-3.27686 -4.41301 0.477831 4
-2.74296 -5.50038 0.749344 21
-1.20958 -1.62984 0.0348176 11
-1.12145 -2.23857 0.129401 44
-1.16399 -1.56736 -0.10082 14
-1.12469 -2.24311 -0.0431947 45
-1.12513 -2.24396 -0.21615 49
-1.12292 -2.2434 -0.3923 49
-1.64559 -2.20849 -0.728101 49
-1.11564 -2.23454 -0.567704 47
-3.31239 -4.44142 1.26905 4
-2.74212 -5.51779 1.63942 14
-2.75751 -5.52228 1.19196 18
-3.28456 -4.40729 0.477831 3
-2.77031 -5.5311 0.754212 21
-1.21271 -1.62752 0.0348176 11
-1.12648 -2.23884 0.129531 44
-1.16673 -1.56532 -0.10082 14
-1.12861 -2.24115 -0.0431947 45
-1.13016 -2.24422 -0.216367 49
-1.12463 -2.23702 -0.391517 47
-1.65851 -2.21692 -0.731981 49
-1.11954 -2.23259 -0.567704 47
-2.77736 -5.51367 1.64265 14
-2.80519 -5.54501 1.20006 15
-2.84954 -5.61342 0.767598 33
-1.14309 -2.24162 0.130055 44
-1.1704 -1.55321 -0.100426 15
-1.14524 -2.24392 -0.0433692 47
-1.14528 -2.24494 -0.21702 49
-1.16406 -1.54204 -0.368076 14
-1.13967 -2.2377 -0.392692 47
-1.66718 -2.20436 -0.730688 49
-1.1349 -2.23302 -0.569389 47
-2.81745 -5.56917 1.66075 14
-2.85482 -5.6189 1.21722 21
-2.8516 -5.59567 0.765773 27
-1.14435 -2.23537 0.129793 44
-1.1716 -1.54918 -0.100295 15
-1.14802 -2.23969 -0.0433256 45
-1.15033 -2.24515 -0.217237 49
-1.15933 -1.53023 -0.365695 14
-1.14246 -2.23351 -0.3923 47
-1.1384 -2.23124 -0.569389 47
-2.87199 -5.60645 1.67625 15
-2.86978 -5.57819 1.2115 18
-2.8695 -5.55861 0.76273 24
-1.23678 -1.61875 0.0349484 11
-1.15947 -2.236 0.130186 44
-1.17791 -1.54125 -0.100163 15
-1.16164 -2.23829 -0.0434129 45
-1.16168 -2.2393 -0.217237 45
-1.16109 -1.51655 -0.363791 17
-1.1564 -2.23189 -0.393083 47
-1.15007 -2.22525 -0.569389 47
-2.85199 -5.54342 1.65881 14
-2.86938 -5.55354 1.20721 15
-2.86665 -5.52935 0.759384 21
-1.24265 -1.62055 0.0350357 11
-1.16682 -2.24063 0.130578 44
-1.18516 -1.54513 -0.100557 15
-1.169 -2.24292 -0.0435437 44
-1.16902 -2.2439 -0.21789 47
-1.15775 -1.50674 -0.361886 15
-1.1637 -2.23644 -0.394258 47
-1.15731 -2.22973 -0.571073 47
-2.891 -5.5477 1.66462 14
-2.8882 -5.51886 1.20292 15
-2.88404 -5.49228 0.756341 21
-1.25111 -1.61403 0.0350357 11
-1.17969 -2.2367 0.130709 44
-1.1917 -1.53693 -0.100426 14
-1.17956 -2.23456 -0.0435001 44
-1.17778 -1.51737 -0.231223 18
-1.17844 -2.23334 -0.217455 45
-1.15959 -1.49291 -0.359981 18
-1.17539 -2.23032 -0.394258 45
-1.17123 -2.22796 -0.572196 47
-2.88726 -5.51695 1.65687 14
-2.89212 -5.50294 1.20054 15
-2.92252 -5.54214 0.763947 23
-1.257 -1.61578 0.035123 11
-1.18476 -2.23684 0.13084 44
-1.20052 -1.54272 -0.100951 14
-1.18579 -2.23692 -0.0435874 44
-1.18959 -1.52705 -0.233048 15
-1.18814 -2.2423 -0.218542 45
-1.15464 -1.48121 -0.357601 20
-1.18274 -2.23482 -0.395432 45
-1.17624 -2.22806 -0.572758 47
-2.92288 -5.51457 1.66075 14
-3.03373 -5.70012 1.24725 14
-1.73046 -2.20048 0.241857 11
-3.03321 -5.68004 0.785244 15
-1.27163 -1.61703 0.0352975 11
-1.19881 -2.23501 0.131102 44
-1.20885 -1.53621 -0.100951 14
-1.19867 -2.23288 -0.043631 44
-1.1991 -1.52275 -0.233352 14
-1.20026 -2.23583 -0.218542 45
-1.15934 -1.47129 -0.356648 18
-1.19559 -2.23077 -0.395824 45
-1.19018 -2.22618 -0.573881 45
-3.04014 -5.71207 1.72214 20
-3.03312 -5.67263 1.24248 15
-1.73276 -2.1955 0.241639 11
-3.01852 -5.6288 0.778855 15
-1.28403 -1.62635 0.0355593 11
-1.20507 -2.23732 0.131363 44
-1.21772 -1.54193 -0.101476 14
-1.20493 -2.23519 -0.0437183 44
-1.20022 -1.51871 -0.233048 14
-1.20534 -2.23593 -0.218759 47
-1.15124 -1.4558 -0.353315 17
-1.20181 -2.23304 -0.396607 44
-1.19522 -2.22624 -0.574442 44
-3.04811 -5.65301 1.70921 14
-3.04294 -5.61997 1.23438 17
-3.0513 -5.61674 0.779464 33
-1.29409 -1.62156 0.0356029 11
-1.21954 -2.23515 0.131625 44
-1.2289 -1.53943 -0.101739 14
-1.21819 -2.23083 -0.0437619 44
-1.20997 -1.51413 -0.233352 14
-1.21703 -2.22959 -0.218759 44
-1.1545 -1.4438 -0.351887 15
-1.21466 -2.22888 -0.396998 45
-1.20724 -2.21974 -0.574442 44
-3.04534 -5.62431 1.7021 24
-3.05626 -5.62112 1.23581 35
-3.06368 -5.61848 0.780376 35
-1.30161 -1.62515 0.0357338 11
-1.22544 -2.23762 0.131887 44
-1.23471 -1.54118 -0.102001 14
-1.22209 -2.2287 -0.0437619 44
-1.22011 -1.52191 -0.234873 14
-1.2233 -2.23183 -0.219194 44
-1.15548 -1.43987 -0.35141 15
-1.22209 -2.23327 -0.398173 44
-1.21538 -2.22641 -0.576689 45
-3.08073 -5.62153 1.70598 32
-3.09176 -5.61849 1.23867 36
-3.09066 -5.59802 0.779768 21
-1.31454 -1.62437 0.0358647 11
-1.23714 -2.23117 0.131887 44
-1.25035 -1.54461 -0.102658 14
-1.23698 -2.22905 -0.0438928 44
-1.22806 -1.5155 -0.234873 14
-1.23699 -2.22997 -0.219629 44
-1.15502 -1.42448 -0.34903 15
-1.23616 -2.23116 -0.398956 44
-1.2282 -2.22215 -0.57725 45
-3.09402 -5.6225 1.70792 30
-3.10156 -5.61308 1.23867 21
-3.11003 -5.60998 0.782202 33
-1.31738 -1.62207 0.0358647 12
-1.24224 -2.23119 0.132017 44
-1.2625 -1.55404 -0.103445 14
-1.24208 -2.22908 -0.0439364 44
-1.23384 -1.5172 -0.235482 14
-1.2445 -2.23435 -0.220282 44
-1.15905 -1.42437 -0.349506 14
-1.24005 -2.229 -0.398956 44
-1.23443 -2.22427 -0.578373 44
-3.12557 -5.60779 1.70856 26
-3.14385 -5.61765 1.24343 32
-3.14762 -5.60606 0.784027 33
-1.33248 -1.62264 0.0360392 12
-1.25552 -2.22662 0.132148 44
-1.27723 -1.5549 -0.10397 14
-1.26024 -2.23322 -0.0441546 44
-1.24676 -1.51625 -0.236395 14
-1.2578 -2.22975 -0.220499 44
-1.1605 -1.4105 -0.347601 14
-1.25412 -2.22678 -0.399739 44
-1.2512 -2.22606 -0.580619 45
-3.14242 -5.61497 1.71244 32
-3.15725 -5.61857 1.24486 32
-3.16007 -5.6076 0.78494 32
-1.34009 -1.6261 0.0361701 12
-1.26146 -2.22899 0.13241 42
-1.2863 -1.56037 -0.104495 14
-1.26414 -2.23102 -0.0441546 44
-1.25547 -1.52194 -0.237612 14
-1.26413 -2.23189 -0.220934 44
-1.15983 -1.40469 -0.346649 14
-1.26042 -2.22889 -0.400522 44
-1.2547 -2.22409 -0.580619 45
-3.17793 -5.61161 1.71632 32
-3.19413 -5.61746 1.2482 32
-3.19553 -5.60176 0.786461 32
-1.3547 -1.62697 0.0363446 12
-1.27559 -2.22669 0.132672 44
-1.29925 -1.55936 -0.104889 14
-1.27665 -2.22676 -0.0441982 44
-1.26978 -1.52297 -0.238829 14
-1.2795 -2.23173 -0.221586 44
-1.16535 -1.39692 -0.346173 14
-1.27575 -2.2287 -0.401697 44
-1.84534 -2.20764 -0.761079 12
-1.26994 -2.22384 -0.582304 44
-4.55744 -5.44703 1.62899 11
-3.18891 -5.60815 1.71697 32
-4.55974 -5.45169 1.1176 11
-3.2122 -5.62411 1.25106 32
-3.209 -5.60263 0.787374 30
-1.36424 -1.63204 0.0365192 12
-1.28071 -2.22663 0.132802 44
-1.30358 -1.55901 -0.105021 14
-1.28302 -2.22887 -0.0442855 44
-1.27243 -1.52075 -0.238829 14
-1.2834 -2.22949 -0.221586 44
-1.16306 -1.38924 -0.344744 12
-1.28331 -2.2329 -0.402871 44
-1.84492 -2.19855 -0.759139 11
-1.27623 -2.22585 -0.583427 44
-4.63405 -5.47808 1.64584 8
-3.22523 -5.60129 1.7202 29
-4.65774 -5.50801 1.13438 12
-3.25019 -5.62209 1.2544 33
-4.65947 -5.51198 0.628393 14
-3.24797 -5.60022 0.789503 30
-1.376 -1.62869 0.0366064 12
-1.2965 -2.22615 0.133195 44
-1.31656 -1.55788 -0.105414 14
-1.29632 -2.22406 -0.0443291 44
-1.28866 -1.52331 -0.24035 14
-1.30005 -2.23136 -0.222456 44
-1.16262 -1.37356 -0.342363 14
-1.29499 -2.22615 -0.402871 44
-1.86422 -2.19807 -0.762372 9
-1.2907 -2.22314 -0.58455 44
-4.67891 -5.51351 1.65875 12
-3.24586 -5.61448 1.72601 29
-4.67438 -5.5101 1.13633 12
-3.25385 -5.60579 1.25201 32
-4.66908 -5.50384 0.628393 14
-3.24554 -5.5758 0.786765 26
-1.38693 -1.63581 0.0368246 12
-1.30376 -2.23058 0.133588 45
-1.32736 -1.56509 -0.106071 14
-1.30397 -2.22827 -0.04446 44
-1.3007 -1.53263 -0.242175 14
-1.30395 -2.22909 -0.222456 44
-1.16025 -1.36592 -0.340935 14
-1.30259 -2.23029 -0.404046 44
-1.86962 -2.19665 -0.763019 8
-1.29541 -2.22321 -0.585111 44
-4.7093 -5.49079 1.65931 11
-3.28276 -5.61257 1.73054 29
-4.70156 -5.48368 1.13594 14
-3.29087 -5.60407 1.25535 14
-4.69364 -5.47635 0.627957 14
-3.2684 -5.54804 0.785244 2
-1.40007 -1.63446 0.0369555 12
-1.31542 -2.22372 0.133588 44
-1.33553 -1.55812 -0.106071 14
-1.31904 -2.2281 -0.0445909 44
-1.31194 -1.52956 -0.242784 14
-1.31939 -2.22867 -0.223109 44
-1.16235 -1.35445 -0.339506 14
-1.31676 -2.22769 -0.404829 44
-1.88544 -2.19265 -0.764959 9
-1.30827 -2.2185 -0.585673 44
-4.72842 -5.49363 1.66268 11
-3.28034 -5.586 1.72407 8
-4.70951 -5.47359 1.13555 12
-3.2954 -5.58717 1.25297 1
-4.70644 -5.47193 0.628393 12
-3.28186 -5.54874 0.786157 1
-1.40973 -1.63935 0.03713 12
-1.32312 -2.22787 0.13398 44
-1.34477 -1.56335 -0.106596 14
-1.3242 -2.22794 -0.0446345 42
-1.32756 -1.5423 -0.245218 14
-1.32455 -2.2285 -0.223326 42
-1.16471 -1.35242 -0.339506 12
-1.3219 -2.22752 -0.40522 44
-1.88649 -2.18537 -0.763665 9
-1.31708 -2.22461 -0.587919 44
-4.75487 -5.4643 1.66156 9
-3.30065 -5.55156 1.7189 1
-4.74554 -5.45548 1.13711 11
-3.33214 -5.58249 1.25583 1
-4.72617 -5.43511 0.627086 12
-3.28892 -5.49256 0.780681 2
-1.42157 -1.63572 0.0372173 12
-1.34285 -2.23353 0.134765 45
-1.36113 -1.56571 -0.107252 15
-1.34009 -2.22718 -0.0447654 42
-1.33915 -1.53884 -0.245826 14
-1.33876 -2.22581 -0.223761 44
-1.16717 -1.34055 -0.338078 12
-1.33861 -2.22904 -0.406786 44
-1.90108 -2.1791 -0.764959 11
-1.3291 -2.21745 -0.587919 44
-4.76665 -5.46049 1.66268 9
-3.30416 -5.53542 1.71567 2
-4.75898 -5.4536 1.13828 11
-3.33684 -5.56824 1.25392 2
-4.7422 -5.43436 0.627957 11
-3.29882 -5.48952 0.780985 3
-1.42443 -1.63323 0.0372173 12
-1.34378 -2.22714 0.134503 44
-1.37043 -1.57085 -0.107777 14
-1.34398 -2.22484 -0.0447654 42
-1.3481 -1.54421 -0.247043 14
-1.34778 -2.23201 -0.224631 42
-1.34377 -2.22882 -0.407178 42
-1.9017 -2.17214 -0.763665 11
-1.33759 -2.22372 -0.590165 44
-4.79518 -5.43546 1.66268 8
-3.33712 -5.52689 1.71826 14
-4.77766 -5.4175 1.13594 9
-3.38277 -5.58067 1.26059 2
-4.78447 -5.4271 0.629918 4
-3.38933 -5.57398 0.795588 11
-1.43929 -1.6335 0.0373918 12
-1.35931 -2.22647 0.134896 42
-1.3869 -1.57301 -0.108434 14
-1.35912 -2.22441 -0.0448963 42
-1.36109 -1.54271 -0.247956 14
-1.35815 -2.22279 -0.224413 42
-1.35799 -2.22597 -0.407961 42
-1.92387 -2.17515 -0.768192 12
-1.35048 -2.21877 -0.590727 45
-4.80466 -5.42708 1.66268 4
-3.328 -5.49007 1.70856 14
-4.81658 -5.44243 1.14297 4
-3.40112 -5.58675 1.26345 11
-4.82859 -5.4579 0.634494 8
-3.38355 -5.54263 0.791937 12
-1.44242 -1.63073 0.0373918 12
-1.3658 -2.22836 0.135158 42
-1.38799 -1.56872 -0.108302 14
-1.36561 -2.2263 -0.0449836 42
-1.37037 -1.54775 -0.249173 14
-1.36722 -2.22892 -0.225283 44
-1.36444 -2.22782 -0.408744 42
-1.92484 -2.16784 -0.766899 11
-1.35688 -2.22057 -0.59185 44
-4.88758 -5.4609 1.68121 3
-3.34126 -5.44521 1.70016 12
-4.94147 -5.52301 1.1656 8
-3.40719 -5.53124 1.25487 11
-4.94939 -5.53378 0.646478 9
-3.39525 -5.49468 0.787678 12
-1.45761 -1.63061 0.0375663 12
-1.38177 -2.22731 0.13555 41
-1.40284 -1.56887 -0.108827 14
-1.38026 -2.22313 -0.0450708 42
-1.38866 -1.5514 -0.250998 14
-1.38018 -2.22385 -0.2255 42
-1.37868 -2.22484 -0.409527 42
-1.94423 -2.16672 -0.770132 11
-1.37271 -2.21942 -0.593534 45
-4.98243 -5.54927 1.71097 9
-3.32166 -5.39206 1.6853 11
-4.97819 -5.54648 1.17223 11
-3.4091 -5.51275 1.25201 12
-4.984 -5.55293 0.649746 11
-3.40257 -5.48723 0.787374 14
-1.46714 -1.6355 0.0377408 12
-1.38659 -2.22726 0.135681 39
-1.40892 -1.57013 -0.10909 14
-1.38546 -2.22285 -0.0451145 41
-1.38944 -1.54738 -0.250694 14
-1.38669 -2.22567 -0.225935 42
-1.38516 -2.22663 -0.41031 42
-1.94801 -2.16332 -0.770132 9
-1.37491 -2.21519 -0.592973 44
-5.02615 -5.53934 1.71603 12
-3.33615 -5.35467 1.67884 11
-5.0138 -5.52765 1.17379 11
-3.44476 -5.50792 1.25487 12
-5.01873 -5.53501 0.650618 11
-3.43521 -5.47565 0.788287 12
-1.48043 -1.63361 0.0378717 12
-1.40221 -2.22631 0.136073 39
-1.42887 -1.57567 -0.110009 14
-1.39935 -2.22004 -0.0452017 41
-1.40229 -2.22471 -0.226588 42
-1.39812 -2.22144 -0.410701 42
-1.96706 -2.16236 -0.773365 8
-1.39037 -2.21415 -0.594657 44
-5.03909 -5.53416 1.71715 9
-3.32503 -5.31606 1.6685 11
-5.04006 -5.53715 1.1777 11
-3.51139 -5.5907 1.27537 11
-5.0418 -5.54098 0.652361 11
-3.51608 -5.58308 0.804715 12
-1.48357 -1.63076 0.0378717 12
-1.40476 -2.22175 0.135943 36
-1.43161 -1.57317 -0.110009 14
-1.40989 -2.22817 -0.0454199 41
-1.41016 -2.22858 -0.22724 41
-1.40594 -2.22527 -0.411876 42
-1.97284 -2.16036 -0.774011 3
-1.39811 -2.21791 -0.596342 44
-5.08876 -5.52832 1.72389 9
-3.32923 -5.2592 1.65622 11
-5.09002 -5.5316 1.18238 11
-3.54062 -5.57224 1.27537 11
-5.08688 -5.53011 0.654322 11
-3.53825 -5.55141 0.80289 12
-1.49547 -1.62665 0.037959 12
-1.41945 -2.21832 0.136204 35
-1.44321 -1.56933 -0.110272 14
-1.42192 -2.22051 -0.0454199 41
-1.42315 -2.22326 -0.227458 42
-1.41889 -2.21996 -0.412268 41
-1.99232 -2.15887 -0.777245 2
-1.41401 -2.21649 -0.598027 44
-5.11232 -5.53643 1.72894 11
-3.32288 -5.22891 1.64847 11
-5.11713 -5.54355 1.18667 9
-3.55034 -5.56605 1.27537 9
-5.11004 -5.53586 0.656065 11
-3.54563 -5.54376 0.802586 9
-1.5034 -1.62955 0.0380899 12
-1.42427 -2.2182 0.136335 29
-1.44256 -1.56314 -0.110009 14
-1.43118 -2.22644 -0.0455944 41
-1.42971 -2.22497 -0.227892 42
-1.42543 -2.22164 -0.413051 42
-1.99936 -2.15893 -0.778538 2
-1.4188 -2.21632 -0.598588 44
-5.15952 -5.52917 1.73512 9
-3.32192 -5.16934 1.6349 11
-5.15787 -5.52932 1.1894 9
-3.5665 -5.52944 1.27108 9
-5.15668 -5.52996 0.658462 12
-3.56653 -5.51261 0.80076 9
