# .PCD v0.7 - Point Cloud Data file format
VERSION 0.7
FIELDS x y z intensity
SIZE 4 4 4 4
TYPE F F F F
COUNT 1 1 1 1
WIDTH 1624
HEIGHT 1
VIEWPOINT 0 0 0 1 0 0 0
POINTS 1624
DATA ascii
1.12075 -2.82404 -0.157925 2
1.16513 -2.93901 -0.383343 9
1.67939 -2.72403 -0.276385 47
1.45146 -3.66779 -0.758532 4
1.54732 -2.50667 -0.461599 38
1.05992 -2.68278 -0.763019 3
1.55507 -2.51338 -0.673271 35
2.59084 -6.63102 1.63292 30
3.09984 -5.03231 1.57222 38
2.49506 -6.38249 1.07741 1
3.16536 -5.15848 1.16861 17
1.1084 -2.83178 0.262992 9
3.14255 -5.13737 0.734132 15
1.09099 -2.78869 0.0516591 8
3.12289 -5.11325 0.312184 8
1.10916 -2.83665 -0.158318 3
1.15334 -2.95432 -0.38456 8
1.66039 -2.724 -0.275515 35
1.43644 -3.68424 -0.760437 4
1.54235 -2.52711 -0.463948 39
1.04545 -2.68586 -0.762372 3
1.56482 -2.55886 -0.683379 17
2.57601 -6.62373 1.63011 32
3.08726 -5.03154 1.57028 38
2.57453 -6.61655 1.11643 33
3.14353 -5.14307 1.16384 14
1.10707 -2.84299 0.263864 4
3.1306 -5.13595 0.733219 15
1.08613 -2.79059 0.0516591 9
1.11325 -2.86186 -0.159631 2
1.15318 -2.9677 -0.386081 8
1.65433 -2.72477 -0.275298 47
1.42558 -3.6753 -0.758056 4
1.04076 -2.68768 -0.762372 3
2.53694 -6.62575 1.62731 32
3.05548 -5.03678 1.56705 38
2.53544 -6.61841 1.11448 33
3.10602 -5.14002 1.15955 14
1.09177 -2.84623 0.263646 8
3.09726 -5.14165 0.731698 14
1.07914 -2.81472 0.0520082 9
1.09875 -2.86746 -0.159631 3
1.6341 -2.72244 -0.27421 47
1.41046 -3.69164 -0.759961 4
1.02543 -2.6884 -0.761079 4
2.52306 -6.62062 1.62506 32
3.03668 -5.02558 1.56188 38
2.52328 -6.61777 1.1137 32
3.09325 -5.13913 1.15812 14
1.0939 -2.86675 0.265389 8
3.08022 -5.13162 0.729568 15
1.07422 -2.8166 0.0520082 9
2.47981 -4.13966 0.251082 3
1.10529 -2.8997 -0.161338 3
1.62806 -2.72315 -0.273993 49
1.40227 -3.68951 -0.759008 4
1.0233 -2.69696 -0.763019 4
2.48237 -6.61777 1.62113 32
3.00253 -5.02638 1.55735 38
2.48426 -6.61933 1.11175 33
3.06217 -5.14629 1.15622 14
1.0855 -2.88857 0.266914 4
3.04698 -5.13701 0.728047 14
1.07137 -2.85243 0.0525754 8
2.46065 -4.15688 0.251343 4
1.10462 -2.94266 -0.163438 3
1.83061 -4.88702 -0.635558 12
1.61426 -2.73135 -0.273993 49
1.38272 -3.69426 -0.758532 4
1.01217 -2.70889 -0.764959 3
2.47198 -6.62166 1.62113 32
2.9888 -5.02332 1.55477 38
2.47127 -6.61628 1.11058 33
3.04316 -5.13474 1.1524 14
1.09178 -2.92079 0.269747 4
3.03258 -5.13112 0.726526 15
1.07163 -2.86835 0.0528372 8
2.44649 -4.14784 0.250558 4
1.81514 -4.86897 -0.63282 12
1.60062 -2.71916 -0.272471 49
1.37712 -3.69897 -0.759008 4
1.0066 -2.70839 -0.764312 4
2.43139 -6.61851 1.6172 32
2.95966 -5.03214 1.55283 38
2.43489 -6.62449 1.1098 33
3.01713 -5.15008 1.1524 14
3.00066 -5.13836 0.725309 15
1.07002 -2.90893 0.0534916 12
2.42474 -4.1606 0.250558 4
2.39978 -4.12114 -0.0826371 3
1.77937 -4.85045 -0.629169 12
1.58433 -2.72292 -0.272036 41
1.3567 -3.70128 -0.758056 4
2.31991 -3.978 -0.724698 8
0.994535 -2.71798 -0.765605 4
2.41932 -6.61774 1.61608 33
2.94109 -5.02063 1.54766 39
2.41824 -6.61482 1.10746 33
2.99699 -5.13627 1.14812 14
2.98169 -5.12644 0.722875 14
1.08811 -2.97418 0.0546697 11
2.41748 -4.16482 0.250558 4
2.39132 -4.12316 -0.0825935 4
1.57206 -2.71277 -0.270731 15
1.3494 -3.70134 -0.75758 4
2.30799 -3.97351 -0.723132 8
0.986491 -2.71064 -0.763019 4
2.38101 -6.62386 1.61439 33
2.9075 -5.02343 1.54378 39
2.3794 -6.61577 1.10551 33
2.96024 -5.13489 1.1443 14
2.38226 -6.62013 0.612487 36
2.94614 -5.12692 0.720745 14
1.09196 -3.03394 0.0556732 4
2.39812 -4.18175 0.25082 4
1.65667 -4.61516 -0.596919 4
1.55411 -2.71448 -0.270079 15
1.33248 -3.71528 -0.759008 4
2.29524 -3.99798 -0.725481 8
0.975536 -2.72486 -0.765605 4
2.3665 -6.61612 1.61158 33
2.89269 -5.01804 1.54055 38
2.36651 -6.61252 1.10433 33
2.9476 -5.13366 1.14287 15
2.36734 -6.6149 0.611615 36
2.93438 -5.12509 0.719832 15
1.03787 -2.89932 0.0531426 2
2.38659 -4.17685 0.250297 4
1.5787 -4.41474 -0.244698 3
1.64608 -4.60841 -0.595702 9
1.53576 -2.69341 -0.267687 12
1.32599 -3.7176 -0.759008 4
2.28703 -3.99984 -0.72509 8
0.968352 -2.71973 -0.763665 3
2.32779 -6.61693 1.60878 33
2.86126 -5.02213 1.53732 39
2.32693 -6.61085 1.10199 35
2.9143 -5.13572 1.14001 15
2.90139 -5.12959 0.718311 15
1.01323 -2.87625 0.052619 4
2.36961 -4.19798 0.25082 4
1.5506 -4.40882 -0.24391 3
1.66124 -2.94834 -0.0584656 12
1.62275 -4.61931 -0.596007 4
1.53267 -2.72093 -0.269644 26
1.30635 -3.72195 -0.758532 8
2.26849 -4.01606 -0.725873 8
0.956169 -2.72916 -0.764959 4
2.31624 -6.62098 1.60878 33
2.84772 -5.01872 1.53474 39
2.31213 -6.60557 1.10043 35
2.90081 -5.1349 1.13858 15
2.23917 -6.39344 0.589609 17
2.88756 -5.126 0.717094 15
1.00275 -2.86403 0.0523572 8
2.3586 -4.19558 0.250428 4
1.53549 -4.3903 -0.242729 3
1.63034 -2.90549 -0.0575493 12
1.62614 -4.65493 -0.600266 3
1.52792 -2.7236 -0.269644 49
1.29904 -3.72191 -0.758056 4
2.25784 -4.01356 -0.724698 8
0.953306 -2.73783 -0.766899 4
2.27484 -6.61729 1.60485 33
2.81579 -5.02563 1.53215 39
2.27395 -6.61098 1.09926 35
2.87029 -5.14359 1.13715 15
2.2013 -6.39604 0.588737 17
2.85253 -5.12854 0.715269 15
0.986118 -2.86451 0.05227 4
2.33708 -4.21046 0.250558 4
1.5068 -4.38176 -0.24181 4
1.62067 -2.9252 -0.0577675 14
1.68223 -4.90073 -0.630994 27
1.51848 -2.74027 -0.270514 49
1.28127 -3.73585 -0.759484 8
2.2404 -4.0318 -0.725873 8
0.937396 -2.73822 -0.765605 4
2.25972 -6.60702 1.60148 32
2.80348 -5.02421 1.53021 39
2.26196 -6.60987 1.09848 36
2.85295 -5.13358 1.13382 14
2.18772 -6.3928 0.588083 17
2.85652 -5.15471 0.718311 12
0.985159 -2.87805 0.0524881 3
2.33288 -4.2185 0.25082 4
1.49673 -4.37729 -0.241416 8
1.6083 -2.9149 -0.0575057 14
1.68495 -4.9339 -0.634949 17
1.51249 -2.74074 -0.270296 49
1.27317 -3.73343 -0.758532 4
2.22976 -4.02922 -0.724698 8
0.93417 -2.74442 -0.766899 4
2.22354 -6.61415 1.60035 32
2.77101 -5.02565 1.52634 39
2.22418 -6.61226 1.09692 35
2.84586 -5.18236 1.14144 12
2.15136 -6.39199 0.586994 17
2.85693 -5.21964 0.725309 14
0.975358 -2.89722 0.0527499 2
2.30956 -4.22846 0.250689 4
1.47456 -4.38481 -0.241416 8
1.58633 -2.90984 -0.0572439 15
1.66462 -4.95912 -0.637079 17
1.4986 -2.74836 -0.270296 49
1.25425 -3.73983 -0.758532 4
2.20626 -4.03651 -0.723915 8
0.918736 -2.74453 -0.765605 4
2.21083 -6.6107 1.59867 33
2.75525 -5.01779 1.52246 41
2.21029 -6.60911 1.09575 35
2.8486 -5.20884 1.14621 12
2.13467 -6.3792 0.585469 15
2.30696 -4.24126 0.251213 4
1.46848 -4.39211 -0.241678 4
1.58125 -2.91261 -0.0572439 18
1.6591 -4.97143 -0.638296 20
1.49141 -2.74659 -0.269861 50
1.24617 -3.73735 -0.75758 4
2.20631 -4.05336 -0.726264 8
0.914706 -2.74842 -0.766252 4
2.17351 -6.61793 1.59755 32
2.72317 -5.02154 1.51923 39
2.17257 -6.61121 1.09419 36
2.83297 -5.24527 1.15097 11
2.09502 -6.37136 0.583726 15
2.2788 -4.24229 0.250558 4
1.4447 -4.4 -0.241678 3
1.56597 -2.92085 -0.0572439 18
1.62918 -4.96826 -0.636775 24
1.48125 -2.7634 -0.270731 52
1.22735 -3.74616 -0.758056 4
2.18037 -4.05616 -0.724698 8
0.897305 -2.74399 -0.763665 4
1.57655 -2.92843 -0.758623 4
2.15742 -6.60782 1.59418 33
2.70866 -5.01566 1.516 41
2.15796 -6.6056 1.09263 36
2.82988 -5.26366 1.15383 9
2.08313 -6.37264 0.583508 15
2.27139 -4.24626 0.250558 4
1.44321 -4.4215 -0.242729 3
1.56442 -2.93019 -0.0573748 14
1.61513 -4.95458 -0.634645 30
1.47408 -2.76159 -0.270296 53
1.22309 -3.7553 -0.759484 3
0.89576 -2.7572 -0.766899 4
1.5749 -2.93762 -0.760308 4
2.11867 -6.61012 1.59193 33
2.67238 -5.0132 1.51083 41
2.12068 -6.61247 1.09185 36
2.8115 -5.29574 1.15765 8
2.04482 -6.37196 0.582418 15
3.19895 -6.04438 0.834227 3
2.25189 -4.2651 0.250951 3
1.41928 -4.42662 -0.242597 3
1.5427 -2.92756 -0.0571566 11
1.58981 -4.96797 -0.635254 35
1.46192 -2.77367 -0.270731 55
1.20126 -3.75718 -0.758532 8
2.04217 -3.86402 -0.687504 9
0.879846 -2.75725 -0.765605 4
1.5567 -2.94179 -0.759185 4
2.10458 -6.60183 1.58912 35
2.65909 -5.00933 1.50824 39
2.10654 -6.60403 1.0899 36
2.81029 -5.31582 1.16098 8
2.03218 -6.37078 0.581982 15
3.21379 -6.09548 0.840616 4
1.41912 -4.45288 -0.24391 3
1.40948 -2.68696 -0.0523572 9
1.582 -4.97047 -0.635254 41
1.45012 -2.763 -0.269426 53
1.1947 -3.75927 -0.758532 8
2.0239 -3.84574 -0.683589 11
0.877219 -2.76569 -0.767545 4
1.55094 -2.94208 -0.758623 4
2.06781 -6.60579 1.58744 36
2.62808 -5.01203 1.50501 39
2.07046 -6.61026 1.08912 36
2.78449 -5.33215 1.16146 4
1.99693 -6.37147 0.581111 15
3.10611 -5.967 0.820536 4
1.55883 -4.9757 0.0904035 45
1.40551 -4.48859 -0.245485 3
1.5567 -4.98105 -0.635558 44
1.43611 -2.7703 -0.269426 49
1.17639 -3.76762 -0.759008 8
2.0083 -3.86505 -0.685155 8
0.865361 -2.77701 -0.769485 4
1.53777 -2.95448 -0.759746 4
2.05526 -6.60205 1.58575 35
2.61037 -4.99949 1.49984 38
2.05672 -6.60679 1.08795 36
2.79446 -5.374 1.16956 4
1.98062 -6.3583 0.579586 17
2.96647 -5.72356 0.786157 4
1.54866 -4.97363 0.0903162 47
2.59448 -5.01565 0.294128 3
1.40212 -4.50534 -0.246273 3
1.54432 -4.97191 -0.634037 45
1.42669 -2.76396 -0.268557 32
1.17054 -3.77201 -0.759484 8
0.858373 -2.77159 -0.767545 4
1.53261 -2.95716 -0.759746 4
2.01737 -6.60608 1.58407 35
2.58305 -5.01095 1.49919 39
2.01994 -6.61038 1.08677 36
2.78087 -5.41693 1.17576 8
1.94512 -6.36144 0.578932 17
2.86402 -5.59769 0.766685 8
1.52041 -4.9745 0.0901853 45
2.57159 -5.03583 0.294521 4
1.39156 -4.55824 -0.248767 3
1.35426 -2.65922 -0.0514846 9
1.51755 -4.97755 -0.633732 45
1.41399 -2.77607 -0.268991 14
1.15077 -3.77809 -0.759484 8
2.11183 -4.1339 -0.730571 9
0.845252 -2.78067 -0.768838 4
1.51822 -2.96731 -0.760308 4
2.00231 -6.59794 1.58126 33
2.56878 -5.00471 1.49596 39
2.00481 -6.60208 1.08482 36
2.77942 -5.43973 1.17957 9
1.9304 -6.35291 0.577843 17
2.89486 -5.68225 0.777638 11
1.5094 -4.97263 0.090098 47
2.57413 -5.06256 0.295829 4
1.39374 -4.59411 -0.250605 3
1.34508 -2.65267 -0.0513101 11
1.5067 -4.97307 -0.63282 47
1.40575 -2.77188 -0.268339 14
1.14418 -3.78009 -0.759484 8
0.841306 -2.78691 -0.770132 4
1.51303 -2.96995 -0.760308 4
1.9645 -6.60167 1.57958 32
2.53838 -5.01208 1.49403 39
1.96624 -6.60337 1.08326 36
2.77414 -5.50021 1.18958 8
1.89458 -6.35849 0.577407 17
1.4805 -4.97088 0.0899235 45
2.53325 -5.04964 0.294259 4
1.37323 -4.61331 -0.251262 3
1.33071 -2.65991 -0.0513101 11
1.47923 -4.97613 -0.632211 45
1.39233 -2.78142 -0.268557 15
1.12088 -3.77426 -0.757104 8
0.826702 -2.79128 -0.770132 4
1.49527 -2.97349 -0.759185 4
1.95343 -6.60241 1.57901 32
2.52506 -5.00528 1.49079 39
1.95377 -6.59934 1.08209 36
2.78315 -5.53963 1.1972 9
1.88176 -6.35191 0.576535 18
1.47127 -4.96841 0.0898363 45
1.32541 -2.65976 -0.0512664 9
1.46719 -4.96417 -0.630386 47
1.38573 -2.77915 -0.268122 49
1.11706 -3.78563 -0.759008 8
1.46548 -2.93342 -0.514453 8
0.820954 -2.78794 -0.768838 4
1.4895 -2.97366 -0.758623 4
1.91843 -6.60252 1.57677 35
2.49625 -5.00892 1.48821 39
1.91805 -6.59696 1.08014 38
2.77353 -5.58833 1.20483 9
1.84861 -6.35385 0.575882 20
2.97596 -6.01636 0.818711 15
1.44488 -4.96834 0.0897054 47
1.42817 -4.91723 -0.267408 11
1.3135 -2.66845 -0.0513101 9
1.44136 -4.96915 -0.630082 45
1.37606 -2.79506 -0.268991 30
1.09719 -3.78633 -0.758056 4
1.44294 -2.92531 -0.511713 11
0.80732 -2.79192 -0.768838 4
1.90488 -6.59883 1.57508 35
2.48213 -5.00246 1.48498 36
1.90311 -6.58843 1.07819 36
2.86076 -5.7916 1.24772 12
1.85065 -6.40253 0.580021 9
2.95337 -5.99707 0.815364 15
1.43395 -4.9663 0.0896181 47
1.34017 -2.73202 0.157662 18
1.43341 -4.96769 -0.270034 41
1.30553 -2.66401 -0.0511792 9
1.43062 -4.9645 -0.629169 45
1.36898 -2.79299 -0.268557 11
1.09058 -3.78824 -0.758056 4
1.44002 -2.93226 -0.512496 9
0.799297 -2.78418 -0.766252 4
1.86649 -6.59967 1.57284 33
2.44865 -5.0028 1.4811 35
1.86609 -6.59388 1.07741 38
1.84514 -6.51549 0.589391 9
2.91763 -6.00627 0.814451 14
1.40589 -4.96652 0.0894872 47
1.31992 -2.728 0.157008 21
1.40535 -4.96792 -0.26964 53
1.29219 -2.67328 -0.0512228 12
1.40172 -4.96501 -0.628256 45
1.35652 -2.8046 -0.268991 9
1.06807 -3.787 -0.756627 4
1.43277 -2.95777 -0.515628 8
0.786668 -2.7953 -0.768192 4
1.85415 -6.59555 1.57115 32
2.43461 -4.99622 1.47787 33
1.85257 -6.58999 1.07624 38
1.85668 -6.60022 0.596799 36
2.90822 -6.01358 0.814755 14
1.39587 -4.96415 0.0893999 47
1.31298 -2.72581 0.156746 29
1.396 -4.96796 -0.269509 45
1.28643 -2.67328 -0.0511792 23
1.39239 -4.96506 -0.627952 45
1.34945 -2.80248 -0.268557 14
1.0608 -3.78649 -0.756151 4
0.779841 -2.78969 -0.766252 3
1.8165 -6.59844 1.56947 30
2.40632 -5.00455 1.47658 32
1.81673 -6.59484 1.07546 36
3.11251 -6.49877 1.39261 21
1.81945 -6.60025 0.595927 39
2.86706 -6.00858 0.812017 15
1.3672 -4.96175 0.0892254 45
1.29869 -2.73265 0.156746 27
1.36844 -4.97303 -0.269378 45
1.26812 -2.67096 -0.0510047 11
1.36506 -4.96749 -0.627343 45
1.33641 -2.81424 -0.268991 15
1.0442 -3.80383 -0.758532 4
1.80305 -6.59455 1.56778 35
2.39341 -5.00003 1.47399 27
1.80262 -6.58847 1.0739 36
3.16452 -6.63983 1.42168 32
1.80727 -6.60101 0.59571 38
2.8555 -6.01133 0.811713 15
1.35635 -4.95955 0.0891382 45
1.29713 -2.74167 0.157139 15
1.35778 -4.96819 -0.268984 45
1.26024 -2.66639 -0.0508738 9
1.35377 -4.96029 -0.626126 45
1.33684 -2.82781 -0.270079 9
1.03627 -3.80091 -0.75758 4
1.76735 -6.60421 1.56778 35
2.36115 -5.00199 1.47076 24
1.76567 -6.59336 1.07312 38
3.1318 -6.66075 1.42263 33
1.76831 -6.59866 0.59462 38
1.32972 -4.96417 0.0890945 45
1.28228 -2.74865 0.157139 11
1.33111 -4.97282 -0.268852 45
1.25003 -2.68223 -0.0510483 9
1.32692 -4.96754 -0.626126 45
1.32413 -2.83929 -0.270514 11
1.01569 -3.80646 -0.75758 8
1.28625 -2.74732 -0.69124 8
1.75384 -6.59521 1.56498 35
2.34727 -4.99518 1.46753 18
1.75035 -6.58211 1.07078 33
3.11392 -6.65288 1.41977 32
1.75551 -6.59693 0.594184 38
1.31977 -4.96165 0.0890073 47
1.31986 -4.96548 -0.268327 45
1.24113 -2.67534 -0.0508738 9
1.31443 -4.95546 -0.624301 45
1.32548 -2.85514 -0.271818 14
1.00779 -3.80348 -0.756627 8
1.26906 -2.72308 -0.684502 8
1.7163 -6.59753 1.56329 33
2.31905 -5.00302 1.46624 15
1.71524 -6.5888 1.07039 36
3.07081 -6.65127 1.41596 29
1.29 -4.95398 0.0887455 47
1.29385 -4.97232 -0.268327 45
1.23128 -2.69089 -0.0510483 9
1.28784 -4.95987 -0.623997 39
1.31363 -2.86883 -0.272471 14
1.35141 -2.94699 -0.508581 3
1.2507 -2.72084 -0.682256 11
2.30119 -4.98733 1.46042 15
3.0479 -6.6321 1.41072 27
1.28323 -4.96348 0.0888764 36
1.27955 -4.95282 -0.267146 8
1.22554 -2.69076 -0.0510047 12
1.27176 -4.93328 -0.620346 2
1.30655 -2.86659 -0.272036 12
1.2551 -2.74294 -0.687309 3
2.27304 -4.99492 1.45913 14
1.24681 -4.92532 0.441444 2
1.24375 -4.91682 0.0879165 2
1.24138 -4.91104 -0.26452 2
1.21246 -2.69942 -0.0510483 23
1.24288 -4.92784 -0.618825 3
1.29153 -2.87339 -0.272036 9
1.22362 -4.87284 1.15001 1
2.25833 -4.98568 1.45525 11
1.23176 -4.90534 0.793716 2
1.23276 -4.90575 0.439483 2
1.23395 -4.91413 0.0878292 2
1.20467 -2.69469 -0.0509174 12
1.23488 -4.93241 -0.619129 2
1.28855 -2.88018 -0.272471 9
1.20709 -4.91962 1.15955 2
2.22627 -4.98421 1.45138 1
1.21194 -4.9357 0.797618 2
2.20743 -4.9652 1.04851 1
1.24213 -2.80958 0.37239 3
1.26489 -2.8662 0.162372 14
1.18954 -2.69868 -0.0508738 9
1.27749 -2.896 -0.273341 9
1.88879 -4.27017 -0.734878 8
2.21266 -4.97706 1.44814 1
2.19478 -4.96007 1.0466 2
1.24023 -2.81855 0.373303 9
1.25082 -2.84785 0.161195 15
1.1818 -2.69389 -0.0507429 9
1.26037 -2.87088 -0.270731 9
1.88034 -4.2712 -0.734486 9
2.17987 -4.9757 1.44427 3
1.22595 -2.8275 0.373607 9
1.22843 -2.83855 0.160279 14
1.17119 -2.70941 -0.0509174 9
1.25375 -2.89821 -0.272688 8
1.8609 -4.28778 -0.735661 4
2.16635 -4.96843 1.44104 3
1.21756 -2.82031 0.37239 8
1.22794 -2.84964 0.160802 12
1.16349 -2.70457 -0.0507865 9
1.22201 -2.83867 -0.266817 4
1.85047 -4.28422 -0.734486 8
2.13543 -4.96602 1.43716 3
1.19595 -2.81068 0.37026 9
1.21398 -2.85832 0.160933 12
1.15468 -2.72192 -0.0510047 9
1.18956 -2.80379 -0.262903 3
1.83092 -4.30067 -0.735661 8
1.30177 -3.05255 -0.756939 8
2.12391 -4.96308 1.43522 2
1.19202 -2.81504 0.370565 9
1.20118 -2.84205 0.159886 12
1.14993 -2.72393 -0.0510047 14
1.18758 -2.81274 -0.263555 3
1.82824 -4.31522 -0.737618 4
1.29931 -3.06154 -0.758623 8
2.0895 -4.95671 1.43005 2
2.7852 -6.63498 1.3907 44
1.17581 -2.81916 0.37026 8
1.18386 -2.8439 0.159625 11
1.1371 -2.73473 -0.0510919 20
1.16611 -2.80283 -0.262033 3
1.80658 -4.32701 -0.73801 4
1.28273 -3.06853 -0.758623 8
2.07804 -4.95367 1.42811 2
2.76699 -6.62399 1.38737 44
1.16851 -2.81414 0.369348 11
1.17939 -2.84576 0.159625 11
1.12945 -2.72978 -0.050961 11
1.16122 -2.80487 -0.262033 3
1.80092 -4.33471 -0.738793 4
1.27603 -3.06604 -0.7575 4
2.04739 -4.95074 1.42423 2
2.73155 -6.63337 1.38641 38
1.15565 -2.82481 0.369956 8
1.16637 -2.85652 0.159886 15
1.1232 -2.75397 -0.0513101 9
0.489852 -2.27058 -0.28051 8
1.14463 -2.8063 -0.261598 3
0.488441 -2.26784 -0.44331 3
1.78008 -4.34865 -0.739576 4
1.26274 -3.07944 -0.759185 8
2.03875 -4.9543 1.42423 2
2.71602 -6.63179 1.38498 30
0.482835 -2.24753 0.198061 8
1.14696 -2.81763 0.368739 8
0.482218 -2.24848 0.0395297 8
1.16327 -2.86317 0.160148 26
1.11367 -2.74435 -0.0510919 9
0.485889 -2.27143 -0.28051 11
0.482949 -2.26149 -0.441882 9
1.77622 -4.3609 -0.741142 4
1.25736 -3.08164 -0.759185 4
2.00555 -4.9496 1.41971 2
0.471406 -2.25556 0.358616 8
2.67942 -6.64137 1.38403 30
0.472193 -2.25742 0.198715 8
1.13448 -2.8307 0.369652 8
0.470948 -2.25342 0.0395733 12
1.14963 -2.87406 0.16041 29
1.10719 -2.77121 -0.0514846 9
0.471574 -2.26431 -0.279293 8
0.4722 -2.27128 -0.44331 4
1.75428 -4.37243 -0.741533 4
1.23976 -3.08614 -0.758623 4
1.99691 -4.95309 1.41971 2
0.467862 -2.25629 0.358616 9
2.66416 -6.63693 1.38212 30
0.466235 -2.24849 0.197844 9
1.12726 -2.82557 0.368739 8
0.466003 -2.24934 0.0394861 8
1.14511 -2.87586 0.16041 24
1.10235 -2.77314 -0.0514846 9
0.467516 -2.26262 -0.278988 8
0.46626 -2.26248 -0.441406 4
1.7494 -4.38236 -0.742708 8
1.23219 -3.0813 -0.756939 8
1.96824 -4.95416 1.41713 3
0.454093 -2.24903 0.357055 8
2.62511 -6.63664 1.37926 30
0.454849 -2.25082 0.197844 9
1.11519 -2.83836 0.369652 8
0.454613 -2.25167 0.0394861 8
1.13187 -2.88646 0.160671 23
0.454263 -2.254 -0.119067 8
1.09562 -2.79729 -0.0518336 8
0.454687 -2.26017 -0.27838 4
0.455284 -2.26722 -0.441882 3
1.72462 -4.38686 -0.741925 8
1.21066 -3.07412 -0.75357 11
1.95514 -4.94636 1.4139 3
0.451133 -2.25466 0.357836 8
2.60786 -6.63025 1.37688 32
0.449457 -2.24428 0.19719 9
1.12111 -2.86802 0.373303 8
0.448823 -2.24519 0.0393552 9
1.12865 -2.89308 0.160933 20
0.449353 -2.2499 -0.118804 8
1.09165 -2.80153 -0.0518773 8
0.451709 -2.26583 -0.278988 4
0.450371 -2.2632 -0.44093 3
1.71876 -4.39447 -0.742708 8
1.20529 -3.07622 -0.75357 9
1.92835 -4.95687 1.4139 2
0.437518 -2.2498 0.356665 4
2.56956 -6.63466 1.37497 32
0.437782 -2.24912 0.197408 8
1.10826 -2.88098 0.374216 8
0.437537 -2.24996 0.0393988 4
1.11388 -2.90147 0.161064 15
0.438041 -2.25467 -0.118936 4
1.07648 -2.80739 -0.0518773 11
0.43709 -2.25606 -0.277467 4
0.436726 -2.25837 -0.439501 4
1.69395 -4.3988 -0.741925 8
1.18423 -3.07134 -0.750762 11
1.91707 -4.95347 1.41196 2
0.433517 -2.24806 0.356275 4
2.55179 -6.62311 1.37164 32
0.432916 -2.24499 0.196972 4
0.432667 -2.24581 0.0393115 8
1.11737 -2.9242 0.162241 12
0.432224 -2.24562 -0.118411 8
1.07247 -2.8116 -0.0519209 14
0.433079 -2.2543 -0.277163 4
0.433704 -2.26395 -0.440453 4
1.67299 -4.36718 -0.736052 9
1.17415 -3.05956 -0.747393 9
1.88939 -4.95634 1.41002 2
0.421287 -2.24787 0.355884 4
2.51649 -6.63136 1.37068 32
0.422005 -2.2496 0.19719 8
0.419917 -2.2406 0.0391806 9
0.420918 -2.25031 -0.118542 4
1.05646 -2.81232 -0.0518336 12
0.42127 -2.25654 -0.277163 8
0.420896 -2.25888 -0.439025 4
1.66145 -4.4059 -0.741142 9
0.422847 -2.27815 -0.611062 4
1.1633 -3.07933 -0.750762 3
1.8773 -4.9506 1.40743 2
0.418261 -2.25346 0.356665 3
2.49941 -6.6247 1.3683 32
0.415811 -2.23809 0.1961 8
2.48658 -6.61508 0.862217 33
0.417432 -2.25124 0.0393552 12
0.41563 -2.24368 -0.118148 8
1.05067 -2.81182 -0.05179 9
0.416881 -2.25483 -0.276859 4
1.86541 -4.98175 -0.461439 53
0.41784 -2.26444 -0.439977 4
1.62681 -4.33715 -0.729005 3
0.418038 -2.27658 -0.610415 4
1.1605 -3.08819 -0.752447 4
1.84964 -4.95843 1.40679 2
0.405627 -2.25326 0.356275 3
2.46212 -6.63079 1.36687 32
0.403696 -2.24031 0.1961 11
2.44559 -6.61447 0.860391 33
0.404315 -2.24601 0.0392243 14
0.404757 -2.25074 -0.118411 8
1.04064 -2.83153 -0.0520518 9
0.405548 -2.26194 -0.277467 8
1.83672 -4.98444 -0.460786 44
0.406013 -2.26908 -0.440453 4
1.60665 -4.35256 -0.730179 9
0.406112 -2.27874 -0.610415 3
1.15056 -3.1127 -0.756939 4
1.83846 -4.95486 1.40485 3
0.400358 -2.24417 0.354714 4
2.44714 -6.62587 1.36497 32
0.398041 -2.2312 0.195229 11
2.43176 -6.60899 0.859174 33
0.401705 -2.2541 0.0393552 12
0.397339 -2.23177 -0.11736 11
1.03742 -2.83804 -0.0521391 2
0.401129 -2.25769 -0.276859 9
1.82372 -4.97595 -0.459699 45
0.400773 -2.26254 -0.439025 4
1.60331 -4.36694 -0.732137 11
0.401716 -2.27706 -0.609768 4
1.14651 -3.11679 -0.7575 4
1.80754 -4.94823 1.40033 3
0.389441 -2.2511 0.355494 8
2.41021 -6.62895 1.36306 32
0.38632 -2.23073 0.195011 11
2.39627 -6.6193 0.85887 35
0.388168 -2.24378 0.039137 12
0.388611 -2.25105 -0.118279 12
1.02899 -2.8597 -0.0524445 2
0.390562 -2.26709 -0.277771 9
0.391802 -2.27905 -0.441882 8
1.59641 -4.41938 -0.739576 12
0.39181 -2.28859 -0.612355 4
1.13434 -3.13419 -0.760308 8
1.7989 -4.95137 1.40033 3
0.385512 -2.25177 0.355494 9
2.39414 -6.62434 1.36115 32
0.383683 -2.23877 0.195665 11
2.38051 -6.61181 0.857349 35
0.385539 -2.25438 0.0393115 12
0.386776 -2.26403 -0.118936 12
1.02907 -2.87561 -0.0527063 2
0.386605 -2.26777 -0.277771 9
0.388234 -2.28215 -0.442358 8
1.59037 -4.42681 -0.740359 12
0.387416 -2.28934 -0.612355 4
1.12638 -3.1293 -0.758623 8
1.76964 -4.95421 1.39839 3
0.372519 -2.24896 0.354714 8
2.3586 -6.63447 1.36068 32
0.371971 -2.24327 0.195883 4
2.34221 -6.61757 0.856436 35
0.374137 -2.25883 0.0393552 4
1.75627 -4.97665 0.274764 4
0.375729 -2.27095 -0.119198 12
1.021 -2.90234 -0.0530989 3
0.374732 -2.27228 -0.278076 4
1.68472 -4.77715 -0.439258 12
0.377866 -2.29633 -0.444739 4
1.57377 -4.45369 -0.743491 12
0.375813 -2.29372 -0.613002 4
1.1078 -3.13075 -0.7575 4
1.7618 -4.95957 1.39903 3
0.371375 -2.26416 0.357055 8
2.34046 -6.62007 1.35686 32
0.370063 -2.25621 0.196972 4
2.32933 -6.61422 0.855524 33
0.369791 -2.25702 0.0393115 11
1.74597 -4.97234 0.274371 8
0.37297 -2.27899 -0.119592 9
1.02339 -2.92534 -0.0534916 3
0.372357 -2.28021 -0.278988 4
1.74663 -4.97978 -0.457742 45
0.373464 -2.29456 -0.444263 4
1.57585 -4.48437 -0.748189 9
0.371809 -2.29437 -0.613002 4
1.10451 -3.13708 -0.758623 4
1.73428 -4.96159 1.39709 3
0.3599 -2.26851 0.357445 4
2.30369 -6.62256 1.35496 33
0.359028 -2.26051 0.19719 9
2.28816 -6.60757 0.85309 33
0.360314 -2.2712 0.0395297 9
1.72317 -4.99085 0.274895 9
0.362208 -2.28578 -0.119855 8
1.01919 -2.9612 -0.0540588 3
0.361184 -2.28703 -0.279597 3
1.71814 -4.97914 -0.456872 45
0.362987 -2.30369 -0.445691 4
1.55154 -4.49023 -0.747798 8
0.360564 -2.29861 -0.613648 4
1.08807 -3.14282 -0.758623 4
1.72085 -4.95092 1.39322 3
0.357084 -2.27646 0.358616 8
2.28891 -6.6173 1.35305 33
0.357006 -2.27344 0.198279 8
2.27501 -6.60687 0.852481 33
0.354034 -2.25701 0.0392679 8
1.71121 -4.98441 0.274371 9
0.355909 -2.27161 -0.119067 4
0.356429 -2.28275 -0.278988 3
1.70783 -4.97742 -0.456437 45
0.357085 -2.2922 -0.44331 4
1.54209 -4.48826 -0.747015 8
0.357657 -2.3064 -0.615588 4
1.08497 -3.15162 -0.760308 8
1.69795 -4.97158 1.39645 4
0.34329 -2.26859 0.357055 4
2.24912 -6.61797 1.35067 33
0.344701 -2.27533 0.198279 8
2.23604 -6.60968 0.851264 33
0.34368 -2.27125 0.0394861 8
1.68262 -4.98886 0.27411 9
0.343613 -2.2735 -0.119067 8
0.344073 -2.28465 -0.278988 3
1.67768 -4.97715 -0.455568 45
0.343951 -2.28924 -0.442358 8
1.5146 -4.48458 -0.745057 8
0.344106 -2.30113 -0.613648 4
1.06712 -3.15514 -0.759746 4
1.68304 -4.95625 1.39128 4
0.341183 -2.27889 0.358616 3
2.23363 -6.61026 1.34828 33
0.339627 -2.26854 0.197626 4
2.22486 -6.61083 0.85096 33
0.33861 -2.26443 0.0393552 9
1.67398 -4.98913 0.273979 9
0.33891 -2.26916 -0.118804 8
0.340484 -2.28519 -0.278988 3
1.66661 -4.97299 -0.454915 45
0.339955 -2.28984 -0.442358 4
1.50993 -4.49658 -0.746623 9
0.34009 -2.30173 -0.613648 8
1.06216 -3.15682 -0.759746 4
1.65257 -4.94868 1.38676 4
0.327489 -2.26843 0.356665 3
2.19937 -6.61915 1.34781 35
0.327076 -2.26284 0.196972 4
2.18631 -6.61061 0.849439 33
0.327145 -2.26612 0.0393552 9
1.64392 -4.98598 0.273325 9
0.328087 -2.27832 -0.119198 9
1.63555 -4.96649 -0.0906652 45
0.328163 -2.28448 -0.278684 4
1.63977 -4.97929 -0.454698 45
0.327321 -2.28424 -0.44093 8
1.48481 -4.49974 -0.74584 8
0.327417 -2.29625 -0.611708 8
1.04639 -3.16464 -0.760308 8
1.64927 -4.96759 1.39128 4
2.18203 -6.60938 1.34495 35
0.324178 -2.2708 0.197626 4
2.17244 -6.60735 0.848526 33
0.322443 -2.26427 0.0393115 9
1.63443 -4.98647 0.273194 9
0.32341 -2.27394 -0.118936 9
1.62376 -4.95983 -0.0904907 44
0.323481 -2.28014 -0.278076 4
1.62564 -4.96558 -0.453176 45
0.322649 -2.27995 -0.439977 8
1.47773 -4.50467 -0.746232 8
0.323343 -2.29926 -0.612355 4
1.04163 -3.16878 -0.760869 8
1.64414 -5.04301 1.41002 8
2.14512 -6.61372 1.34352 35
0.31155 -2.27005 0.197408 8
2.13437 -6.61192 0.847613 33
0.310583 -2.26592 0.0393115 9
1.60666 -4.99286 0.273063 9
0.312174 -2.28055 -0.119198 9
1.59614 -4.96617 -0.0904471 44
0.311474 -2.28431 -0.27838 4
1.59656 -4.96454 -0.452306 45
0.311955 -2.29382 -0.442358 4
1.45108 -4.50294 -0.744666 8
0.310977 -2.29853 -0.611708 3
1.02672 -3.18132 -0.762554 8
1.65251 -5.0987 1.42488 9
2.13281 -6.61512 1.34304 35
0.306589 -2.26319 0.196754 8
2.11866 -6.59873 0.845484 33
0.306627 -2.26646 0.0393115 8
1.59958 -4.99776 0.273194 9
0.306862 -2.2712 -0.118673 8
1.58518 -4.9618 -0.0903162 45
0.307225 -2.27988 -0.277771 4
1.58713 -4.96495 -0.452088 45
0.307301 -2.2895 -0.441406 9
1.44473 -4.51017 -0.745449 8
0.307919 -2.30625 -0.613648 4
1.02097 -3.18061 -0.761993 4
2.09559 -6.61413 1.34066 35
0.29513 -2.26471 0.196754 8
2.08109 -6.60027 0.844267 35
0.295152 -2.26799 0.0393115 9
1.56964 -4.99416 0.272539 8
0.296565 -2.28515 -0.11933 9
1.55704 -4.96023 -0.0901417 44
0.296552 -2.2913 -0.278988 3
1.56036 -4.97081 -0.451871 45
0.296022 -2.29346 -0.441882 3
1.42333 -4.52474 -0.746623 4
0.29563 -2.30299 -0.612355 8
1.00357 -3.18359 -0.761431 4
2.08141 -6.61346 1.33971 33
0.290545 -2.26028 0.196318 11
2.06585 -6.59206 0.842745 33
0.291746 -2.27599 0.0394424 9
1.56017 -4.99451 0.272409 9
0.29226 -2.28319 -0.119198 9
1.54838 -4.96294 -0.0901417 44
0.291927 -2.28689 -0.27838 3
1.54871 -4.96402 -0.451001 45
0.293252 -2.30371 -0.443787 4
1.41617 -4.52957 -0.747015 4
0.290907 -2.30116 -0.611708 70
0.99655 -3.18069 -0.760308 4
2.04782 -6.58721 1.83651 1
2.0424 -6.6102 1.33685 33
0.279219 -2.26924 0.196972 8
2.02796 -6.59602 0.841833 33
0.279825 -2.27748 0.0394424 9
1.53313 -5.00288 0.272409 11
0.280907 -2.28965 -0.119461 3
1.51857 -4.96168 -0.0899671 45
0.280747 -2.29829 -0.279597 50
1.52196 -4.96968 -0.450784 47
0.279898 -2.29795 -0.442358 58
1.3917 -4.53456 -0.746623 4
0.278565 -2.30025 -0.611062 58
0.980764 -3.19069 -0.761431 4
2.02489 -6.55386 1.82617 1
2.02797 -6.60438 1.33494 33
0.27496 -2.26725 0.196754 8
2.01614 -6.59446 0.841224 36
0.276149 -2.28045 0.0394861 44
1.52089 -4.99096 0.271624 9
0.277805 -2.29757 -0.119855 53
1.50845 -4.95955 -0.0898799 44
0.276545 -2.2938 -0.278988 52
1.51038 -4.9628 -0.449914 47
0.275887 -2.29844 -0.442358 50
1.38523 -4.54171 -0.747406 8
0.274835 -2.30313 -0.611708 59
0.975751 -3.19223 -0.761431 4
1.98115 -6.52937 1.81648 1
1.99381 -6.61221 1.33446 33
0.263767 -2.27109 0.196972 8
1.97873 -6.59542 0.840007 35
0.265749 -2.29175 0.0396606 53
1.49258 -4.99168 0.271231 11
0.2652 -2.29403 -0.119592 53
1.47902 -4.95275 -0.0896181 44
0.264814 -2.29769 -0.279293 52
1.48366 -4.96826 -0.449696 45
0.263971 -2.29737 -0.441882 52
1.36499 -4.56072 -0.749364 8
0.262357 -2.2973 -0.609768 61
0.959727 -3.19963 -0.761993 8
1.98023 -6.56749 1.82617 1
1.97758 -6.60427 1.33208 33
0.258958 -2.26412 0.196318 8
1.9665 -6.59648 0.839703 35
0.260503 -2.28481 0.0395297 56
1.47745 -4.97274 0.270054 9
0.261758 -2.29945 -0.119855 53
1.46895 -4.95053 -0.0895308 42
0.260525 -2.29568 -0.278988 53
1.47356 -4.96607 -0.449261 47
0.259687 -2.29538 -0.441406 52
1.35844 -4.56783 -0.750147 4
0.258214 -2.3002 -0.610415 59
0.952043 -3.19429 -0.760308 4
1.94193 -6.56885 1.82359 1
1.9402 -6.60512 1.33017 33
0.2459 -2.25806 0.195665 9
1.92799 -6.5975 0.838486 36
0.249074 -2.29111 0.039617 55
1.44842 -4.97347 0.269661 9
0.249447 -2.29831 -0.119723 53
1.43724 -4.94161 -0.0892254 9
0.24757 -2.29212 -0.27838 50
1.44545 -4.96654 -0.448609 47
0.246741 -2.29188 -0.440453 50
1.33936 -4.59147 -0.752887 4
0.245656 -2.29671 -0.609122 59
0.937493 -3.20875 -0.762554 4
1.93387 -6.58381 1.82682 1
1.92453 -6.59436 1.32731 35
0.242222 -2.26096 0.195883 9
1.91485 -6.59099 0.837269 36
0.244546 -2.28657 0.0395297 53
1.43643 -4.96136 0.268876 8
0.245435 -2.29874 -0.119723 55
1.42931 -4.94651 -0.089269 21
0.24397 -2.29251 -0.27838 53
1.43539 -4.96427 -0.448174 47
0.243255 -2.29718 -0.441406 52
1.33341 -4.60091 -0.754062 4
0.242149 -2.30194 -0.610415 59
0.932452 -3.21022 -0.762554 4
0.571163 -5.63841 1.29825 11
1.90387 -6.60512 1.83005 1
0.571667 -5.63369 0.889321 12
1.88978 -6.5993 1.32636 33
0.229771 -2.25225 0.195011 9
1.87895 -6.59616 0.836661 35
0.233221 -2.29026 0.0395733 53
1.40974 -4.96641 0.268745 4
0.233646 -2.30248 -0.119855 53
1.40494 -4.95609 -0.0893127 45
0.231963 -2.29375 -0.27838 52
1.40733 -4.96453 -0.447522 47
0.23138 -2.29594 -0.44093 50
1.31066 -4.61258 -0.754845 4
0.229539 -2.29353 -0.607829 59
0.916301 -3.2174 -0.763116 4
0.562766 -5.65394 1.30162 11
1.88301 -6.57593 1.821 1
0.564033 -5.65679 0.892833 12
1.87374 -6.59111 1.32398 35
0.226086 -2.25512 0.195229 9
1.86608 -6.59465 0.836052 35
0.228824 -2.29071 0.0395733 56
0.229627 -2.30288 -0.119855 56
1.39493 -4.95372 -0.0892254 45
0.227959 -2.29415 -0.27838 53
1.39731 -4.96219 -0.447087 47
0.227132 -2.2939 -0.440453 52
1.29924 -4.60298 -0.752887 4
0.225838 -2.30117 -0.609768 59
0.907351 -3.20728 -0.760308 4
1.83825 -6.55348 1.81196 1
1.83987 -6.6032 1.32446 36
0.212714 -2.24392 0.194139 9
1.82904 -6.59987 0.835444 35
0.216359 -2.2869 0.0394861 56
0.216633 -2.29411 -0.11933 56
1.36811 -4.9612 -0.0892254 45
0.214852 -2.28794 -0.277467 53
1.37131 -4.96944 -0.447087 47
0.214263 -2.29021 -0.439501 52
1.27776 -4.61924 -0.754454 4
0.212677 -2.2903 -0.606535 59
0.891947 -3.21918 -0.761993 4
1.82681 -6.55668 1.81196 1
1.82571 -6.59694 1.32255 35
0.208797 -2.24428 0.194139 11
1.81537 -6.59077 0.833923 35
0.213056 -2.29474 0.039617 58
0.213316 -2.30194 -0.119723 56
1.35613 -4.95152 -0.0890073 45
0.211938 -2.29569 -0.27838 55
1.35933 -4.95982 -0.446 47
0.210489 -2.29302 -0.439977 52
1.26642 -4.60956 -0.752496 4
0.20955 -2.30029 -0.609122 59
0.885588 -3.21588 -0.760869 4
1.8019 -6.59612 1.82036 1
1.79037 -6.59899 1.32112 36
0.198085 -2.25276 0.194793 11
1.77889 -6.593 0.83301 33
0.201222 -2.2933 0.0395733 58
0.201044 -2.30054 -0.119592 56
1.32975 -4.9535 -0.08892 45
0.199701 -2.29429 -0.278076 55
1.33205 -4.96206 -0.445565 47
0.19888 -2.29406 -0.439977 52
1.24162 -4.61374 -0.752104 8
0.197494 -2.29651 -0.607829 59
0.871927 -3.23223 -0.763677 4
1.78087 -6.5643 1.81067 1
1.77577 -6.59531 1.31969 35
0.193941 -2.25062 0.194575 11
1.76352 -6.58172 0.831184 32
0.197031 -2.29617 0.039617 58
0.196605 -2.29592 -0.11933 58
1.31981 -4.95098 -0.0888327 45
0.195696 -2.29464 -0.278076 55
1.32017 -4.95234 -0.444477 45
0.19467 -2.29196 -0.439501 52
1.2342 -4.61829 -0.752496 4
0.193285 -2.29929 -0.608475 59
1.75216 -6.59951 1.81777 12
1.73808 -6.59265 1.31731 35
0.182159 -2.2566 0.195011 11
1.72662 -6.58637 0.830576 29
0.185005 -2.29717 0.039617 59
1.29316 -4.9516 0.26639 8
0.184581 -2.29691 -0.11933 58
1.29237 -4.95563 -0.0887891 44
0.18269 -2.28824 -0.277163 55
1.29485 -4.9616 -0.444695 42
0.182459 -2.29542 -0.439977 53
1.20687 -4.61275 -0.750538 4
0.181055 -2.29786 -0.607829 59
0.366391 -4.66872 1.07139 1
1.72089 -6.52784 1.7971 1
1.66239 -6.35119 1.26822 1
0.17822 -2.25691 0.195011 11
0.180606 -2.2925 0.0395297 61
1.28349 -4.94638 0.265997 4
0.180572 -2.29723 -0.11933 59
1.27806 -4.93611 -0.0883964 9
0.17948 -2.29348 -0.277771 55
1.27741 -4.93011 -0.44165 2
0.177886 -2.2884 -0.438549 52
1.1957 -4.6029 -0.748581 4
0.176861 -2.29577 -0.607182 61
0.340523 -4.65113 1.0669 1
0.166613 -2.2553 0.194793 11
0.169183 -2.29588 0.0395733 65
1.24709 -4.9119 0.263773 1
0.168761 -2.29563 -0.119198 61
1.2469 -4.91829 -0.0879601 2
0.16729 -2.29191 -0.277467 56
1.24752 -4.9172 -0.439911 2
0.166654 -2.29417 -0.439501 52
1.17158 -4.6091 -0.748581 4
0.16541 -2.29904 -0.607829 59
0.161966 -2.24565 0.193922 11
0.165175 -2.29617 0.0395733 68
1.23852 -4.91407 0.263773 2
0.164931 -2.29841 -0.11933 61
0.163289 -2.2922 -0.277467 55
1.23894 -4.91937 -0.439911 2
0.162306 -2.28956 -0.438549 52
1.16111 -4.60156 -0.747015 4
0.160895 -2.2921 -0.605889 61
1.22947 -4.9112 1.3454 1
1.21809 -4.90185 0.974158 2
0.150306 -2.25395 0.194575 11
0.152585 -2.29454 0.0395297 70
0.152821 -2.30425 -0.119592 64
0.150885 -2.29305 -0.277467 56
0.149916 -2.2904 -0.438549 52
1.1376 -4.60997 -0.747406 3
0.148491 -2.29294 -0.605889 59
0.36869 -5.72605 1.31454 3
1.2209 -4.91334 1.3454 1
1.21425 -4.92303 0.977971 2
0.146531 -2.2567 0.194793 11
0.14826 -2.28981 0.0394424 73
0.147843 -2.28956 -0.118804 64
0.147283 -2.29328 -0.277467 55
0.145918 -2.29066 -0.438549 52
0.144489 -2.29319 -0.605889 61
0.336841 -5.69629 1.30724 1
1.19544 -4.91711 1.34475 2
0.135107 -2.25741 0.194793 12
0.136816 -2.29303 0.0394861 79
0.135999 -2.2928 -0.118936 64
0.135129 -2.29154 -0.277163 56
0.13418 -2.28892 -0.438073 52
0.132604 -2.28907 -0.604595 61
0.326899 -5.69687 1.30724 1
0.131167 -2.25764 0.194793 12
0.132413 -2.29329 0.0394861 80
0.131855 -2.29054 -0.118804 64
0.131269 -2.29425 -0.277467 56
0.130323 -2.2916 -0.438549 52
0.128209 -2.28932 -0.604595 61
0.297833 -5.73262 1.3151 1
0.118691 -2.25334 0.194357 12
0.120145 -2.28896 0.0393988 80
0.119602 -2.28621 -0.118542 65
0.118854 -2.29493 -0.277467 58
0.117797 -2.28982 -0.438073 52
0.11622 -2.28996 -0.604595 61
0.288949 -5.73551 1.31566 3
0.290501 -5.74665 0.903759 12
0.114633 -2.25106 0.194139 12
0.11615 -2.28916 0.0393988 85
0.115612 -2.28642 -0.118542 64
0.115126 -2.29264 -0.277163 58
0.113801 -2.29002 -0.438073 52
0.112223 -2.29016 -0.604595 59
0.263854 -5.82456 0.915856 20
0.103013 -2.24664 0.193704 12
0.104787 -2.29472 0.0394861 89
0.103639 -2.28699 -0.118542 67
0.103011 -2.29073 -0.276859 58
0.102209 -2.29057 -0.438073 52
0.10063 -2.2907 -0.604595 61
0.24375 -5.59558 0.879565 27
0.0996328 -2.25925 0.194793 14
0.100273 -2.29242 0.0394424 90
0.0997542 -2.28966 -0.118673 73
0.0991181 -2.29338 -0.277163 58
0.500835 -2.26628 -0.199623 8
0.098107 -2.28829 -0.437596 52
0.0960326 -2.28606 -0.603302 64
0.21152 -5.57068 1.27691 26
0.21235 -5.5672 0.874883 29
0.087313 -2.25727 0.194575 14
0.487025 -2.25058 0.278076 9
0.0882689 -2.29291 0.0394424 86
0.486294 -2.25469 0.119064 8
0.0878583 -2.29265 -0.118804 77
0.485571 -2.25513 -0.0396606 9
0.0865238 -2.28893 -0.276554 58
0.486313 -2.2567 -0.198536 8
0.0858151 -2.29124 -0.438073 52
0.488436 -2.25901 -0.360979 8
0.084236 -2.29136 -0.604595 61
0.203209 -5.58317 1.27972 20
0.204949 -5.60455 0.880736 18
0.0836443 -2.26488 0.195229 14
0.482963 -2.24891 0.277771 8
0.0841766 -2.29056 0.0393988 90
0.481697 -2.25057 0.118803 9
0.083767 -2.2903 -0.118673 79
0.479527 -2.2462 -0.0394861 11
0.0829283 -2.28906 -0.276554 58
0.480272 -2.24781 -0.197666 11
0.0817299 -2.28893 -0.437596 52
0.481357 -2.24538 -0.35863 9
0.0800706 -2.28668 -0.603302 61
0.177672 -5.67218 0.891272 26
0.0721797 -2.26528 0.195229 14
0.469641 -2.24413 0.276859 9
0.072582 -2.29096 0.0393988 90
0.468362 -2.24574 0.11841 11
0.0718506 -2.29321 -0.118804 83
0.467122 -2.2437 -0.0393988 9
0.0710171 -2.29194 -0.276859 58
0.468496 -2.25029 -0.197666 8
0.0700699 -2.28687 -0.43712 52
0.469594 -2.24787 -0.35863 3
0.0684958 -2.28705 -0.603302 61
0.168641 -5.7021 0.895955 35
0.068079 -2.26042 0.194793 14
0.467251 -2.25223 0.277771 9
0.0681107 -2.2886 0.0393552 90
0.463931 -2.24411 0.118279 8
0.0678481 -2.29333 -0.118804 85
0.462185 -2.23962 -0.0393115 9
0.0670168 -2.29206 -0.276859 59
0.463042 -2.24379 -0.197014 9
0.0661479 -2.28944 -0.437596 52
0.464658 -2.24385 -0.357847 3
0.0640386 -2.28477 -0.602656 62
0.136785 -5.70217 1.30667 23
0.137433 -5.68812 0.893613 32
0.056088 -2.27072 0.195665 14
0.45357 -2.24743 0.276859 9
0.0562463 -2.29392 0.0394424 90
0.451783 -2.24658 0.118279 8
0.0558393 -2.29365 -0.118804 90
0.450061 -2.24209 -0.0393115 9
0.0546146 -2.29239 -0.276859 58
0.451288 -2.24618 -0.197014 9
0.0535916 -2.2824 -0.436168 52
0.453889 -2.25109 -0.35863 3
0.0520748 -2.28507 -0.602656 62
0.127126 -5.67071 1.29937 17
0.128222 -5.67599 0.891662 24
0.0519578 -2.26334 0.195011 15
0.450039 -2.24814 0.276859 8
0.0521872 -2.29152 0.0393988 90
0.44924 -2.25218 0.118541 8
0.0517263 -2.28875 -0.118542 90
0.446147 -2.24287 -0.0393115 8
0.0509599 -2.29 -0.276554 59
0.447367 -2.24697 -0.197014 8
0.0497116 -2.2874 -0.43712 52
0.449471 -2.24946 -0.358238 3
0.0481358 -2.28757 -0.603302 61
0.452556 -2.2528 -0.521659 3
0.0968553 -5.6372 1.29151 14
0.0976562 -5.6272 0.883858 15
0.0404584 -2.26109 0.194793 15
0.436824 -2.24316 0.275946 4
0.0405454 -2.28925 0.0393552 90
0.436 -2.24716 0.118148 8
0.0401835 -2.29148 -0.118673 90
0.432868 -2.23529 -0.039137 9
0.0390096 -2.29271 -0.276859 61
0.435988 -2.2492 -0.197014 8
0.0381729 -2.29008 -0.437596 52
0.436734 -2.24694 -0.357455 3
0.0365197 -2.28537 -0.602656 59
0.438865 -2.24557 -0.519413 4
0.0872146 -5.58619 1.27972 15
0.0876451 -5.61502 0.881907 30
0.036512 -2.26115 0.194793 18
0.432433 -2.24149 0.275642 4
0.0365882 -2.29182 0.0393988 90
0.430648 -2.24056 0.117756 9
0.0361841 -2.29155 -0.118673 90
0.428966 -2.23604 -0.039137 9
0.0349716 -2.2903 -0.276554 59
0.431112 -2.24507 -0.196579 8
0.0341056 -2.28523 -0.436644 52
0.431396 -2.24043 -0.356281 4
0.0325638 -2.28785 -0.603302 61
0.43635 -2.25351 -0.521097 4
0.0570377 -5.59145 1.28084 20
0.0582439 -5.6154 0.881907 30
0.0245439 -2.24886 0.193704 20
0.419766 -2.23884 0.275033 4
0.0245879 -2.29198 0.0393988 91
0.41752 -2.23543 0.117363 11
0.0237607 -2.28922 -0.118542 90
0.417252 -2.23826 -0.039137 9
0.0229325 -2.28548 -0.275946 61
0.418036 -2.24248 -0.196144 8
0.0221398 -2.28538 -0.436644 53
0.419659 -2.24265 -0.356281 4
0.0205438 -2.28316 -0.602009 59
0.422266 -2.2438 -0.51829 4
0.0473187 -5.59642 1.28197 18
0.0485465 -5.62784 0.883858 30
0.0207041 -2.25886 0.194575 21
0.416316 -2.24201 0.275337 4
0.0201465 -2.28702 0.0393115 95
0.415455 -2.24597 0.117887 15
0.0197452 -2.28676 -0.118411 90
0.411968 -2.23161 -0.0390061 9
0.0190007 -2.29296 -0.276859 62
0.413207 -2.23831 -0.195709 9
0.018187 -2.29032 -0.437596 52
0.417109 -2.25066 -0.357455 4
0.0161761 -2.28561 -0.602656 65
0.419252 -2.24932 -0.519413 4
0.0170794 -5.61121 1.28534 15
0.0181331 -5.64036 0.885809 32
0.00846657 -2.25396 0.194139 21
0.403289 -2.23935 0.274729 4
0.0081789 -2.28959 0.0393552 95
0.402851 -2.24573 0.117756 15
0.00777156 -2.28683 -0.118411 90
0.399442 -2.23135 -0.0389625 11
0.00658872 -2.29055 -0.276554 62
0.401481 -2.24044 -0.195709 9
0.00578552 -2.28548 -0.436644 53
0.403992 -2.24553 -0.356281 8
0.00420552 -2.28325 -0.602009 62
0.406638 -2.24916 -0.518851 4
0.00830104 -5.64046 1.29207 15
0.00453265 -2.25397 0.194139 23
0.399771 -2.23998 0.274729 8
0.00418279 -2.28961 0.0393552 91
0.397997 -2.23898 0.117363 15
0.0037829 -2.28934 -0.118542 90
0.395988 -2.2345 -0.0390061 11
0.00298899 -2.28808 -0.27625 62
0.398011 -2.24359 -0.195927 11
0.00179617 -2.28303 -0.436168 53
0.400949 -2.25109 -0.357064 8
0.000221769 -2.28083 -0.601362 64
0.404843 -2.25938 -0.521097 4
-0.0204011 -5.43336 1.24434 1
-0.00687574 -2.25397 0.194139 24
0.387609 -2.2396 0.274425 9
-0.00741554 -2.2921 0.0393988 96
0.387126 -2.24596 0.117625 14
-0.00820403 -2.28932 -0.118542 90
0.386818 -2.24879 -0.0392243 12
-0.00899135 -2.28806 -0.27625 62
0.386685 -2.2481 -0.196144 11
-0.00978324 -2.28792 -0.43712 53
0.391283 -2.26532 -0.359021 4
-0.011336 -2.28322 -0.602009 64
0.39343 -2.26387 -0.521659 4
-0.0314555 -5.70616 1.30724 23
-0.0304902 -5.70945 0.896735 36
-0.0108096 -2.25395 0.194139 24
0.384972 -2.24761 0.275337 9
-0.0118016 -2.28958 0.0393552 97
0.383206 -2.24663 0.117625 12
-0.0121848 -2.28681 -0.118411 90
0.384591 -2.25931 -0.0393988 9
-0.0130003 -2.29053 -0.276554 64
0.384876 -2.26104 -0.197231 11
-0.0137601 -2.28544 -0.436644 52
0.387329 -2.266 -0.359021 4
-0.0157376 -2.28561 -0.602656 62
0.39115 -2.27415 -0.523905 4
-0.0623282 -5.7059 1.30724 23
-0.0612178 -5.69439 0.894394 29
-0.0230045 -2.25386 0.194139 27
0.371984 -2.24476 0.274729 3
-0.0238171 -2.29199 0.0393988 97
0.373926 -2.26591 0.118541 2
-0.0241862 -2.28921 -0.118542 90
0.372361 -2.26136 -0.0393988 4
-0.025364 -2.28794 -0.27625 64
0.373032 -2.26302 -0.197231 8
-0.0261253 -2.28534 -0.436644 53
0.376695 -2.2778 -0.360587 8
-0.027674 -2.28308 -0.602009 64
0.376815 -2.26423 -0.521097 3
-0.0708564 -5.67169 1.29937 15
-0.0706844 -5.65724 0.888541 24
-0.0269382 -2.25382 0.194139 26
0.369285 -2.25275 0.275642 3
-0.0278173 -2.29194 0.0393988 98
0.369156 -2.26163 0.118279 9
-0.0281171 -2.28417 -0.118279 90
0.369635 -2.26941 -0.0395297 9
-0.0293572 -2.28789 -0.27625 65
0.370705 -2.2735 -0.198101 9
-0.0301139 -2.28529 -0.436644 53
0.372315 -2.27602 -0.360196 4
-0.0316237 -2.28062 -0.601362 64
0.374867 -2.27689 -0.523905 4
-0.0999829 -5.63958 1.29207 14
-0.0988337 -5.62965 0.884248 20
-0.0383454 -2.25365 0.194139 24
0.357878 -2.25459 0.275642 9
-0.0394175 -2.29177 0.0393988 98
0.359284 -2.27333 0.118803 8
-0.0402125 -2.29148 -0.118673 90
0.358538 -2.27372 -0.0395733 9
-0.0409368 -2.28771 -0.27625 67
0.359189 -2.27787 -0.198319 8
-0.0416341 -2.28265 -0.436168 53
0.360399 -2.27544 -0.359804 4
-0.0432137 -2.28284 -0.602009 64
0.361783 -2.26914 -0.521659 4
-0.105262 -5.40801 1.23873 1
-0.108176 -5.60478 0.880346 18
-0.0422787 -2.25358 0.194139 26
0.355502 -2.26502 0.276859 8
-0.0438173 -2.29169 0.0393988 98
0.355315 -2.27395 0.118803 8
-0.0441622 -2.28891 -0.118542 90
0.352228 -2.25953 -0.0393115 9
-0.0449296 -2.28764 -0.27625 64
0.353658 -2.26865 -0.197449 8
-0.045618 -2.28258 -0.436168 52
0.356427 -2.27606 -0.359804 4
-0.0475963 -2.28275 -0.602009 62
0.358591 -2.27458 -0.522782 8
-0.138622 -5.57053 1.27635 15
-0.138376 -5.59917 0.879565 24
-0.054471 -2.25332 0.194139 27
0.342489 -2.262 0.27625 4
-0.0558783 -2.29393 0.0394424 99
0.341498 -2.26597 0.118279 8
-0.0560835 -2.28615 -0.118411 90
0.339621 -2.25893 -0.0392679 9
-0.0572425 -2.28488 -0.275946 62
0.342527 -2.2754 -0.197884 8
-0.0579034 -2.27984 -0.435692 53
0.343756 -2.27302 -0.359021 4
-0.0595481 -2.28247 -0.602009 59
0.344793 -2.26686 -0.520536 4
-0.147892 -5.58979 1.28084 15
-0.147892 -5.6261 0.883858 24
-0.0584037 -2.25322 0.194139 27
0.340054 -2.2699 0.277163 3
-0.0598151 -2.29133 0.0393988 99
0.338312 -2.26897 0.11841 8
-0.0600064 -2.28356 -0.118279 90
0.336051 -2.26199 -0.0393115 9
-0.0609666 -2.28975 -0.276554 65
0.338183 -2.27353 -0.197666 9
-0.0619505 -2.28219 -0.436168 52
0.339419 -2.27117 -0.35863 8
-0.0633943 -2.27754 -0.600716 61
0.341967 -2.27221 -0.521659 4
-0.178481 -5.63033 1.29039 15
-0.178289 -5.65487 0.888541 26
-0.0698075 -2.2529 0.194139 29
0.326724 -2.26182 0.275946 4
-0.0715705 -2.29599 0.0394861 100
0.324985 -2.26083 0.117887 8
-0.0719622 -2.28321 -0.118279 90
0.324597 -2.26366 -0.0393115 11
-0.0728743 -2.28692 -0.27625 67
0.325198 -2.26787 -0.197014 9
-0.0735008 -2.28185 -0.436168 53
0.32645 -2.26559 -0.357455 9
-0.074921 -2.27719 -0.600716 61
0.32971 -2.27156 -0.521097 4
-0.19003 -5.68114 1.30218 20
-0.189896 -5.70638 0.896735 35
-0.0736564 -2.25028 0.193922 29
0.322776 -2.26239 0.275946 4
-0.0758942 -2.29335 0.0394424 99
0.320683 -2.25892 0.117756 8
-0.0758625 -2.28059 -0.118148 91
0.319935 -2.25927 -0.0392243 11
-0.0768656 -2.28679 -0.27625 65
0.321948 -2.27337 -0.197449 9
-0.0774833 -2.28172 -0.436168 53
0.322496 -2.26616 -0.357455 9
-0.0792072 -2.27463 -0.600069 61
0.324693 -2.2649 -0.519413 4
-0.211529 -5.4439 1.24771 1
-0.220959 -5.7102 0.897516 15
-0.0860234 -2.25483 0.194357 29
0.310188 -2.26165 0.275642 4
-0.0879983 -2.29542 0.0394861 99
0.308114 -2.25815 0.117625 8
-0.0881929 -2.29014 -0.118673 90
0.307364 -2.2585 -0.0391806 9
-0.0891389 -2.28386 -0.275946 64
0.310041 -2.27502 -0.197449 9
-0.0897293 -2.27881 -0.435692 53
0.311987 -2.2776 -0.359021 8
-0.0913124 -2.27901 -0.601362 64
0.312434 -2.26663 -0.519413 3
-0.225329 -5.57257 1.27747 14
-0.22623 -5.61855 0.883077 20
-0.0897571 -2.2497 0.193922 29
0.307651 -2.26951 0.276554 8
-0.0919029 -2.29277 0.0394424 99
0.303888 -2.25369 0.117363 8
-0.091782 -2.28 -0.118148 90
0.303422 -2.25903 -0.0391806 9
-0.0929306 -2.28868 -0.276554 62
0.305733 -2.27309 -0.197231 9
-0.0938088 -2.2811 -0.436168 53
0.308011 -2.27814 -0.359021 8
-0.0950851 -2.27402 -0.600069 61
0.309207 -2.26953 -0.519974 4
-0.254392 -5.56888 1.27691 15
-0.255758 -5.61976 0.883468 26
-0.101143 -2.24921 0.193922 27
-0.103506 -2.29227 0.0394424 100
0.292736 -2.2602 0.117625 9
-0.103949 -2.28448 -0.118411 91
0.293286 -2.27045 -0.0393552 9
-0.104798 -2.28568 -0.27625 64
0.294151 -2.27713 -0.197449 8
-0.105353 -2.2806 -0.436168 53
0.297048 -2.28706 -0.360196 2
-0.106594 -2.27351 -0.600069 59
0.298605 -2.28077 -0.52222 3
-0.265272 -5.59277 1.28253 15
-0.265566 -5.61931 0.883468 27
-0.10495 -2.24655 0.193704 26
-0.107907 -2.29207 0.0394424 100
0.289755 -2.26813 0.118018 8
-0.107816 -2.2818 -0.118279 90
0.289001 -2.26848 -0.0393115 2
-0.109026 -2.29045 -0.276859 64
0.291456 -2.28752 -0.198319 11
-0.109214 -2.27796 -0.435692 53
0.293056 -2.28758 -0.360196 14
-0.111316 -2.28053 -0.602009 59
0.294941 -2.28371 -0.522782 20
-0.294365 -5.56935 1.27747 17
-0.294008 -5.5808 0.877614 29
0.282919 -2.27494 0.438467 3
-0.117104 -2.24594 0.193704 27
-0.119775 -2.28898 0.0393988 99
0.27902 -2.28205 0.118672 12
-0.119895 -2.2837 -0.118411 90
0.277954 -2.27993 -0.0394861 30
-0.121018 -2.28239 -0.275946 64
0.279474 -2.28902 -0.198319 44
-0.12167 -2.27979 -0.436168 52
0.280462 -2.28418 -0.359413 45
-0.123123 -2.27751 -0.601362 59
0.283797 -2.29494 -0.525028 45
-0.302846 -5.56402 1.27635 18
-0.303311 -5.59019 0.879175 20
0.279556 -2.2803 0.43942 3
-0.121023 -2.24574 0.193704 23
-0.123906 -2.29126 0.0394424 99
0.276044 -2.28745 0.118933 47
-0.12388 -2.28348 -0.118411 90
0.275794 -2.2953 -0.0397479 50
-0.124603 -2.2822 -0.275946 62
0.276992 -2.30186 -0.199406 49
-0.125649 -2.27957 -0.436168 53
0.277984 -2.29692 -0.36137 45
-0.127234 -2.2797 -0.602009 62
0.279291 -2.28813 -0.523343 45
-0.339992 -5.6961 1.30724 21
-0.339795 -5.70931 0.898296 33
0.268885 -2.289 0.44085 8
-0.132833 -2.25255 0.194357 20
-0.135352 -2.28811 0.0393988 98
0.264937 -2.2963 0.119326 49
-0.135685 -2.28031 -0.118279 90
0.263883 -2.29418 -0.0397042 50
-0.1367 -2.28399 -0.27625 64
0.264356 -2.29833 -0.198971 49
-0.137185 -2.27891 -0.436168 52
0.266242 -2.3008 -0.361762 45
-0.138475 -2.27421 -0.600716 61
0.267306 -2.28956 -0.523343 45
-0.349183 -5.68334 1.30443 20
-0.348547 -5.68899 0.895174 32
0.264776 -2.29195 0.441326 8
-0.137069 -2.25729 0.194793 18
-0.139899 -2.29034 0.0394424 98
0.260928 -2.29676 0.119326 49
-0.139973 -2.28506 -0.118542 90
0.260451 -2.29961 -0.0397915 52
-0.140687 -2.28375 -0.27625 65
0.260345 -2.29879 -0.198971 49
-0.141316 -2.28111 -0.436644 52
0.262226 -2.30126 -0.361762 47
-0.143146 -2.27876 -0.602009 62
0.26331 -2.29002 -0.523343 45
-0.378296 -5.65707 1.29881 15
-0.376848 -5.65006 0.889321 24
0.253046 -2.29574 0.441803 4
-0.149114 -2.25403 0.194575 15
-0.151722 -2.28708 0.0393988 98
0.248224 -2.29565 0.119195 49
-0.152103 -2.28678 -0.118673 90
0.247186 -2.29353 -0.0396606 52
-0.152873 -2.28048 -0.275946 62
0.248305 -2.30012 -0.198971 49
-0.153489 -2.27787 -0.436168 53
0.249902 -2.30014 -0.36137 45
-0.154745 -2.27316 -0.600716 59
0.250916 -2.29141 -0.523343 45
-0.385011 -5.62487 1.29151 14
-0.382008 -5.59527 0.880736 15
0.247421 -2.28155 0.438943 2
-0.153559 -2.26122 0.195229 15
-0.155714 -2.28681 0.0393988 97
0.244348 -2.29356 0.119064 50
-0.155579 -2.27904 -0.118279 90
0.243183 -2.29396 -0.0396606 53
-0.156627 -2.28271 -0.27625 61
0.244022 -2.29808 -0.198754 49
-0.157635 -2.28004 -0.436644 52
0.245619 -2.29812 -0.360979 45
-0.158712 -2.27288 -0.600716 61
0.24705 -2.28938 -0.522782 45
-0.410504 -5.56933 1.27916 15
0.236899 -2.29253 0.44085 8
-0.164819 -2.25793 0.195011 15
0.585071 -5.66962 0.694581 11
