# .PCD v0.7 - Point Cloud Data file format
VERSION 0.7
FIELDS x y z intensity
SIZE 4 4 4 4
TYPE F F F F
COUNT 1 1 1 1
WIDTH 1606
HEIGHT 1
VIEWPOINT 0 0 0 1 0 0 0
POINTS 1606
DATA ascii
-1.39787 1.27187 -0.0975378 49
-1.39645 1.27147 -0.227267 53
-1.39914 1.2748 -0.360458 56
-1.3939 1.27223 -0.495962 61
-0.969654 0.614475 -0.256618 4
-1.37968 1.26854 0.423953 49
-2.05598 1.30502 0.642327 39
-1.382 1.27025 0.291107 47
-2.04719 1.30442 0.464679 38
-1.37732 1.26552 0.160584 49
-2.03223 1.29887 0.291462 38
-1.38021 1.26862 0.0321124 49
-2.03305 1.30137 0.12469 39
-1.38384 1.27241 -0.0970127 49
-1.6241 1.04153 -0.0330723 15
-1.38225 1.27228 -0.226051 53
-1.3814 1.27237 -0.357601 56
-1.3748 1.26804 -0.491436 59
-0.966315 0.619713 -0.256618 4
-1.3759 1.26905 0.423392 49
-2.03739 1.29826 0.637158 39
-1.37616 1.26931 0.290327 47
-2.03042 1.29876 0.461343 38
-1.37694 1.26961 0.160802 49
-2.01532 1.29307 0.289333 38
-1.38167 1.27442 0.0321997 49
-2.01185 1.29281 0.123513 39
-1.37795 1.27143 -0.0967501 49
-1.61386 1.03897 -0.0328978 14
-1.37639 1.27132 -0.225442 53
-1.37738 1.27311 -0.357124 56
-1.37259 1.27044 -0.491436 61
-0.963178 0.620088 -0.256056 4
-1.36367 1.27149 0.421707 49
-2.0143 1.29848 0.631988 38
-1.36769 1.27482 0.289937 47
-2.00915 1.30007 0.458007 38
-1.36481 1.2717 0.160149 49
-2.00019 1.29821 0.288116 38
-1.36402 1.27141 0.0319379 49
-1.99667 1.2979 0.122989 38
-1.3658 1.27352 -0.0963563 49
-1.61469 1.05148 -0.0330287 14
-1.36428 1.27342 -0.224529 55
-1.35815 1.26857 -0.353791 58
-1.35358 1.26605 -0.486909 59
-0.964012 0.627764 -0.257179 4
-1.35278 1.26531 0.418899 49
-1.99985 1.29414 0.628111 39
-1.35667 1.26852 0.287985 47
-1.99452 1.29558 0.455147 38
-1.35532 1.26727 0.159277 49
-1.98982 1.29595 0.286899 39
-1.36179 1.27378 0.0319379 47
-1.98416 1.29423 0.122335 38
-1.35811 1.27078 -0.0959625 50
-1.35684 1.27047 -0.223617 55
-1.34877 1.26422 -0.351887 58
-1.35313 1.27006 -0.487556 62
-0.96098 0.627954 -0.256618 4
-1.3426 1.26902 0.417776 49
-1.97911 1.29502 0.623587 39
-1.34463 1.27052 0.286815 49
-1.98177 1.30163 0.453718 39
-1.33984 1.26556 0.158188 49
-1.96641 1.29547 0.284465 38
-1.34625 1.27207 0.0317197 47
-1.96066 1.29364 0.121289 36
-1.34419 1.27101 -0.0954374 50
-1.34297 1.27073 -0.2224 55
-1.34057 1.26934 -0.35141 58
-1.96048 1.29258 -0.366852 36
-1.33443 1.26526 -0.48303 61
-0.961754 0.635646 -0.257741 4
-1.33508 1.26633 0.416092 50
-1.96472 1.29054 0.61971 39
-1.33525 1.26606 0.285254 47
-1.96696 1.29735 0.450858 39
-1.33041 1.26104 0.157316 47
-1.95171 1.29071 0.282639 39
-1.33837 1.26949 0.0315889 49
-1.95215 1.29294 0.120896 38
-1.34016 1.27163 -0.0953061 50
-1.33535 1.26794 -0.221487 55
-1.32947 1.26322 -0.34903 56
-1.94585 1.28785 -0.364502 36
-1.33199 1.26781 -0.48303 61
-0.958608 0.635986 -0.257179 4
-1.31767 1.26341 0.412723 50
-1.94562 1.29316 0.615833 39
-1.32481 1.26985 0.284473 47
-1.94992 1.30084 0.448475 39
-1.32177 1.26649 0.157098 49
-1.9323 1.293 0.280814 41
-1.32269 1.26782 0.0313707 49
-1.93474 1.29655 0.120242 38
-1.32808 1.27344 -0.0949123 52
-1.32311 1.26999 -0.220574 55
-1.31377 1.26189 -0.346649 58
-1.93475 1.29562 -0.363719 38
-1.3149 1.26472 -0.47915 59
-0.965295 0.647909 -0.259987 4
-1.31919 1.26886 0.413846 50
-1.93934 1.29388 0.614541 41
-1.31904 1.26873 0.283693 47
-1.93539 1.29607 0.445616 41
-1.31417 1.26362 0.156445 49
-1.91973 1.28947 0.279293 41
-1.31867 1.2684 0.0313271 49
-1.92211 1.29298 0.119588 39
-1.31866 1.26883 -0.0943872 52
-1.31374 1.26541 -0.219357 55
-1.21793 0.821711 -0.125254 12
-1.3098 1.26247 -0.346173 58
-1.92017 1.29076 -0.36137 38
-1.31269 1.26701 -0.47915 59
-0.956058 0.644182 -0.257741 4
-1.30183 1.26578 0.410476 50
-1.92252 1.29728 0.61131 41
-1.30707 1.27045 0.282522 47
-1.91841 1.29933 0.443233 39
-1.3004 1.26353 0.155573 49
-1.89651 1.28838 0.276859 41
-1.31022 1.27354 0.0312834 47
-1.90497 1.29603 0.118933 39
-1.30664 1.27049 -0.0939933 50
-1.30532 1.27054 -0.219053 55
-1.21979 0.832268 -0.125906 12
-1.30142 1.2676 -0.345696 58
-1.8993 1.29077 -0.35863 39
-1.29913 1.26712 -0.476563 59
-0.95671 0.651905 -0.258864 4
-1.29636 1.26442 0.409353 52
-1.90623 1.29119 0.606786 41
-1.29624 1.26388 0.280571 45
-1.90394 1.29442 0.440373 41
-1.29463 1.26232 0.155137 49
-1.88832 1.28718 0.275946 41
-1.30085 1.26884 0.0311089 50
-1.88848 1.28919 0.118018 38
-1.30085 1.26928 -0.0937308 52
-1.88181 1.2861 -0.0391806 36
-1.30155 1.27085 -0.218749 56
-1.22863 0.841398 -0.126994 11
-1.29043 1.26129 -0.343316 59
-1.29174 1.26431 -0.474624 59
-0.949635 0.649308 -0.257179 4
-1.28279 1.26434 0.407107 50
-1.88969 1.29402 0.603555 41
-1.28433 1.26544 0.279401 47
-1.88521 1.29573 0.437513 41
-1.28113 1.26186 0.154266 47
-1.87337 1.29143 0.274729 41
-1.28729 1.26838 0.0309344 49
-1.8673 1.28917 0.117102 39
-1.28885 1.27081 -0.093337 52
-1.86498 1.28852 -0.0389625 36
-1.28429 1.26718 -0.216923 56
-1.28229 1.26608 -0.342839 59
-1.28018 1.26574 -0.472684 61
-0.948232 0.655648 -0.257741 4
-1.27885 1.26487 0.406546 50
-1.87547 1.28913 0.599678 41
-1.27861 1.26421 0.27862 49
-1.87261 1.2924 0.43513 42
-1.27362 1.25884 0.153612 50
-1.85681 1.28485 0.272599 41
-1.27953 1.26557 0.0308035 50
-1.86094 1.28959 0.11684 39
-1.27777 1.26427 -0.0926806 52
-1.85039 1.28326 -0.0387007 36
-1.27855 1.26593 -0.216315 56
-1.27485 1.26313 -0.341411 59
-1.2709 1.26138 -0.470097 59
-0.943071 0.654541 -0.256618 4
-1.26338 1.26315 0.403738 50
-1.85656 1.29101 0.595801 41
-1.26652 1.26587 0.277449 49
-1.85574 1.29518 0.432747 42
-1.26151 1.26043 0.152958 50
-1.84169 1.2892 0.271382 41
-1.26935 1.26872 0.0307162 50
-1.8437 1.29249 0.116186 39
-1.27113 1.27094 -0.0926806 52
-1.83727 1.28896 -0.0385698 36
-1.26818 1.26931 -0.215706 56
-1.2628 1.26479 -0.339982 58
-1.26257 1.26631 -0.469451 59
-0.945515 0.663808 -0.258303 4
-1.25624 1.25995 0.402054 50
-1.84637 1.28874 0.593216 42
-1.25908 1.26282 0.276279 49
-1.84341 1.2914 0.430365 44
-1.26106 1.26439 0.153176 50
-1.83334 1.28815 0.27047 41
-1.26008 1.26385 0.0305417 49
-1.83122 1.28855 0.115532 41
-1.26187 1.26608 -0.0921555 52
-1.82274 1.28355 -0.038308 36
-1.25722 1.26272 -0.214185 58
-1.2554 1.26177 -0.338554 59
-1.25526 1.26337 -0.467511 61
-0.942358 0.664062 -0.257741 4
-1.2462 1.26304 0.40093 50
-1.82796 1.28974 0.589339 44
-1.24921 1.26566 0.275498 49
-1.82682 1.29364 0.427982 42
-1.24241 1.25834 0.151651 52
-1.82072 1.29311 0.269557 41
-1.25191 1.26843 0.0304981 49
-1.8206 1.29491 0.11527 41
-1.24668 1.26356 -0.0914991 50
-1.80806 1.28698 -0.0381335 36
-1.24733 1.26553 -0.213577 58
-1.24556 1.26461 -0.337602 59
-1.24208 1.26281 -0.464924 61
-0.944955 0.673039 -0.259426 4
-1.24251 1.26326 0.400369 52
-1.81584 1.28597 0.586108 44
-1.2418 1.26256 0.274328 49
-1.81654 1.29116 0.426075 42
-1.23846 1.25873 0.151433 50
-1.80429 1.28624 0.267427 41
-1.23919 1.25991 0.0302363 49
-1.80409 1.28797 0.114354 41
-1.24272 1.26395 -0.0913678 52
-1.80174 1.28724 -0.0380462 38
-1.2399 1.26239 -0.212664 58
-1.23476 1.25802 -0.335221 59
-1.23649 1.26152 -0.463631 61
-0.937816 0.670461 -0.257741 4
-1.23056 1.26472 0.398684 52
-1.79532 1.28565 0.581584 44
-1.23173 1.2655 0.273547 49
-1.79978 1.29351 0.423692 42
-1.22838 1.26163 0.150997 50
-1.78947 1.28988 0.26621 42
-1.23083 1.26459 0.0301927 49
-1.78515 1.28865 0.113569 39
-1.22891 1.26349 -0.0908427 52
-1.78483 1.28936 -0.0378281 38
-1.22809 1.26353 -0.211751 55
-1.22645 1.2627 -0.334745 59
-1.22651 1.26451 -0.462338 61
-0.940234 0.679619 -0.259426 4
-1.22497 1.26337 0.397561 52
-1.78521 1.28316 0.578999 45
-1.22437 1.26233 0.272377 49
-1.79131 1.29267 0.422262 42
-1.22271 1.26019 0.150562 50
-1.77513 1.2843 0.264385 42
-1.22319 1.26156 0.0300618 49
-1.77885 1.28885 0.113307 41
-1.22323 1.26205 -0.0905802 53
-1.77244 1.28516 -0.0376099 38
-1.22244 1.2621 -0.211143 58
-1.22083 1.26131 -0.333792 58
-1.21738 1.25991 -0.459751 61
-1.21306 1.2647 0.395877 52
-1.76846 1.28572 0.575768 45
-1.2124 1.26358 0.271206 50
-1.77261 1.29338 0.419403 42
-1.20898 1.2596 0.14969 52
-1.75813 1.28658 0.262864 42
-1.20965 1.26073 0.0298872 49
-1.75975 1.28962 0.112522 41
-1.21315 1.26483 -0.0903176 53
-1.75536 1.28736 -0.0373918 38
-1.20873 1.26152 -0.209926 56
-1.75532 1.28687 -0.187011 38
-1.21059 1.26435 -0.33284 58
-1.20576 1.26103 -0.457811 59
-1.20602 1.26131 0.394192 52
-1.76231 1.28597 0.574476 45
-1.20871 1.2637 0.270816 49
-1.75845 1.2878 0.416543 42
-1.20506 1.2599 0.149472 52
-1.74809 1.28348 0.261647 44
-1.20572 1.26103 0.0298436 50
-1.74362 1.28207 0.111606 41
-1.20922 1.26514 -0.0901864 53
-1.74303 1.28303 -0.0371736 39
-1.20503 1.26163 -0.209622 58
-1.74503 1.28404 -0.186141 39
-1.19992 1.25758 -0.330459 52
-1.19024 1.24913 -0.452638 56
-1.19773 1.26584 0.393631 52
-1.74604 1.28772 0.571245 45
-1.19868 1.26642 0.270035 49
-1.74203 1.2894 0.41416 44
-1.19525 1.26237 0.149036 52
-1.73336 1.28672 0.26043 44
-1.19417 1.26167 0.0297127 50
-1.73287 1.28821 0.111345 41
-1.19744 1.26601 -0.0897925 53
-1.72848 1.28589 -0.0369991 39
-1.1916 1.2607 -0.208405 58
-1.72828 1.28575 -0.185054 39
-1.18681 1.25649 -0.328554 49
-1.18556 1.2569 -0.453285 56
-1.19051 1.26261 0.391946 53
-1.73212 1.28218 0.567368 45
-1.19139 1.26312 0.268864 50
-1.73166 1.28691 0.412254 42
-1.1828 1.25357 0.147729 49
-1.72314 1.28383 0.259213 45
-1.19003 1.26214 0.0296691 52
-1.71659 1.28081 0.110429 41
-1.18667 1.25901 -0.0891361 53
-1.71821 1.28294 -0.0368246 39
-1.1877 1.26097 -0.2081 58
-1.71804 1.28283 -0.184184 39
-1.17621 1.24962 -0.326174 45
-1.17488 1.25037 -0.450052 53
-1.18034 1.26546 0.390823 53
-1.71548 1.28431 0.564137 45
-1.17781 1.26232 0.267304 50
-1.71703 1.29008 0.410348 44
-1.1777 1.26178 0.147947 50
-1.70624 1.28569 0.257692 45
-1.17659 1.26103 0.0294946 52
-1.70165 1.28408 0.109906 41
-1.18006 1.2652 -0.0891361 53
-1.69925 1.28321 -0.0365628 39
-1.17579 1.26193 -0.207188 58
-1.16776 1.25417 -0.325697 45
-1.16339 1.25119 -0.448112 47
-1.17006 1.25839 0.388015 53
-1.70356 1.28007 0.560906 45
-1.17246 1.26055 0.266523 50
-1.70693 1.28718 0.408441 44
-1.16871 1.25653 0.147075 52
-1.69034 1.27793 0.255562 44
-1.17269 1.26125 0.0294509 52
-1.68966 1.27924 0.109251 42
-1.17446 1.2636 -0.0888736 55
-1.69103 1.28165 -0.0364319 41
-1.17212 1.26195 -0.206883 59
-1.1639 1.2544 -0.325221 47
-1.15793 1.24968 -0.446819 45
-1.16016 1.26091 0.386892 53
-1.69128 1.28431 0.558967 45
-1.16083 1.26121 0.265352 50
-1.69061 1.28839 0.406058 44
-1.15897 1.25876 0.14664 52
-1.6777 1.28225 0.254649 45
-1.1646 1.26533 0.0294073 50
-1.675 1.28202 0.108728 41
-1.16445 1.26605 -0.088611 55
-1.67657 1.28413 -0.0362574 41
-1.16046 1.26259 -0.205971 59
-1.15588 1.25847 -0.324745 47
-1.14343 1.24661 -0.443586 45
-1.15632 1.26114 0.386331 53
-1.67557 1.27705 0.554444 45
-1.15696 1.26142 0.264962 50
-1.67837 1.2842 0.403675 44
-1.15172 1.25527 0.145986 52
-1.6656 1.27765 0.253128 45
-1.15373 1.25835 0.0291891 50
-1.66879 1.28191 0.108466 42
-1.16055 1.26624 -0.0884798 55
-1.6644 1.27946 -0.0360392 41
-1.1549 1.26095 -0.205362 59
-1.15037 1.25686 -0.323793 55
-1.14429 1.25238 -0.444879 47
-1.14621 1.26376 0.385208 53
-1.66097 1.28021 0.551859 47
-1.1468 1.264 0.264182 52
-1.66385 1.28698 0.401769 45
-1.14324 1.25964 0.145768 52
-1.65277 1.28209 0.252215 47
-1.14545 1.26252 0.0291455 52
-1.64998 1.28176 0.107681 42
-1.14553 1.26305 -0.0878234 55
-1.64756 1.2808 -0.0358211 41
-1.14307 1.26166 -0.204449 59
-1.13861 1.2576 -0.322364 55
-1.13286 1.25297 -0.442939 47
-1.14095 1.26195 0.384085 53
-1.65491 1.28016 0.550566 47
-1.1382 1.25847 0.262621 52
-1.65383 1.28388 0.399862 44
-1.13937 1.25979 0.14555 52
-1.64683 1.28165 0.251607 45
-1.13654 1.25709 0.028971 53
-1.64599 1.28282 0.10755 42
-1.13997 1.26134 -0.0875608 55
-1.64138 1.28061 -0.0357338 42
-1.14109 1.26345 -0.204449 59
-1.13478 1.25776 -0.321888 59
-1.13229 1.25674 -0.443586 56
-1.12784 1.26063 0.381839 55
-1.63888 1.28111 0.547335 47
-1.13159 1.26441 0.262621 52
-1.63764 1.28468 0.39748 45
-1.12634 1.25811 0.144679 52
-1.63033 1.2826 0.250086 47
-1.1285 1.26097 0.0289274 53
-1.6255 1.28063 0.106635 41
-1.13191 1.26523 -0.0874296 56
-1.63094 1.28581 -0.0356465 42
-1.1262 1.26015 -0.202928 61
-0.947286 0.749121 -0.102421 9
-1.11859 1.2525 -0.319031 89
-1.1227 1.25885 -0.442292 90
-1.12262 1.25877 0.380715 55
-1.62521 1.27505 0.543458 49
-1.12282 1.25901 0.26106 52
-1.62574 1.27997 0.395097 45
-1.12249 1.25821 0.144461 52
-1.62419 1.28238 0.249477 47
-1.12463 1.26107 0.0288837 53
-1.61541 1.27729 0.106111 39
-1.12638 1.26347 -0.087167 58
-1.62084 1.28247 -0.035472 42
-1.11905 1.25655 -0.202016 61
-0.945977 0.750773 -0.102421 9
-1.11478 1.25262 -0.318555 97
-1.1205 1.26081 -0.442292 91
-1.11096 1.25934 0.379031 55
-1.61283 1.27905 0.54152 49
-1.11458 1.26301 0.26067 52
-1.61709 1.28694 0.39462 45
-1.1093 1.2566 0.143589 53
-1.60385 1.28006 0.247347 47
-1.1081 1.25568 0.0286219 53
-1.60675 1.28418 0.10598 42
-1.11623 1.2658 -0.0869045 56
-1.60628 1.28472 -0.0352975 42
-1.11246 1.26239 -0.202016 64
-0.939952 0.754329 -0.102204 8
-1.10172 1.25106 -0.31665 90
-1.11229 1.26484 -0.441646 77
-1.10715 1.25944 0.378469 55
-1.60491 1.27737 0.539581 49
-1.10748 1.25939 0.259499 52
-1.60885 1.28546 0.39319 44
-1.10382 1.25479 0.143153 52
-1.59385 1.27668 0.24613 47
-1.10899 1.26157 0.0287092 55
-1.59085 1.27608 0.105064 41
-1.10908 1.26212 -0.0865106 56
-1.58841 1.27504 -0.0349484 41
-1.10861 1.26247 -0.201711 67
-1.0963 1.24929 -0.315698 68
-1.10509 1.26152 -0.439706 61
-1.09553 1.25989 0.376785 55
-1.58856 1.27849 0.53635 49
-1.0958 1.25977 0.258328 52
-1.59062 1.28464 0.390331 44
-1.09375 1.25699 0.142718 53
-1.57726 1.27749 0.244609 45
-1.09581 1.25981 0.0285347 53
-1.57809 1.27996 0.104672 42
-1.09591 1.26037 -0.0859855 56
-1.57566 1.2789 -0.0348176 41
-1.09852 1.2647 -0.201103 65
-1.08953 1.25521 -0.315698 61
-1.09215 1.25999 -0.437119 59
-1.08558 1.2524 0.373977 55
-1.57691 1.27369 0.533119 50
-1.08897 1.25589 0.257158 52
-1.58265 1.28279 0.388901 45
-1.08829 1.25513 0.142282 53
-1.56753 1.27373 0.243392 45
-1.0887 1.25605 0.0284038 53
-1.56638 1.27458 0.104018 42
-1.09044 1.2585 -0.085723 56
-1.56566 1.27535 -0.034643 41
-1.09166 1.26079 -0.20019 65
-1.08413 1.25339 -0.314746 62
-1.08522 1.2564 -0.435179 59
-1.56293 1.26828 -0.45596 44
-1.07584 1.25437 0.372854 55
-1.56482 1.27709 0.53118 50
-1.07916 1.25782 0.256377 53
-1.56472 1.28149 0.386041 45
-1.07706 1.25495 0.141628 53
-1.55508 1.27721 0.242479 47
-1.08071 1.25964 0.0283602 55
-1.55968 1.28277 0.104018 44
-1.07735 1.25661 -0.0851979 56
-1.55531 1.28009 -0.0345558 44
-1.08021 1.26083 -0.199277 61
-1.07139 1.2514 -0.312841 64
-1.54896 1.27314 -0.312431 35
-1.07258 1.25453 -0.432593 59
-1.55061 1.27182 -0.454276 45
-1.07049 1.25254 0.371731 56
-1.55323 1.27219 0.527949 50
-1.07536 1.25783 0.255987 52
-1.55466 1.27827 0.384135 44
-1.07325 1.25493 0.14141 53
-1.54517 1.27363 0.241263 49
-1.07829 1.26171 0.0283602 53
-1.54587 1.27598 0.103233 44
-1.07515 1.25849 -0.0851979 56
-1.54535 1.27645 -0.0343812 44
-1.07478 1.25894 -0.198669 62
-1.06761 1.2514 -0.312365 65
-1.54674 1.27584 -0.312431 45
-1.07017 1.25659 -0.432593 59
-1.54084 1.26835 -0.452029 45
-1.05741 1.25086 0.369485 55
-1.54259 1.2775 0.526657 50
-1.06376 1.25796 0.254816 53
-1.54038 1.28014 0.382228 45
-1.06163 1.25501 0.140757 53
-1.53444 1.2788 0.240654 47
-1.06521 1.2597 0.0281856 53
-1.52934 1.27635 0.102578 44
-1.06533 1.26028 -0.0849353 56
-1.52881 1.27681 -0.0341631 44
-1.06476 1.26094 -0.19806 64
-1.05925 1.25528 -0.311889 71
-1.53031 1.2763 -0.310473 45
-1.06046 1.25848 -0.4313 59
-1.52645 1.27045 -0.449783 47
-1.05858 1.25625 0.370608 56
-1.53106 1.2725 0.523426 52
-1.05839 1.25604 0.254036 53
-1.53248 1.27812 0.380799 45
-1.05623 1.25305 0.140321 55
-1.52267 1.27354 0.239133 49
-1.0598 1.25773 0.0280984 55
-1.52327 1.27582 0.102317 44
-1.06152 1.26023 -0.0848041 56
-1.52082 1.27467 -0.0340322 45
-1.05777 1.2571 -0.197148 67
-1.0539 1.25337 -0.310936 71
-1.5205 1.27265 -0.308907 45
-1.05206 1.25293 -0.428713 58
-1.52236 1.27156 -0.449222 45
-1.04731 1.25616 0.368923 56
-1.52089 1.27713 0.522133 52
-1.05202 1.26138 0.254036 53
-1.51659 1.27798 0.378416 45
-1.04509 1.25264 0.139667 56
-1.50861 1.27484 0.237916 49
-1.04862 1.25732 0.0279675 55
-1.50725 1.27547 0.101663 44
-1.04532 1.25425 -0.0840164 56
-1.50671 1.27591 -0.0338577 45
-1.0498 1.26052 -0.196843 67
-1.04283 1.25302 -0.309508 67
-1.50837 1.27556 -0.307732 47
-1.04879 1.26195 -0.430006 59
-1.50658 1.27141 -0.446414 47
-1.04045 1.25236 0.367239 56
-1.51126 1.27358 0.519549 52
-1.04508 1.25751 0.252865 53
-1.5085 1.27615 0.376986 45
-1.0429 1.25446 0.139667 55
-1.4969 1.26947 0.236395 49
-1.04301 1.25548 0.0278802 55
-1.4993 1.27327 0.10127 45
-1.04473 1.258 -0.0841477 58
-1.49875 1.2737 -0.0337268 45
-1.04444 1.25853 -0.196235 68
-1.49718 1.27238 -0.168527 44
-1.04221 1.25673 -0.309984 71
-1.50236 1.27501 -0.306949 47
-1.04483 1.2621 -0.42936 58
-1.49877 1.26933 -0.44473 45
-1.03057 1.25421 0.366116 58
-1.49882 1.27705 0.51761 52
-1.0367 1.26124 0.252475 53
-1.49619 1.27926 0.375556 45
-1.03136 1.25431 0.139013 55
-1.48623 1.27433 0.235786 50
-1.03484 1.25899 0.0278366 53
-1.48669 1.2765 0.100878 44
-1.03338 1.25766 -0.0837538 58
-1.48614 1.27691 -0.0335959 45
-1.03604 1.26225 -0.195931 65
-1.48103 1.27211 -0.16744 44
-1.02918 1.25476 -0.308079 65
-1.48628 1.27484 -0.304992 49
-1.02903 1.25634 -0.42548 59
-1.48261 1.26952 -0.441922 47
-1.02243 1.24828 0.36387 56
-1.48739 1.27184 0.514379 52
-1.02846 1.25522 0.250914 55
-1.48835 1.27709 0.374126 45
-1.02759 1.25418 0.138796 55
-1.47669 1.27021 0.234569 50
-1.02789 1.25499 0.0277057 55
-1.4771 1.27233 0.100354 45
-1.02802 1.2556 -0.0834913 58
-1.47442 1.27137 -0.0333777 47
-1.02935 1.25811 -0.195018 70
-1.47502 1.27145 -0.167005 44
-1.02543 1.25465 -0.307603 64
-1.47842 1.27261 -0.303817 49
-1.02531 1.25626 -0.424833 59
-1.47135 1.26394 -0.439114 45
-1.01129 1.24793 0.362185 58
-1.47361 1.27306 0.511794 52
-1.01877 1.25675 0.250134 53
-1.47258 1.27659 0.371743 45
-1.01496 1.25162 0.137924 55
-1.46251 1.27143 0.233352 50
-1.01838 1.25629 0.0276184 56
-1.46476 1.27514 0.0999617 45
-1.01986 1.25902 -0.08336 58
-1.4623 1.2739 -0.0332468 47
-1.01807 1.25769 -0.194105 70
-1.46082 1.27263 -0.166135 44
-1.01753 1.25791 -0.307127 61
-1.46054 1.27064 -0.301468 47
-1.01591 1.25767 -0.42354 59
-1.45918 1.26685 -0.43743 45
-1.00758 1.2478 0.361624 56
-1.4659 1.2709 0.509855 52
-1.00882 1.24892 0.248183 55
-1.46456 1.27459 0.370314 45
-1.00652 1.24564 0.137052 55
-1.45467 1.2691 0.23244 50
-1.0144 1.2563 0.0275748 55
-1.46065 1.27606 0.0998308 45
-1.01296 1.25497 -0.0829662 58
-1.4563 1.27317 -0.0331596 47
-1.01587 1.25946 -0.194105 68
-1.45296 1.27028 -0.165483 44
-1.01226 1.25586 -0.306175 65
-1.45646 1.27157 -0.301077 49
-1.00744 1.25209 -0.420954 59
-1.45329 1.2662 -0.436307 45
-0.999295 1.25133 0.361062 58
-1.45172 1.27246 0.507271 52
-1.00205 1.25436 0.248183 55
-1.45232 1.2774 0.368884 47
-0.998217 1.24912 0.136835 56
-1.44591 1.27531 0.232135 50
-1.00157 1.25378 0.0274003 56
-1.44622 1.27735 0.0993075 45
-1.00482 1.2583 -0.0828349 58
-1.44564 1.27773 -0.0330723 47
-0.998221 1.25135 -0.191976 71
-1.44442 1.27622 -0.165266 44
-1.00392 1.2594 -0.305698 62
-1.43842 1.26966 -0.298728 49
-0.997869 1.25357 -0.41966 59
-1.43909 1.26762 -0.434061 47
-0.997328 1.2529 0.361062 58
-1.44222 1.26863 0.504686 53
-0.998324 1.25417 0.247792 55
-1.44272 1.27345 0.366977 47
-0.994485 1.24891 0.136617 55
-1.43251 1.268 0.23031 50
-0.999385 1.25552 0.0274003 55
-1.4365 1.27327 0.0987841 47
-0.99952 1.25614 -0.0825724 59
-1.43591 1.27363 -0.0328978 45
-0.994493 1.25115 -0.191671 74
-1.43285 1.2705 -0.164178 44
-0.997144 1.25538 -0.30427 62
-1.42694 1.264 -0.29677 47
-0.992682 1.25152 -0.418367 59
-1.42955 1.2637 -0.431814 47
-0.984514 1.25061 0.358816 58
-1.43194 1.27296 0.503393 53
-0.990218 1.25744 0.247402 55
-1.42685 1.27284 0.364595 47
-0.984854 1.25018 0.136181 56
-1.424 1.27383 0.230006 50
-0.991252 1.25877 0.0273566 56
-1.42422 1.27579 0.0983916 47
-0.988301 1.25547 -0.0821785 59
-1.4199 1.27282 -0.0326796 45
-0.986396 1.25439 -0.191367 73
-1.41874 1.27136 -0.163308 44
-0.989042 1.25865 -0.303794 64
-1.41868 1.26957 -0.296378 49
-0.984626 1.2548 -0.41772 59
-1.41928 1.26793 -0.430691 47
-0.981046 1.25024 0.358254 58
-1.42611 1.27225 0.502101 53
-0.983672 1.25316 0.246231 56
-1.42096 1.27207 0.363641 49
-0.978062 1.24602 0.135527 56
-1.41459 1.26945 0.228789 52
-0.985971 1.25657 0.0272694 56
-1.41663 1.27303 0.0979991 45
-0.987648 1.25916 -0.0823098 58
-1.41208 1.27029 -0.0325487 45
-0.982895 1.25398 -0.191063 71
-1.41466 1.27217 -0.163091 44
-0.98231 1.25458 -0.302365 64
-1.40726 1.26381 -0.294421 50
-0.977977 1.2508 -0.415781 59
-1.41183 1.26529 -0.429007 49
-0.970011 1.24958 0.35657 58
-1.41246 1.27301 0.499516 53
-0.975585 1.25634 0.245841 56
-1.40903 1.27432 0.362212 49
-0.973269 1.25292 0.135745 56
-1.4024 1.27186 0.227876 50
-0.97041 1.24969 0.0270076 56
-1.40624 1.27709 0.0977374 47
-0.971869 1.25247 -0.0815222 58
-1.39822 1.27072 -0.0323742 45
-0.97176 1.25322 -0.19015 74
-1.39875 1.27121 -0.162004 44
-0.972944 1.25565 -0.301413 67
-1.39879 1.26951 -0.294029 50
-0.971634 1.25574 -0.415781 59
-1.39613 1.26451 -0.426199 49
-0.961873 1.24356 0.354324 59
-1.40305 1.26901 0.496931 53
-0.971881 1.25609 0.245451 56
-1.40112 1.27208 0.360782 49
-0.968035 1.25068 0.135309 56
-1.39282 1.26764 0.226659 52
-0.969537 1.25353 0.0270512 58
-1.39107 1.2678 0.0968215 44
-0.966631 1.25021 -0.0812596 59
-1.3923 1.2698 -0.0322869 45
-0.968055 1.25295 -0.189846 71
-1.39284 1.2703 -0.161569 45
-0.970751 1.25735 -0.301413 64
-1.39108 1.26698 -0.292855 50
-0.964804 1.25186 -0.413841 59
-1.3867 1.26041 -0.423953 49
-0.958087 1.25262 0.355447 59
-1.39081 1.27171 0.494993 53
-0.960574 1.25544 0.24428 56
-1.38719 1.27279 0.358875 47
-0.955207 1.24798 0.134438 56
-1.38045 1.27013 0.225746 52
-0.958409 1.25263 0.0269203 56
-1.38051 1.27193 0.0965598 42
-0.960071 1.25526 -0.0812596 58
-1.37988 1.27224 -0.0321561 45
-0.956748 1.25225 -0.188933 71
-1.37699 1.26916 -0.160482 45
-0.962446 1.26063 -0.300937 61
-1.38079 1.27091 -0.292072 50
-0.956774 1.25497 -0.413194 59
-1.37806 1.26625 -0.423392 49
-0.953168 1.25024 0.354324 58
-1.37967 1.26599 0.491762 53
-0.95561 1.25302 0.2435 56
-1.38135 1.27189 0.357922 49
-0.953027 1.24965 0.134438 56
-1.37297 1.26726 0.224834 52
-0.954707 1.25231 0.0268767 56
-1.37483 1.27072 0.0962982 45
-0.956367 1.25494 -0.0811283 59
-1.3703 1.26788 -0.0319815 47
-0.951776 1.2498 -0.188325 71
-1.36744 1.26482 -0.159612 44
-0.954308 1.25449 -0.299032 67
-1.37129 1.26663 -0.290506 50
-0.947286 1.24702 -0.409961 59
-1.36889 1.26183 -0.421145 50
-0.942214 1.24938 0.352639 59
-1.36969 1.26968 0.490469 53
-0.941609 1.24814 0.241549 56
-1.36949 1.27386 0.356492 49
-0.945191 1.25246 0.13422 58
-1.35904 1.26768 0.223617 52
-0.943846 1.25113 0.0267458 56
-1.36084 1.2711 0.0957748 45
-0.948283 1.25794 -0.0809971 59
-1.35838 1.26969 -0.0318506 47
-0.946711 1.25675 -0.188629 74
-1.35533 1.26687 -0.158959 44
-0.946472 1.25734 -0.298556 68
-1.35922 1.26875 -0.289331 50
-0.939513 1.24987 -0.409314 58
-1.3569 1.26401 -0.419461 50
-0.93857 1.24907 0.352078 59
-1.36393 1.26879 0.489177 53
-0.940911 1.25176 0.241939 56
-1.36165 1.27148 0.355063 49
-0.941509 1.25212 0.134002 56
-1.35501 1.26836 0.223312 52
-0.936943 1.24694 0.0266149 58
-1.35315 1.26837 0.0953823 47
-0.94309 1.2556 -0.0807345 59
-1.34885 1.26524 -0.0316761 47
-0.938565 1.25046 -0.187412 71
-1.35312 1.26924 -0.158959 47
-0.941335 1.25506 -0.297604 61
-1.35339 1.26776 -0.288548 52
-0.934221 1.2478 -0.408021 58
-1.34934 1.2614 -0.417776 50
-0.930347 1.25218 0.351516 59
-1.35175 1.2712 0.487238 53
-0.929711 1.25088 0.240768 58
-1.34602 1.27019 0.35268 49
-0.930268 1.2512 0.133348 56
-1.3409 1.26887 0.222095 53
-0.93189 1.25384 0.0266585 58
-1.339 1.26882 0.0948589 49
-0.935016 1.25851 -0.0806032 59
-1.33653 1.26737 -0.0315452 47
-0.928831 1.25153 -0.186804 74
-1.33739 1.26776 -0.157872 47
-0.93161 1.25619 -0.296651 61
-1.33954 1.26806 -0.286982 52
-0.924804 1.24879 -0.406728 58
-1.33185 1.25867 -0.414407 49
-0.925483 1.24972 0.350393 59
-1.34249 1.26695 0.484653 55
-0.926277 1.25035 0.240378 58
-1.34023 1.26918 0.351726 49
-0.92216 1.24481 0.132477 56
-1.33349 1.26586 0.221183 53
-0.926729 1.25144 0.0265713 56
-1.33519 1.26921 0.0947281 49
-0.9254 1.2501 -0.0799469 59
-1.32887 1.26455 -0.0314143 47
-0.92539 1.25099 -0.186499 77
-1.32975 1.26496 -0.15722 47
-0.927959 1.25584 -0.296175 61
-1.33015 1.26361 -0.285416 52
-0.919759 1.24651 -0.405435 58
-1.3281 1.25909 -0.413846 50
-0.913176 1.24668 0.348147 58
-1.32905 1.26708 0.482069 53
-0.919717 1.25519 0.240378 58
-1.32668 1.26918 0.34982 50
-0.915848 1.24946 0.132477 56
-1.31967 1.26598 0.219966 53
-0.917432 1.25208 0.026484 58
-1.3213 1.26928 0.0942047 49
-0.917588 1.25276 -0.0798156 59
-1.31342 1.26262 -0.0311962 47
-0.918827 1.25582 -0.186499 77
-1.31793 1.26651 -0.156567 47
-0.918698 1.25655 -0.295223 61
-1.32351 1.27056 -0.285416 52
-0.907749 1.24334 -0.402848 58
-1.31267 1.25763 -0.411038 49
-0.911216 1.24811 0.348147 59
-1.32334 1.26607 0.480776 53
-0.911708 1.24881 0.238817 58
-1.31736 1.26471 0.347914 50
-0.913666 1.25106 0.132477 56
-1.31208 1.26313 0.219053 53
-0.915245 1.25368 0.026484 58
-1.31368 1.2664 0.0938122 49
-0.9154 1.25435 -0.0798156 59
-1.31121 1.26491 -0.0311962 49
-0.910794 1.2494 -0.185282 79
-1.31212 1.26536 -0.156132 47
-0.913617 1.25419 -0.29427 65
-1.30881 1.26091 -0.282675 53
-0.905578 1.24493 -0.402848 58
-1.30695 1.25655 -0.409915 50
-0.901602 1.24907 0.347024 58
-1.30973 1.26628 0.478191 53
-0.903713 1.25156 0.238427 58
-1.30896 1.26989 0.347437 50
-0.902733 1.24976 0.131823 58
-1.29653 1.26135 0.217532 53
-0.902822 1.25035 0.0263095 58
-1.29986 1.26631 0.0932888 49
-0.904223 1.25321 -0.0794218 59
-1.2938 1.26131 -0.0309344 49
-0.902791 1.25213 -0.184978 79
-1.29811 1.2655 -0.155263 49
-0.905604 1.25696 -0.293794 61
-1.29865 1.26431 -0.281892 52
-0.894821 1.24377 -0.400908 58
-1.2951 1.25829 -0.40823 50
-0.89658 1.24668 0.345901 58
-1.30404 1.26521 0.476899 53
-0.895766 1.24511 0.236866 59
-1.30299 1.26898 0.346484 50
-0.897645 1.24729 0.131387 58
-1.29255 1.26189 0.217228 53
-0.90042 1.25208 0.0263095 58
-1.29228 1.26336 0.0928963 47
-0.900579 1.25276 -0.0792905 59
-1.28802 1.26008 -0.0308471 49
-0.899158 1.25169 -0.184674 77
-1.29411 1.26603 -0.155045 49
-0.90198 1.25654 -0.293318 61
-1.28935 1.25969 -0.280326 52
-0.891027 1.24352 -0.400262 58
-1.2894 1.25716 -0.407107 50
-0.888411 1.24953 0.345339 58
-1.29026 1.26551 0.474314 53
-0.889017 1.24994 0.236866 59
-1.29458 1.27407 0.346007 50
-0.889441 1.2501 0.131169 58
-1.28039 1.26365 0.216315 55
-0.889512 1.25066 0.0261786 58
-1.28008 1.26508 0.0925038 49
-0.891117 1.25339 -0.0790279 61
-1.27762 1.26353 -0.0307599 49
-0.892372 1.25654 -0.184674 77
-1.28036 1.2658 -0.154175 49
-0.892331 1.2574 -0.292366 62
-1.279 1.26318 -0.279543 53
-0.884504 1.24817 -0.400262 59
-1.27562 1.2573 -0.404861 50
-0.882227 1.24496 0.343655 59
-1.28287 1.26269 0.472376 56
-0.885408 1.24948 0.236476 59
-1.28535 1.26945 0.344101 50
-0.881504 1.24352 0.130298 56
-1.27465 1.2624 0.215706 53
-0.881554 1.24405 0.0260041 58
-1.27254 1.26205 0.0921113 49
-0.884605 1.24882 -0.0786341 61
-1.2683 1.25873 -0.0305853 49
-0.883021 1.24796 -0.183153 79
-1.2746 1.26454 -0.15374 50
-0.887305 1.25494 -0.291413 61
-1.27327 1.26195 -0.27876 53
-0.879542 1.24576 -0.398968 59
-1.26821 1.2544 -0.403177 50
-0.878489 1.25355 0.344778 58
-1.27303 1.26577 0.471083 56
-0.876241 1.24989 0.235695 59
-1.26845 1.26557 0.341241 50
-0.872343 1.24388 0.129862 56
-1.26472 1.26533 0.215098 53
-0.878112 1.25259 0.0260913 58
-1.26083 1.26319 0.0917188 49
-0.879484 1.25548 -0.0787654 59
-1.25837 1.26161 -0.0304981 50
-0.875272 1.25038 -0.182848 77
-1.26444 1.26768 -0.153306 50
-0.880942 1.25942 -0.291413 59
-1.25987 1.26141 -0.277194 53
-0.874606 1.25218 -0.399615 59
-1.25839 1.25737 -0.402054 50
-0.869336 1.24509 0.34197 59
-1.26396 1.26118 0.468498 56
-0.874058 1.25142 0.235695 58
-1.26428 1.26627 0.340765 52
-0.868746 1.24336 0.129644 58
-1.25373 1.25877 0.213577 55
-0.871418 1.24812 0.0259605 58
-1.2551 1.26186 0.0914571 49
-0.875865 1.25497 -0.0786341 59
-1.25263 1.26026 -0.0304108 50
-0.873088 1.2519 -0.182848 77
-1.25694 1.2646 -0.152653 50
-0.873137 1.2529 -0.289509 59
-1.25243 1.25837 -0.27602 55
-0.865315 1.24393 -0.396382 59
-1.25275 1.25612 -0.40093 50
-0.861205 1.24777 0.341409 59
-1.2503 1.26116 0.465914 56
-0.864472 1.25207 0.234915 59
-1.25245 1.26765 0.339335 52
-0.860592 1.24599 0.129426 58
-1.24341 1.26201 0.212968 55
-0.862035 1.24855 0.0258732 59
-1.24474 1.26508 0.0911954 49
-0.865033 1.25337 -0.0782403 61
-1.24404 1.26525 -0.0303672 52
-0.863489 1.25252 -0.18224 77
-1.2468 1.26762 -0.152218 52
-0.863565 1.25356 -0.288556 62
-1.24235 1.2614 -0.275237 56
-0.860157 1.25044 -0.397028 59
-1.2425 1.25942 -0.399807 52
-0.857865 1.24711 0.340847 59
-1.24299 1.2582 0.463975 56
-0.856913 1.24528 0.233354 58
-1.24505 1.2646 0.337905 52
-0.857006 1.24544 0.129208 58
-1.23968 1.26219 0.212664 55
-0.857025 1.24593 0.0257859 58
-1.23924 1.26348 0.0909337 50
-0.861432 1.25282 -0.078109 61
-1.23481 1.26029 -0.0301927 50
-0.858714 1.24978 -0.181631 80
-1.24459 1.26979 -0.152218 52
-0.859988 1.25304 -0.28808 64
-1.23147 1.25478 -0.273279 55
-0.85661 1.24994 -0.396382 61
-1.23196 1.25271 -0.397 52
-0.849955 1.24957 0.340286 59
-1.22644 1.25415 0.460098 56
-0.847606 1.24566 0.232574 58
-1.2352 1.26738 0.336952 52
-0.847893 1.24564 0.128773 59
-1.22786 1.26334 0.211751 55
-0.850707 1.25025 0.0257859 59
-1.22738 1.26459 0.0905412 50
-0.853677 1.2551 -0.0779777 62
-1.22667 1.26474 -0.030149 50
-0.849373 1.25015 -0.181023 79
-1.23293 1.27073 -0.151566 52
-0.853635 1.25737 -0.28808 61
-1.22316 1.25944 -0.272887 55
-0.846213 1.24826 -0.394442 59
-1.22027 1.25392 -0.395315 53
-0.846626 1.24889 0.339724 59
-1.21749 1.24938 0.457513 56
-0.845431 1.24714 0.232574 58
-1.22784 1.26426 0.335522 52
-0.84153 1.24093 0.128119 58
-1.21872 1.25837 0.210534 56
-0.848524 1.25174 0.0257859 59
-1.22169 1.26315 0.0902795 50
-0.845891 1.24831 -0.0774526 61
-1.22098 1.26329 -0.0300618 50
-0.845801 1.24958 -0.180719 80
-1.22203 1.26395 -0.150479 50
-0.844574 1.24869 -0.285699 62
-1.21924 1.25981 -0.272496 55
-0.844033 1.24974 -0.394442 59
-1.21638 1.2543 -0.394754 52
-0.838503 1.25142 0.339162 59
-1.20925 1.25401 0.456867 55
-0.836143 1.24745 0.231793 59
-1.2195 1.26891 0.335046 52
-0.836406 1.24739 0.128337 59
-1.20867 1.26116 0.209926 55
-0.83362 1.2437 0.0255241 59
-1.2116 1.26593 0.0900178 50
-0.836568 1.24857 -0.0771901 62
-1.21261 1.26786 -0.0300181 53
-0.837868 1.25193 -0.180414 76
-1.20849 1.26315 -0.149609 50
-0.839387 1.25514 -0.286176 62
-1.20406 1.25728 -0.270538 55
-0.830781 1.24409 -0.391209 59
-1.19964 1.25014 -0.391385 50
-0.832483 1.24666 0.337478 61
-1.20538 1.25438 0.45622 56
-0.829856 1.24274 0.230623 59
-1.21218 1.26573 0.333616 52
-0.831465 1.2447 0.127901 59
-1.20303 1.25969 0.209317 56
-0.831448 1.24515 0.0255241 59
-1.2042 1.26264 0.0896253 50
-0.837156 1.25419 -0.0774526 67
-1.20348 1.26276 -0.0298436 52
-0.834307 1.25132 -0.18011 82
-1.20628 1.26526 -0.149609 52
-0.833118 1.25047 -0.284747 59
-1.19845 1.25582 -0.269755 55
-0.832616 1.25158 -0.393149 59
-1.19239 1.24696 -0.3897 47
-0.819026 1.24097 0.33467 61
-1.19212 1.25369 0.453636 56
-0.820621 1.24294 0.229842 59
-1.20215 1.26851 0.332663 52
-0.819453 1.24072 0.127029 59
-1.19129 1.26058 0.208405 55
-0.822166 1.24531 0.0254369 59
-1.1907 1.26169 0.089102 50
-0.826239 1.25244 -0.0770588 68
-1.18997 1.26179 -0.0296691 53
-0.820925 1.24531 -0.178589 82
-1.19599 1.26815 -0.149174 50
-0.825211 1.25276 -0.284271 61
-1.19015 1.26028 -0.269364 55
-0.822076 1.24986 -0.391209 59
-1.17577 1.2426 -0.386331 41
-0.815522 1.24036 0.334109 61
-1.18993 1.25577 0.453636 58
-0.81845 1.24437 0.229842 59
-1.19295 1.2637 0.330756 52
-0.817287 1.24215 0.127029 59
-1.18056 1.25365 0.206883 55
-0.822516 1.25107 0.0255241 59
-1.18507 1.26013 0.0888403 50
-0.818575 1.24553 -0.0765337 65
-1.18777 1.26386 -0.0296691 53
-0.82011 1.24881 -0.178893 80
-1.18693 1.263 -0.148304 50
-0.816301 1.24394 -0.28189 61
-1.18116 1.25518 -0.267798 55
-0.818353 1.24942 -0.390562 59
-1.17192 1.24288 -0.385769 41
-0.807474 1.24271 0.333547 61
-1.17981 1.25868 0.452343 56
-0.807674 1.24257 0.228671 59
-1.18128 1.26456 0.329327 52
-0.81191 1.24864 0.127247 59
-1.17546 1.26183 0.207188 55
-0.811874 1.24906 0.0253932 59
-1.17482 1.26288 0.0885786 50
-0.810684 1.24771 -0.0764024 68
-1.17238 1.26114 -0.0294509 53
-0.811993 1.25115 -0.178589 80
-1.1786 1.26737 -0.148087 52
-0.808225 1.24627 -0.281414 61
-1.17267 1.25975 -0.267406 56
-0.809179 1.24963 -0.389269 59
-1.16185 1.24565 -0.384646 39
-0.806843 1.24603 0.334109 59
-1.171 1.25369 0.449758 56
-0.802824 1.23983 0.227891 59
-1.17404 1.26124 0.327897 53
-0.802969 1.2396 0.126158 59
-1.16479 1.25481 0.205666 55
-0.806979 1.24628 0.025306 59
-1.16921 1.26128 0.0883169 52
-0.807151 1.24702 -0.0762711 68
-1.16677 1.25953 -0.0293637 53
-0.805772 1.24631 -0.177676 80
-1.1679 1.26032 -0.146999 52
-0.803389 1.24356 -0.280462 61
-1.1671 1.25819 -0.266623 55
-0.800461 1.24089 -0.386036 59
-1.15468 1.24234 -0.382962 39
-0.793535 1.24011 0.331301 59
-1.16277 1.25804 0.449112 56
-0.796321 1.24401 0.227891 59
-1.16408 1.26377 0.326944 53
-0.796468 1.24379 0.126158 59
-1.15483 1.25724 0.205058 56
-0.799097 1.24838 0.0252624 61
-1.15412 1.25821 0.0876627 50
-0.797923 1.24702 -0.0760086 70
-1.15507 1.26011 -0.0292328 53
-0.799235 1.25051 -0.177676 82
-1.15622 1.26092 -0.146347 52
-0.798186 1.24982 -0.280938 61
-1.15401 1.25682 -0.265057 56
-0.793953 1.24506 -0.386036 59
-1.1432 1.243 -0.381277 39
-0.78897 1.23724 0.330178 59
-1.15401 1.25298 0.446527 58
-0.791714 1.2411 0.22711 61
-1.15522 1.25859 0.325037 53
-0.790283 1.23887 0.125504 61
-1.14781 1.25358 0.204145 56
-0.795575 1.24767 0.0252187 61
-1.14877 1.25634 0.087401 50
-0.793065 1.2442 -0.075746 68
-1.15118 1.26028 -0.0291891 55
-0.791946 1.24339 -0.176459 82
-1.15233 1.26111 -0.14613 53
-0.792057 1.24499 -0.279509 61
-1.14848 1.2552 -0.264274 55
-0.790486 1.2444 -0.385389 61
-1.13959 1.243 -0.380715 42
-0.781184 1.23929 0.329617 59
-1.14439 1.25524 0.445235 58
-0.782575 1.24105 0.22633 62
-1.14552 1.2608 0.324084 53
-0.785329 1.24496 0.125722 59
-1.13956 1.25774 0.203841 58
-0.786587 1.24745 0.0251315 61
-1.13881 1.25865 0.0871394 50
-0.785211 1.24622 -0.0756148 71
-1.13974 1.26054 -0.0290583 56
-0.784104 1.24542 -0.176155 79
-1.14236 1.26344 -0.145695 53
-0.785745 1.24899 -0.279509 61
-1.13524 1.25389 -0.262708 56
-0.782894 1.24634 -0.384743 61
-1.12814 1.24356 -0.379031 49
-0.775139 1.23446 0.327932 61
-1.13731 1.25189 0.443296 56
-0.780407 1.24241 0.22633 61
-1.13484 1.25392 0.321701 53
-0.781832 1.24422 0.125504 59
-1.13069 1.25238 0.202624 58
-0.780209 1.2426 0.0250006 62
-1.12991 1.25323 0.086616 50
-0.780384 1.24336 -0.0753522 68
-1.13251 1.25697 -0.0289274 56
-0.779297 1.24258 -0.175547 80
-1.13179 1.2562 -0.144607 52
-0.778359 1.24203 -0.277605 61
-1.13305 1.25587 -0.262708 56
-0.775386 1.23965 -0.382156 61
-1.12106 1.24012 -0.377346 55
-0.764602 1.23242 0.326247 61
-1.1289 1.25623 0.44265 56
-0.774974 1.24871 0.22672 61
-1.13154 1.26349 0.322654 53
-0.772466 1.2442 0.125068 61
-1.12224 1.25663 0.20232 58
-0.773693 1.24667 0.0250006 61
-1.11978 1.25561 0.0863543 52
-0.771236 1.24318 -0.0750897 68
-1.12068 1.2575 -0.0287965 55
-0.771257 1.24466 -0.175242 82
-1.12354 1.26026 -0.14439 55
-0.772918 1.24831 -0.278081 61
-1.11986 1.25444 -0.261142 55
-0.767616 1.24164 -0.381509 61
-1.11922 1.2516 -0.379031 82
-0.763944 1.2357 0.326809 59
-1.12186 1.25282 0.440712 56
-0.766527 1.23942 0.224769 64
-1.12442 1.25998 0.321224 53
-0.767677 1.24131 0.124633 59
-1.1153 1.25284 0.201407 58
-0.767578 1.24163 0.0248697 64
-1.11447 1.25365 0.0860926 53
-0.770375 1.24665 -0.0752209 70
-1.11349 1.25386 -0.0286656 56
-0.766698 1.24165 -0.174634 85
-1.1147 1.25479 -0.14352 56
-0.768165 1.24548 -0.277128 65
-1.11602 1.25455 -0.26075 56
-0.764184 1.24092 -0.380863 59
-1.114 1.24973 -0.377908 90
-0.754927 1.23552 0.325686 61
-1.11389 1.25668 0.440065 56
-0.760027 1.24342 0.224769 61
-1.11313 1.26016 0.319795 53
-0.75879 1.24093 0.124197 61
-1.10544 1.25495 0.200799 58
-0.759983 1.24337 0.024826 64
-1.10459 1.25573 0.085831 53
-0.757557 1.23988 -0.0745646 71
-1.10382 1.25573 -0.0285783 55
-0.758896 1.24353 -0.17433 82
-1.10833 1.26041 -0.14352 55
-0.7593 1.24516 -0.276176 61
-1.10616 1.25668 -0.259967 56
-0.755386 1.24064 -0.37957 59
-1.10259 1.25007 -0.376223 59
-0.754251 1.23878 0.326247 61
-1.10849 1.25501 0.438773 56
-0.756574 1.24263 0.224379 62
-1.10931 1.26026 0.319318 53
-0.756623 1.24225 0.124197 61
-1.09503 1.24758 0.199277 58
-0.755216 1.24042 0.0247388 67
-1.10074 1.25578 0.0857001 53
-0.757984 1.24547 -0.0748271 71
-1.10163 1.25766 -0.0285783 56
-0.75415 1.24061 -0.173721 82
-1.10284 1.25861 -0.143085 55
-0.755853 1.24438 -0.2757 62
-1.1007 1.25491 -0.259184 56
-0.75572 1.24609 -0.380863 61
-1.09556 1.24652 -0.374539 55
-0.743776 1.23658 0.324563 61
-1.09871 1.25717 0.437481 55
-0.748786 1.24446 0.223989 62
-1.09784 1.26051 0.317888 53
-0.746262 1.23979 0.123543 61
-1.08849 1.2533 0.199277 58
-0.747424 1.24221 0.0246952 65
-1.08923 1.25588 0.0853076 53
-0.74995 1.24741 -0.0746958 68
-1.09338 1.26152 -0.0285347 58
-0.747644 1.24454 -0.173721 85
-1.0911 1.25892 -0.142433 55
-0.749327 1.24832 -0.2757 65
-1.08924 1.25507 -0.25801 59
-0.745466 1.24381 -0.378923 61
-1.08581 1.24857 -0.373416 55
-0.741617 1.23788 0.324563 59
-1.09493 1.25727 0.436834 55
-0.746613 1.24576 0.223989 62
-1.09219 1.25892 0.316935 53
-0.744097 1.24109 0.123543 62
-1.08141 1.24958 0.198365 58
-0.743755 1.2415 0.0246515 65
-1.08212 1.25213 0.0849151 55
-0.747771 1.24872 -0.0746958 68
-1.08462 1.25588 -0.0283602 58
-0.744199 1.24371 -0.173417 85
-1.08564 1.25707 -0.141998 55
-0.74589 1.24752 -0.275224 62
-1.08543 1.25511 -0.257618 59
-0.740606 1.24109 -0.37763 59
-1.08203 1.24863 -0.372854 55
-0.732431 1.23768 0.32344 61
-1.08178 1.25587 0.43425 55
-0.734838 1.24128 0.222428 62
-1.08398 1.26276 0.316459 52
-0.734837 1.24081 0.123107 64
-1.07139 1.25165 0.197756 59
-0.735973 1.24323 0.0246079 65
-1.07207 1.25418 0.0846534 53
-0.736146 1.24401 -0.0741707 73
-1.07455 1.25794 -0.0282729 58
-0.736198 1.24558 -0.173113 85
-1.08066 1.26462 -0.142215 55
-0.740376 1.25365 -0.2757 62
-1.07379 1.25535 -0.256444 61
-0.730424 1.23871 -0.37569 61
-1.07208 1.25078 -0.371731 53
-0.728016 1.23463 0.322317 58
-1.07643 1.2541 0.432957 55
-0.731418 1.24043 0.222038 62
-1.07537 1.25721 0.314552 53
-0.731407 1.23994 0.12289 61
-1.06274 1.24599 0.196539 59
-0.733802 1.24451 0.0246079 65
-1.06663 1.25226 0.0843917 55
-0.730177 1.23884 -0.0737769 74
-1.06911 1.25602 -0.0281856 55
-0.732766 1.24473 -0.172808 85
-1.07197 1.25894 -0.141346 55
-0.730733 1.24224 -0.272843 62
-1.06839 1.25347 -0.255661 61
-0.730703 1.24415 -0.376983 59
-1.06513 1.2471 -0.370046 55
-0.719093 1.23421 0.321194 61
-1.06693 1.25587 0.431665 55
-0.722648 1.23985 0.221257 64
-1.0674 1.26077 0.314076 53
-0.723869 1.24148 0.122672 61
-1.05321 1.24757 0.195931 59
-0.72498 1.24389 0.0245206 64
-1.05544 1.25193 0.0839992 55
-0.72368 1.24265 -0.0737769 71
-1.05465 1.25188 -0.0279675 58
-0.723965 1.24413 -0.1722 83
-1.05893 1.25694 -0.140476 55
-0.720741 1.23956 -0.271415 67
-1.06043 1.25698 -0.255269 61
-0.717134 1.23529 -0.373103 61
-1.05407 1.24691 -0.368362 55
-0.718158 1.23757 0.321755 59
-1.06317 1.25589 0.431019 55
-0.719245 1.23897 0.220867 62
-1.06181 1.25907 0.313122 53
-0.717955 1.23627 0.122018 64
-1.04783 1.24561 0.195322 59
-0.721339 1.24311 0.024477 65
-1.04842 1.24805 0.0836067 53
-0.720259 1.24175 -0.0736456 73
-1.05408 1.25562 -0.0280111 59
-0.718066 1.23894 -0.171287 86
-1.05673 1.25878 -0.140476 56
-0.718576 1.24081 -0.271415 65
-1.05186 1.25129 -0.253703 59
-0.714761 1.23667 -0.373103 59
-1.05032 1.24689 -0.3678 55
-0.709033 1.23721 0.320632 59
-1.04858 1.25239 0.427787 55
-0.711305 1.2407 0.220477 65
-1.05362 1.26274 0.312646 53
-0.712493 1.2423 0.122236 62
-1.03948 1.24936 0.195018 61
-0.712338 1.24253 0.0243897 67
-1.04005 1.25178 0.0834758 52
-0.713748 1.2455 -0.0736456 73
-1.04407 1.25747 -0.0279238 61
-0.708891 1.2385 -0.170679 88
-1.04374 1.25665 -0.139606 55
-0.711852 1.24468 -0.271415 64
-1.04349 1.25507 -0.253312 59
-0.709472 1.24249 -0.37375 59
-1.04043 1.24882 -0.366677 55
-0.707089 1.23832 0.320632 58
-1.04329 1.25051 0.426495 55
-0.707916 1.2398 0.220086 67
-1.04669 1.25893 0.311216 55
-0.70909 1.24138 0.122018 59
-1.03412 1.24736 0.19441 61
-0.708931 1.2416 0.0243461 70
-1.03626 1.25168 0.083345 53
-0.710338 1.24458 -0.0735143 77
-1.04027 1.25737 -0.0278802 61
-0.703048 1.23327 -0.169766 85
-1.03676 1.25273 -0.138954 55
-0.707254 1.24166 -0.270462 67
-1.03655 1.2512 -0.252137 59
-0.703727 1.23743 -0.37181 59
-1.03356 1.24502 -0.364993 56
-0.696795 1.23576 0.318947 59
-1.03519 1.2541 0.425849 53
-0.698993 1.23918 0.219306 65
-1.03696 1.26061 0.310263 53
-0.698915 1.23856 0.121364 56
-1.02441 1.24893 0.193801 61
-0.697516 1.23658 0.0241716 67
-1.02493 1.25131 0.0829525 53
-0.705035 1.25046 -0.0736456 74
-1.0305 1.25894 -0.027793 61
-0.692934 1.23044 -0.168853 88
-1.02702 1.2543 -0.138519 56
-0.69834 1.24106 -0.26951 67
-1.02864 1.25452 -0.251746 59
-0.696057 1.23899 -0.371163 59
-1.02237 1.24479 -0.363308 56
-0.692471 1.2326 0.317824 61
-1.02992 1.25219 0.424556 55
-0.695838 1.23813 0.218916 65
-1.03163 1.25863 0.30931 53
-0.697971 1.24195 0.121582 59
-1.02087 1.24862 0.193497 59
-0.695357 1.2378 0.0241716 67
-1.0198 1.24906 0.0826908 53
-0.697971 1.24297 -0.0731205 79
-1.02513 1.25687 -0.0277057 59
-0.691001 1.23153 -0.168853 88
-1.02009 1.25031 -0.137866 56
-0.697371 1.24442 -0.269986 67
-1.02331 1.2525 -0.250962 59
-0.693894 1.2402 -0.371163 59
-1.02041 1.24639 -0.363308 55
-0.684828 1.23408 0.317263 61
-1.02203 1.25551 0.42391 53
-0.688149 1.23959 0.218526 65
-1.02215 1.26003 0.308356 55
-0.688055 1.23894 0.120929 62
-1.00962 1.24818 0.192584 59
-0.689083 1.2413 0.0241716 65
-1.01167 1.25244 0.08256 55
-0.691453 1.24661 -0.0731205 68
-1.01402 1.25623 -0.0275748 59
-0.685744 1.2373 -0.169158 86
-1.01353 1.25564 -0.137866 56
-0.685129 1.2372 -0.267605 68
-1.01206 1.25209 -0.249788 59
-0.684109 1.23735 -0.369224 59
-1.0108 1.24794 -0.362185 56
-0.683849 1.23741 0.317824 59
-1.01526 1.25168 0.421972 55
-0.683599 1.23647 0.217745 67
-1.01508 1.25628 0.306927 55
-0.683485 1.23577 0.120493 64
-1.00275 1.24416 0.191671 59
-0.685492 1.24043 0.0241279 65
-1.00634 1.25033 0.0822983 55
-0.686866 1.24344 -0.072858 71
-1.00711 1.25216 -0.0274439 59
-0.679992 1.23197 -0.168245 88
-1.00977 1.25547 -0.137649 56
-0.685335 1.24269 -0.268558 68
-1.00677 1.25002 -0.249005 59
-0.68057 1.23655 -0.368577 59
-1.00401 1.24403 -0.360501 56
-0.677144 1.24109 0.317824 58
-1.00392 1.25152 0.420033 55
-0.676899 1.24015 0.217745 67
-1.00849 1.26158 0.306927 55
-0.67798 1.24164 0.120711 62
-0.994456 1.24763 0.191367 59
-0.677792 1.24181 0.0240843 68
-0.997999 1.2538 0.0821674 55
-0.677959 1.24263 -0.0725954 76
-0.9972 1.25369 -0.0273566 58
-0.672132 1.23345 -0.167941 88
-1.00007 1.25685 -0.137214 56
-0.678601 1.24638 -0.268558 68
-0.99403 1.24757 -0.247439 61
-0.674086 1.24009 -0.368577 59
-0.995739 1.24754 -0.359939 56
-0.670549 1.23358 0.315578 61
-0.997196 1.24762 0.418094 55
-0.671418 1.2347 0.216574 64
-0.998611 1.25376 0.304544 53
-0.673437 1.23844 0.120275 61
-0.989396 1.24531 0.190759 61
-0.67324 1.2386 0.0239971 67
-0.991356 1.24952 0.0817749 55
-0.67341 1.23943 -0.0723329 74
-0.99501 1.25543 -0.0273566 61
-0.666648 1.22796 -0.167028 88
-0.993216 1.25275 -0.136562 55
-0.674089 1.24324 -0.267605 68
-0.99031 1.24737 -0.247047 61
-0.670773 1.23914 -0.36793 59
-0.990733 1.2453 -0.358816 56
-0.664081 1.23708 0.315578 61
-0.98786 1.24888 0.416802 55
-0.66611 1.24037 0.216965 65
-0.992252 1.2588 0.304544 53
-0.662454 1.23306 0.119403 62
-0.981323 1.24853 0.190454 61
-0.665782 1.23979 0.0239534 70
-0.9848 1.25469 0.0817749 53
-0.666911 1.24294 -0.0723329 73
-0.983997 1.25456 -0.0272258 59
-0.66138 1.23362 -0.167332 89
-0.986643 1.25794 -0.136562 55
-0.664318 1.24015 -0.266177 68
-0.983765 1.25254 -0.247047 61
-0.657672 1.22974 -0.36405 58
-0.981174 1.24665 -0.357693 56
-0.66192 1.23823 0.315578 59
-0.984178 1.24871 0.416156 56
-0.662782 1.23935 0.216574 67
-0.98527 1.25492 0.303114 55
-0.661473 1.23641 0.119621 62
-0.979142 1.25024 0.190454 59
-0.658696 1.23224 0.0237789 74
-0.977977 1.25052 0.0813824 53
-0.663566 1.24189 -0.0722016 73
-0.978716 1.25235 -0.0271385 59
-0.655726 1.22821 -0.166419 88
-0.978288 1.25182 -0.135692 56
-0.659846 1.23697 -0.265224 62
-0.975467 1.2465 -0.245481 59
-0.65531 1.231 -0.36405 59
-0.974469 1.24263 -0.356008 56
-0.654077 1.23964 0.315017 59
-0.971446 1.24641 0.413571 56
-0.654916 1.24074 0.216184 67
-0.978686 1.26007 0.303114 55
-0.654774 1.23997 0.119621 61
-0.966262 1.24769 0.189237 61
-0.65107 1.23346 0.0237353 74
-0.966597 1.24988 0.0809899 53
-0.655892 1.24314 -0.0720703 74
-0.968857 1.25368 -0.0270512 59
-0.647917 1.22954 -0.166115 88
-0.968662 1.253 -0.135257 56
-0.652003 1.23835 -0.264748 62
-0.96741 1.24964 -0.24509 59
-0.651098 1.23869 -0.365344 59
-0.964734 1.24404 -0.354885 56
-0.650997 1.23851 0.314455 59
-0.964807 1.2424 0.411632 56
-0.650672 1.23739 0.215404 67
-0.971961 1.25596 0.301684 55
-0.646824 1.23008 0.118532 59
-0.959735 1.24333 0.188325 61
-0.650077 1.23681 0.0237789 71
-0.963102 1.24943 0.0808591 53
-0.65488 1.2465 -0.0722016 76
-0.962075 1.24944 -0.0269203 59
-0.644833 1.22836 -0.165811 88
-0.963422 1.25075 -0.134822 56
-0.648703 1.23731 -0.264272 64
-0.963713 1.24938 -0.244698 61
-0.645582 1.2334 -0.363404 59
-0.961283 1.24363 -0.354324 56
-0.643384 1.23974 0.313894 59
-0.957029 1.24535 0.410986 56
-0.643049 1.23859 0.215014 67
-0.961097 1.25504 0.300254 55
-0.64059 1.23334 0.118532 59
-0.9517 1.24637 0.18802 61
-0.643809 1.24008 0.0237789 73
-0.948948 1.24455 0.0802048 53
-0.644902 1.24326 -0.0718078 79
-0.955738 1.25429 -0.0269203 59
-0.637253 1.22951 -0.165507 86
-0.955344 1.2538 -0.134604 56
-0.642432 1.24058 -0.264272 62
-0.951143 1.24657 -0.243132 61
-0.638224 1.23451 -0.362757 61
-0.951787 1.24479 -0.353201 56
-0.638987 1.23653 0.312771 58
-0.95338 1.24511 0.41034 56
-0.637491 1.23312 0.213843 71
-0.957192 1.25493 0.299778 55
-0.64072 1.23888 0.118968 62
-0.946506 1.24409 0.187412 59
-0.636846 1.23243 0.0236044 71
-0.946774 1.2462 0.0802048 53
-0.640445 1.23994 -0.0715452 74
-0.94596 1.24603 -0.0267022 61
-0.632835 1.22621 -0.164898 88
-0.951643 1.25349 -0.134387 55
-0.640266 1.2417 -0.264272 62
-0.948966 1.24823 -0.243132 61
-0.636956 1.23788 -0.363404 59
-0.946648 1.24258 -0.352078 56
-0.628974 1.23345 0.311086 59
-0.942238 1.24449 0.408401 56
-0.630809 1.23656 0.213843 68
-0.949124 1.25797 0.299301 55
-0.630618 1.23567 0.118314 59
-0.936765 1.24523 0.186804 61
-0.631518 1.23797 0.023648 74
-0.940018 1.25131 0.0802048 52
-0.635075 1.2455 -0.0716765 76
-0.939205 1.25113 -0.0267022 59
-0.626191 1.22962 -0.164898 88
-0.942063 1.25448 -0.133952 56
-0.630206 1.23858 -0.262844 62
-0.937947 1.24728 -0.241958 62
-0.630466 1.2412 -0.363404 59
-0.936967 1.2438 -0.350955 58
-0.629237 1.23879 0.312209 59
-0.940064 1.24613 0.408401 58
-0.62775 1.23534 0.213453 70
-0.943965 1.25571 0.298348 55
-0.625083 1.23011 0.11766 61
-0.934808 1.2467 0.186804 61
-0.627097 1.23462 0.0235607 73
-0.933544 1.2468 0.0798123 53
-0.630645 1.24216 -0.0714139 79
-0.93251 1.24678 -0.0265713 61
-0.625379 1.23281 -0.165202 86
-0.93388 1.24816 -0.133082 56
-0.628044 1.23968 -0.262844 62
-0.937255 1.25088 -0.242349 62
-0.625035 1.23583 -0.361464 61
-0.932075 1.24138 -0.349832 58
-0.621653 1.23989 0.311648 59
-0.926492 1.24122 0.40517 55
-0.620168 1.2364 0.213062 70
-0.934656 1.25654 0.297395 55
-0.619963 1.23548 0.117878 68
-0.923814 1.24562 0.185891 61
-0.62084 1.23777 0.0235607 71
-0.922526 1.24567 0.0794198 55
-0.624132 1.24544 -0.0714139 77
-0.924694 1.24947 -0.0265277 62
-0.616698 1.23163 -0.164594 85
-0.925844 1.25104 -0.132865 56
-0.620665 1.24064 -0.262367 62
-0.92774 1.25181 -0.241566 61
-0.615542 1.23249 -0.359524 59
-0.924104 1.2443 -0.34927 56
-0.61623 1.23443 0.309963 59
