# .PCD v0.7 - Point Cloud Data file format
VERSION 0.7
FIELDS x y z intensity
SIZE 4 4 4 4
TYPE F F F F
COUNT 1 1 1 1
WIDTH 1553
HEIGHT 1
VIEWPOINT 0 0 0 1 0 0 0
POINTS 1553
DATA ascii
1.94101 -6.56157 1.82165 1
1.93997 -6.60007 1.32922 35
0.246831 -2.26297 0.1961 9
1.92844 -6.59478 0.838182 35
0.249743 -2.29355 0.0396606 55
1.44929 -4.97322 0.269661 9
0.249714 -2.30079 -0.119855 53
1.43951 -4.94616 -0.0893127 8
0.248501 -2.29701 -0.278988 52
1.44475 -4.96415 -0.448392 47
0.248188 -2.30159 -0.442358 50
1.34005 -4.59384 -0.753279 4
0.246568 -2.30147 -0.610415 59
0.935305 -3.19924 -0.760308 4
1.9357 -6.58579 1.82747 1
1.92591 -6.59907 1.32827 35
0.242353 -2.25844 0.195665 9
1.91485 -6.59099 0.837269 36
0.244546 -2.28657 0.0395297 53
1.43573 -4.95896 0.268745 9
0.245171 -2.29626 -0.119592 55
1.43087 -4.94866 -0.0893127 21
0.244231 -2.29497 -0.278684 53
1.43469 -4.96188 -0.447957 47
0.243141 -2.29226 -0.440453 52
1.3341 -4.60328 -0.754454 4
0.242149 -2.30194 -0.610415 59
0.931086 -3.20554 -0.761431 4
0.570424 -5.64093 1.29881 11
1.90205 -6.60313 1.82941 1
0.570684 -5.63379 0.889321 12
1.88863 -6.59963 1.32636 33
0.229628 -2.25477 0.195229 9
1.87712 -6.5941 0.836356 36
0.233073 -2.29279 0.039617 53
1.40683 -4.95945 0.268353 4
0.233395 -2.3 -0.119723 55
1.40134 -4.94672 -0.0891382 45
0.231563 -2.29379 -0.27838 52
1.40733 -4.96453 -0.447522 47
0.230979 -2.29598 -0.44093 50
1.31337 -4.62208 -0.756411 4
0.229377 -2.29597 -0.608475 61
0.913728 -3.21053 -0.761431 4
0.563006 -5.65637 1.30218 11
1.88253 -6.57858 1.82165 1
0.564766 -5.66416 0.894004 12
1.87576 -6.5982 1.32541 35
0.225693 -2.25516 0.195229 9
1.8654 -6.59226 0.835748 35
0.228083 -2.28324 0.0394424 55
1.39632 -4.95205 0.267829 8
0.229381 -2.3004 -0.119723 56
1.39407 -4.95396 -0.0892254 45
0.227715 -2.29168 -0.278076 53
1.39731 -4.96219 -0.447087 47
0.227211 -2.29883 -0.441406 52
1.3026 -4.61486 -0.754845 4
0.225369 -2.29637 -0.608475 59
0.910017 -3.21665 -0.762554 4
0.534978 -5.67622 1.30611 11
1.83612 -6.54153 1.80873 1
1.84168 -6.60524 1.32493 36
0.21334 -2.24636 0.194357 9
1.83086 -6.60194 0.835748 35
0.216524 -2.28437 0.0394424 56
0.216866 -2.2966 -0.119461 56
1.36497 -4.9465 -0.0889636 45
0.215251 -2.2879 -0.277467 55
1.37131 -4.96944 -0.447087 47
0.214663 -2.29017 -0.439501 52
1.27776 -4.61924 -0.754454 4
0.213077 -2.29026 -0.606535 59
0.892508 -3.21902 -0.761993 4
1.82795 -6.55636 1.81196 1
1.82571 -6.59694 1.32255 36
0.209648 -2.24921 0.194575 9
1.81603 -6.59317 0.834227 35
0.213056 -2.29474 0.039617 56
0.212858 -2.29697 -0.119461 55
1.35766 -4.9537 -0.0890509 45
0.211711 -2.29322 -0.278076 53
1.35933 -4.95982 -0.446 47
0.210889 -2.29299 -0.439977 52
1.26642 -4.60956 -0.752496 4
0.20955 -2.30029 -0.609122 58
0.884938 -3.21353 -0.760308 4
1.80074 -6.59643 1.82036 1
1.78921 -6.59931 1.32112 36
0.197908 -2.25527 0.195011 11
1.77839 -6.59571 0.833314 33
0.201254 -2.29831 0.0396606 58
0.200612 -2.29557 -0.11933 56
1.32889 -4.95373 -0.08892 45
0.1993 -2.29433 -0.278076 53
1.33205 -4.96206 -0.445565 47
0.1989 -2.29899 -0.44093 52
1.24419 -4.62328 -0.75367 8
0.197298 -2.29895 -0.608475 59
0.868813 -3.22298 -0.761431 4
1.77972 -6.56461 1.81067 1
0.196786 -2.28844 0.357445 3
1.77641 -6.59768 1.32017 35
0.19376 -2.25313 0.194793 11
1.76545 -6.58891 0.832097 30
0.196818 -2.29368 0.0395733 58
0.196182 -2.29094 -0.119067 58
1.31895 -4.95121 -0.0888327 45
0.195696 -2.29464 -0.278076 55
1.32017 -4.95234 -0.444477 45
0.194475 -2.29444 -0.439977 52
1.23164 -4.60875 -0.75093 4
0.193486 -2.3017 -0.609122 59
0.86375 -3.22434 -0.761431 4
1.75332 -6.5992 1.81777 12
0.184604 -2.28698 0.357055 9
1.73986 -6.59472 1.31778 35
0.182154 -2.2516 0.194575 11
1.72651 -6.58126 0.829967 29
0.185406 -2.29714 0.039617 59
1.29909 -4.97069 0.267437 8
0.184184 -2.29194 -0.119067 58
1.29324 -4.95541 -0.0887891 44
0.183286 -2.29069 -0.277467 53
1.29548 -4.96401 -0.444912 42
0.182666 -2.29295 -0.439501 52
1.21001 -4.62469 -0.752496 4
0.181645 -2.30024 -0.608475 59
0.365631 -4.659 1.06915 1
1.72573 -6.54155 1.80097 1
1.72657 -6.59568 1.31731 35
0.178224 -2.25192 0.194575 11
0.181385 -2.30247 0.0397042 61
1.28223 -4.94155 0.265736 4
0.180766 -2.29972 -0.119461 59
1.2783 -4.93347 -0.0883528 9
0.179096 -2.28853 -0.277163 55
1.26926 -4.89877 -0.438824 2
0.178853 -2.29571 -0.439977 52
1.19632 -4.60529 -0.748972 4
0.176677 -2.29336 -0.606535 61
0.337591 -4.62204 1.06016 1
0.166037 -2.25285 0.194575 11
0.1686 -2.29342 0.0395297 65
1.25178 -4.9339 0.264951 1
0.16836 -2.29566 -0.119198 61
1.23865 -4.88944 -0.0874365 2
0.167068 -2.29441 -0.277771 56
1.24482 -4.91018 -0.439258 2
0.166254 -2.29419 -0.439501 52
1.16773 -4.59734 -0.746623 4
0.164495 -2.29184 -0.605889 61
0.162282 -2.25562 0.194793 11
0.164597 -2.29371 0.0395297 68
1.23766 -4.91429 0.263773 2
0.164177 -2.29346 -0.119067 62
0.162889 -2.29223 -0.277467 56
1.23625 -4.91234 -0.439258 2
0.161906 -2.28958 -0.438549 52
1.16213 -4.60894 -0.748189 4
0.160495 -2.29213 -0.605889 61
1.23269 -4.92035 1.34798 1
1.22133 -4.91116 0.976065 2
0.150864 -2.25641 0.194793 11
0.152821 -2.29202 0.0394861 70
0.15233 -2.29678 -0.119198 64
0.1508 -2.28559 -0.276554 56
0.150475 -2.29282 -0.439025 52
0.149046 -2.29532 -0.606535 59
0.367286 -5.70417 1.30948 1
1.21942 -4.90375 1.34281 1
1.21189 -4.9135 0.976065 2
0.146925 -2.25667 0.194793 11
0.14826 -2.28981 0.0394424 74
0.148321 -2.29704 -0.119198 64
0.147125 -2.29081 -0.277163 55
0.146163 -2.28818 -0.438073 52
0.144489 -2.29319 -0.605889 61
0.33599 -5.69878 1.3078 1
1.20145 -4.94547 1.35251 2
0.134567 -2.25495 0.194575 12
0.136269 -2.29056 0.0394424 79
0.135853 -2.29031 -0.118804 64
0.134585 -2.28909 -0.276859 56
0.13378 -2.28894 -0.438073 52
0.13248 -2.29392 -0.605889 59
0.327455 -5.7066 1.30948 4
0.130631 -2.25518 0.194575 12
0.132556 -2.29578 0.0395297 80
0.131429 -2.28306 -0.118411 62
0.130989 -2.2893 -0.276859 56
0.129923 -2.29162 -0.438549 52
0.128342 -2.29173 -0.605242 61
0.298707 -5.73013 1.31454 1
0.118955 -2.25084 0.194139 12
0.120674 -2.29143 0.0394424 80
0.119473 -2.28372 -0.118411 64
0.119128 -2.29243 -0.277163 58
0.118197 -2.2898 -0.438073 52
0.116863 -2.29477 -0.605889 59
0.289193 -5.74038 1.31678 3
0.290749 -5.75158 0.90454 12
0.115152 -2.25353 0.194357 12
0.11615 -2.28916 0.0393988 85
0.115487 -2.28392 -0.118411 65
0.115003 -2.29016 -0.276859 58
0.1142 -2.29 -0.438073 52
0.11234 -2.29257 -0.605242 59
0.262616 -5.81967 0.915076 21
0.102845 -2.25163 0.194139 12
0.104274 -2.29224 0.0394424 85
0.103639 -2.28699 -0.118542 67
0.10272 -2.29323 -0.277163 58
0.101916 -2.29304 -0.438549 52
0.0998142 -2.28107 -0.602009 59
0.24375 -5.59558 0.879565 27
0.0992385 -2.25927 0.194793 14
0.100381 -2.29491 0.0394861 90
0.0999685 -2.29465 -0.118936 73
0.0990124 -2.2909 -0.276859 58
0.49975 -2.26141 -0.199188 8
0.0977076 -2.28831 -0.437596 52
0.500797 -2.25883 -0.36137 4
0.0960326 -2.28606 -0.603302 64
0.50124 -2.24995 -0.523343 3
0.212585 -5.57307 1.27747 24
0.213322 -5.56717 0.874883 29
0.0878973 -2.26223 0.195011 14
0.0886691 -2.29289 0.0394424 89
0.486688 -2.25461 0.119064 8
0.0882584 -2.29263 -0.118804 79
0.485433 -2.2526 -0.039617 9
0.0871087 -2.29387 -0.277163 58
0.486177 -2.25418 -0.198319 8
0.0858519 -2.28142 -0.436168 52
0.486329 -2.24936 -0.359413 8
0.084373 -2.28411 -0.602656 61
0.490497 -2.25731 -0.524467 4
0.192689 -5.26665 1.20672 1
0.20468 -5.59714 0.879565 18
0.0841305 -2.26736 0.195447 14
0.485067 -2.25861 0.278988 8
0.0845764 -2.29055 0.0393988 90
0.480114 -2.24325 0.11841 9
0.0841667 -2.29029 -0.118673 79
0.479391 -2.24367 -0.0394424 9
0.0829283 -2.28906 -0.276554 58
0.482242 -2.25503 -0.198319 11
0.0822159 -2.29137 -0.438073 52
0.48188 -2.24779 -0.359021 9
0.0806366 -2.29149 -0.604595 61
0.48552 -2.2534 -0.523343 9
0.177595 -5.66971 0.890882 26
0.0721019 -2.26279 0.195011 14
0.469641 -2.24413 0.276859 9
0.072582 -2.29096 0.0393988 90
0.467332 -2.24085 0.118148 11
0.0718506 -2.29321 -0.118804 85
0.468666 -2.25104 -0.0395297 8
0.0709417 -2.28946 -0.276554 58
0.469521 -2.25517 -0.198101 8
0.0700699 -2.28687 -0.43712 52
0.468574 -2.24304 -0.357847 3
0.0684958 -2.28705 -0.603302 61
0.472704 -2.25114 -0.52222 4
0.168713 -5.70457 0.896345 35
0.0682259 -2.2654 0.195229 14
0.466232 -2.24737 0.277163 8
0.0681835 -2.29109 0.0393988 90
0.463931 -2.24411 0.118279 9
0.0677034 -2.28834 -0.118542 86
0.462695 -2.24207 -0.0393552 9
0.0667327 -2.28214 -0.275642 59
0.463551 -2.24623 -0.197231 9
0.0660091 -2.28453 -0.436644 52
0.46567 -2.24868 -0.35863 3
0.064171 -2.2896 -0.603949 61
0.467771 -2.2472 -0.521097 3
0.136669 -5.69729 1.30555 23
0.137492 -5.69059 0.894004 32
0.0557881 -2.25827 0.194575 14
0.452082 -2.24014 0.275946 9
0.0561865 -2.29142 0.0393988 90
0.451285 -2.24414 0.118148 8
0.0557801 -2.29116 -0.118673 90
0.450061 -2.24209 -0.0393115 9
0.0544994 -2.28743 -0.27625 59
0.452279 -2.25107 -0.197449 9
0.053816 -2.29222 -0.438073 52
0.451424 -2.23899 -0.356672 3
0.0521819 -2.2899 -0.603949 61
0.457071 -2.25686 -0.522782 3
0.127234 -5.67558 1.3005 15
0.128222 -5.67599 0.891662 26
0.0519578 -2.26334 0.195011 15
0.448071 -2.23841 0.275642 8
0.052298 -2.29651 0.0394861 90
0.448747 -2.24974 0.11841 8
0.0517812 -2.29125 -0.118673 90
0.444669 -2.23552 -0.0391806 8
0.0509599 -2.29 -0.276554 59
0.448841 -2.25429 -0.197666 8
0.0497634 -2.28985 -0.437596 53
0.448982 -2.24704 -0.357847 3
0.0480372 -2.28274 -0.602009 64
0.451102 -2.24563 -0.519974 3
0.0967728 -5.63233 1.29039 14
0.0981208 -5.65436 0.88815 15
0.0404153 -2.2586 0.194575 15
0.435386 -2.23586 0.275033 4
0.0406309 -2.29425 0.0394424 90
0.435519 -2.24471 0.118018 8
0.0398254 -2.29399 -0.118804 90
0.433828 -2.24019 -0.0392243 9
0.0389282 -2.28775 -0.27625 61
0.435595 -2.24928 -0.197014 8
0.038094 -2.28517 -0.436644 52
0.435782 -2.24209 -0.356672 3
0.0364456 -2.28054 -0.601362 61
0.438865 -2.24557 -0.519413 4
0.0861656 -5.58133 1.2786 15
0.0876072 -5.61255 0.881517 30
0.0364733 -2.25866 0.194575 17
0.433383 -2.24636 0.27625 4
0.0361503 -2.28932 0.0393552 90
0.432077 -2.24791 0.118148 9
0.0357841 -2.29156 -0.118673 90
0.429918 -2.24095 -0.0392243 9
0.0349716 -2.2903 -0.276554 59
0.431195 -2.24759 -0.196796 8
0.0341056 -2.28523 -0.436644 53
0.432812 -2.2477 -0.357455 4
0.0320672 -2.28061 -0.601362 64
0.434009 -2.24156 -0.51829 4
0.056038 -5.58903 1.28028 20
0.0572884 -5.61788 0.882297 30
0.0242018 -2.25385 0.194139 20
0.419375 -2.23892 0.275033 4
0.024163 -2.28948 0.0393552 91
0.418982 -2.24531 0.117887 11
0.0237851 -2.29171 -0.118673 90
0.416398 -2.23587 -0.0390934 9
0.0225336 -2.28549 -0.275946 59
0.021719 -2.28293 -0.436168 53
0.418741 -2.2378 -0.355498 4
0.0201255 -2.28075 -0.601362 59
0.423695 -2.25344 -0.520536 4
0.0473786 -5.60372 1.28365 18
0.0485879 -5.63278 0.884638 30
0.020289 -2.25638 0.194357 21
0.417232 -2.24689 0.275946 4
0.020167 -2.28952 0.0393552 95
0.415455 -2.24597 0.117887 15
0.0197653 -2.28925 -0.118542 90
0.411578 -2.23168 -0.0390061 9
0.0189816 -2.29048 -0.276554 62
0.0177697 -2.28787 -0.43712 52
0.416654 -2.24824 -0.357064 4
0.0161449 -2.28078 -0.601362 64
0.419252 -2.24932 -0.519413 4
0.018066 -5.61364 1.2859 15
0.0191175 -5.64036 0.885809 32
0.00885996 -2.25396 0.194139 23
0.403235 -2.23684 0.274425 4
0.00858636 -2.29209 0.0393988 95
0.40235 -2.24074 0.117494 17
0.00777853 -2.28933 -0.118542 90
0.400278 -2.23374 -0.0390061 9
0.00697031 -2.28311 -0.275642 61
0.00618441 -2.28548 -0.436644 53
0.402665 -2.23824 -0.355106 8
0.00460402 -2.28324 -0.602009 62
0.406591 -2.24669 -0.51829 4
0.00830699 -5.64533 1.2932 15
0.00929731 -5.65767 0.888541 30
0.00492213 -2.25148 0.193922 23
0.399771 -2.23998 0.274729 8
0.00418279 -2.28961 0.0393552 91
0.399323 -2.24636 0.117756 15
0.0037829 -2.28934 -0.118542 90
0.398587 -2.24673 -0.0392243 11
0.00299072 -2.29056 -0.276554 61
0.00219635 -2.28794 -0.43712 53
0.400072 -2.24623 -0.356281 8
0.000220504 -2.28325 -0.602009 64
0.405278 -2.26178 -0.521659 4
-0.02138 -5.44066 1.24603 1
-0.0214425 -5.68974 0.893613 32
-0.00725 -2.24898 0.193704 23
0.387218 -2.23967 0.274425 9
-0.00781559 -2.2921 0.0393988 96
0.388878 -2.25832 0.118279 14
-0.00819357 -2.28683 -0.118411 90
0.386426 -2.24886 -0.0392243 12
-0.00939069 -2.28806 -0.27625 62
-0.0101577 -2.28301 -0.436168 53
0.388731 -2.25073 -0.356672 4
-0.0117067 -2.27839 -0.600716 64
0.392613 -2.26154 -0.521097 4
-0.0314415 -5.70372 1.30667 24
-0.0304902 -5.70945 0.896735 33
-0.0111891 -2.25146 0.193922 24
0.386244 -2.25494 0.27625 9
-0.011816 -2.29208 0.0393988 97
0.384905 -2.25647 0.118148 12
-0.0121848 -2.28681 -0.118411 90
0.3825 -2.24953 -0.0392243 8
-0.0130003 -2.29053 -0.276554 65
-0.0141423 -2.28299 -0.436168 53
0.386908 -2.26357 -0.35863 4
-0.0157195 -2.2832 -0.602009 64
0.389896 -2.26695 -0.52222 3
-0.0612252 -5.69617 1.30499 20
-0.0601972 -5.69193 0.894004 29
-0.0226376 -2.25635 0.194357 27
0.374432 -2.25693 0.27625 2
-0.0234441 -2.29449 0.0394424 97
0.374322 -2.26584 0.118541 3
-0.0237592 -2.28672 -0.118411 90
0.373168 -2.26376 -0.0394424 4
-0.0249647 -2.28794 -0.27625 62
-0.0257556 -2.28779 -0.43712 53
0.377093 -2.27774 -0.360587 8
-0.0272755 -2.28309 -0.602009 62
0.378021 -2.26896 -0.52222 3
-0.0671726 -5.45734 1.24996 1
-0.0698211 -5.66713 0.890101 24
-0.0265448 -2.25382 0.194139 26
0.369271 -2.25024 0.275337 2
-0.0274173 -2.29194 0.0393988 98
0.370774 -2.26895 0.118672 9
-0.027782 -2.28917 -0.118542 90
0.368809 -2.26194 -0.0393988 9
-0.0289579 -2.2879 -0.27625 65
-0.0297485 -2.28775 -0.43712 53
0.371904 -2.27108 -0.359413 4
-0.0311911 -2.27821 -0.600716 61
0.374863 -2.27443 -0.523343 4
-0.100835 -5.63226 1.29039 14
-0.0999494 -5.63704 0.885419 21
-0.03865 -2.24866 0.193704 24
0.359453 -2.2669 0.277163 9
-0.0398175 -2.29176 0.0393988 98
0.358098 -2.26846 0.118541 8
-0.0402125 -2.29148 -0.118673 90
0.355777 -2.25897 -0.0393115 9
-0.0412434 -2.28275 -0.275642 65
-0.0420792 -2.2851 -0.436644 52
0.361573 -2.28275 -0.360979 4
-0.0436121 -2.28283 -0.602009 64
0.362163 -2.27402 -0.522782 4
-0.109057 -5.60043 1.28309 14
-0.108273 -5.60972 0.881126 18
-0.042672 -2.25357 0.194139 26
0.355112 -2.26257 0.276554 8
-0.043768 -2.28919 0.0393552 98
0.354144 -2.26656 0.11841 8
-0.0441622 -2.28891 -0.118542 90
0.353393 -2.26946 -0.0394861 9
-0.0448793 -2.28516 -0.275946 65
-0.0460164 -2.28257 -0.436168 53
0.35604 -2.27362 -0.359413 4
-0.0475963 -2.28275 -0.602009 59
0.358975 -2.27699 -0.523343 8
-0.132604 -5.36842 1.22974 1
-0.137277 -5.59426 0.878785 24
-0.0540777 -2.25333 0.194139 27
0.343261 -2.26439 0.276554 4
-0.0554779 -2.29394 0.0394424 99
0.343404 -2.27578 0.118803 8
-0.0556845 -2.28616 -0.118411 90
0.340393 -2.26134 -0.0393115 9
-0.0568437 -2.28489 -0.275946 62
-0.0575689 -2.28231 -0.436168 53
0.343008 -2.26814 -0.358238 4
-0.0589575 -2.27524 -0.600069 61
0.345561 -2.26921 -0.521097 8
-0.146723 -5.58251 1.27916 15
-0.148088 -5.63351 0.885029 24
-0.0579448 -2.25074 0.193922 27
0.340054 -2.2699 0.277163 4
-0.0594815 -2.29384 0.0394424 99
0.337192 -2.26157 0.118018 8
-0.0596745 -2.28606 -0.118411 90
0.336818 -2.2644 -0.0393552 9
-0.0608991 -2.28727 -0.27625 67
0.338208 -2.27101 -0.197449 9
-0.0614845 -2.27975 -0.435692 53
0.339789 -2.27361 -0.359021 8
-0.0629285 -2.27513 -0.600069 61
0.341967 -2.27221 -0.521659 4
-0.178169 -5.62059 1.28814 15
-0.178995 -5.67708 0.892053 27
-0.0697288 -2.25041 0.193922 29
0.327804 -2.26919 0.276859 4
-0.0715705 -2.29599 0.0394861 100
0.326067 -2.26824 0.118279 8
-0.0717231 -2.28821 -0.118542 90
0.323517 -2.25624 -0.0391806 11
-0.0728743 -2.28692 -0.27625 65
0.326672 -2.27521 -0.197666 9
-0.0735814 -2.2843 -0.436644 53
0.326808 -2.26803 -0.357847 9
-0.075002 -2.2796 -0.601362 59
0.329355 -2.26915 -0.520536 4
-0.188957 -5.67874 1.30162 20
-0.190061 -5.71131 0.897516 35
-0.0735734 -2.24779 0.193704 29
0.323132 -2.26485 0.27625 4
-0.0753264 -2.28837 0.0393552 99
0.320327 -2.25645 0.117625 8
-0.0757167 -2.28809 -0.118542 92
0.32029 -2.26175 -0.0392679 11
-0.0766959 -2.28183 -0.275642 64
0.321636 -2.26838 -0.197014 9
-0.0775681 -2.28417 -0.436644 53
0.32179 -2.26127 -0.356672 9
-0.0789805 -2.27947 -0.601362 61
0.325745 -2.27213 -0.521097 4
-0.219868 -5.6825 1.30274 17
-0.219676 -5.70284 0.896345 17
-0.0852457 -2.24489 0.193486 29
0.310926 -2.26405 0.275946 4
-0.0875977 -2.29544 0.0394861 100
0.309537 -2.26552 0.118018 8
-0.0880953 -2.28764 -0.118542 90
0.307073 -2.25349 -0.0390934 9
-0.0888381 -2.28636 -0.27625 65
0.310382 -2.27749 -0.197666 9
-0.0894292 -2.28128 -0.436168 53
0.311987 -2.2776 -0.359021 8
-0.0907191 -2.2742 -0.600069 65
0.312829 -2.26657 -0.519413 3
-0.225131 -5.56771 1.27635 12
-0.22613 -5.61609 0.882687 20
-0.0893644 -2.24971 0.193922 29
0.306635 -2.26213 0.275642 8
-0.0919029 -2.29277 0.0394424 99
0.304227 -2.25616 0.117494 8
-0.0920878 -2.28749 -0.118542 91
0.303816 -2.25898 -0.0391806 9
-0.0929306 -2.28868 -0.276554 64
0.305733 -2.27309 -0.197231 9
-0.0934107 -2.28112 -0.436168 53
0.307003 -2.2708 -0.357847 8
-0.0951875 -2.27643 -0.600716 61
0.310543 -2.27918 -0.52222 4
-0.255588 -5.57371 1.27804 15
-0.256739 -5.61972 0.883468 26
-0.101421 -2.24671 0.193704 27
-0.104021 -2.29475 0.0394861 100
0.292341 -2.26025 0.117625 9
-0.104179 -2.28947 -0.118673 90
0.291589 -2.26059 -0.0391806 9
-0.105197 -2.28566 -0.27625 64
0.294799 -2.28207 -0.197884 8
-0.105982 -2.28548 -0.43712 53
0.295755 -2.27727 -0.35863 2
-0.10699 -2.27349 -0.600069 59
0.298207 -2.28083 -0.52222 3
-0.265388 -5.5952 1.28309 15
-0.265566 -5.61931 0.883468 27
0.29643 -2.2856 0.44085 4
-0.105697 -2.25399 0.194357 27
-0.108026 -2.29457 0.0394861 100
0.289434 -2.26566 0.117887 8
-0.108055 -2.28679 -0.118542 90
0.289567 -2.27597 -0.0394424 3
-0.108787 -2.28549 -0.27625 65
0.291456 -2.28752 -0.198319 11
-0.109731 -2.28039 -0.436168 52
0.293375 -2.29003 -0.360587 14
-0.111197 -2.27812 -0.601362 59
0.295258 -2.28612 -0.523343 20
-0.293392 -5.56941 1.27747 17
-0.293034 -5.58085 0.877614 30
0.284241 -2.2822 0.439896 3
-0.116973 -2.25094 0.194139 27
-0.119507 -2.29149 0.0394424 99
0.279727 -2.28448 0.118803 12
-0.119895 -2.2837 -0.118411 90
0.27866 -2.28236 -0.0395297 32
-0.120752 -2.28489 -0.27625 65
0.281009 -2.30137 -0.199406 44
-0.121272 -2.27981 -0.436168 53
0.281992 -2.29643 -0.36137 45
-0.122463 -2.27271 -0.600069 61
0.283588 -2.29005 -0.523905 45
-0.302447 -5.55672 1.27467 17
-0.303446 -5.59266 0.879565 20
0.279859 -2.28274 0.439896 3
-0.120631 -2.24576 0.193704 23
-0.123906 -2.29126 0.0394424 99
0.275435 -2.28249 0.118672 44
-0.12388 -2.28348 -0.118411 90
0.274069 -2.27788 -0.0394424 50
-0.124466 -2.27972 -0.275642 62
0.276689 -2.29939 -0.199188 49
-0.125251 -2.27959 -0.436168 53
0.277682 -2.29447 -0.360979 45
-0.126962 -2.27488 -0.600716 61
0.279291 -2.28813 -0.523343 45
-0.341132 -5.69848 1.3078 23
-0.340792 -5.70925 0.898296 33
0.268485 -2.28905 0.44085 8
-0.132929 -2.24756 0.193922 20
-0.135752 -2.28809 0.0393988 98
0.264827 -2.29882 0.119457 47
-0.136135 -2.28779 -0.118673 90
0.263773 -2.29671 -0.0397479 50
-0.136949 -2.28149 -0.275946 64
0.264646 -2.30081 -0.199188 49
-0.137433 -2.27643 -0.435692 52
0.265664 -2.29589 -0.360979 45
-0.138574 -2.26936 -0.599422 61
0.267194 -2.29203 -0.523905 45
-0.349183 -5.68334 1.30443 20
-0.348547 -5.68899 0.895174 32
0.264776 -2.29195 0.441326 8
-0.13731 -2.25478 0.194575 18
-0.139591 -2.28535 0.0393552 98
0.261215 -2.29924 0.119457 49
-0.139973 -2.28506 -0.118542 90
0.259478 -2.29469 -0.0397042 52
-0.140532 -2.28127 -0.275946 65
0.26063 -2.30126 -0.199188 49
-0.141406 -2.27619 -0.435692 53
0.261942 -2.2988 -0.36137 45
-0.142688 -2.27153 -0.600069 61
0.263593 -2.29244 -0.523905 45
-0.376983 -5.65227 1.29769 15
-0.376026 -5.65259 0.889711 24
0.253721 -2.29814 0.442279 4
-0.148555 -2.25157 0.194357 15
-0.151323 -2.28711 0.0393988 98
0.248625 -2.29561 0.119195 49
-0.151936 -2.28429 -0.118542 90
0.247586 -2.29349 -0.0396606 52
-0.152475 -2.28051 -0.275946 62
0.248032 -2.29765 -0.198754 49
-0.153257 -2.28034 -0.436644 52
0.249358 -2.29524 -0.360587 45
-0.154018 -2.26837 -0.599422 59
0.251316 -2.29137 -0.523343 45
-0.385679 -5.63459 1.29376 14
-0.383865 -5.62237 0.885029 15
0.248769 -2.29374 0.441326 3
-0.152825 -2.25628 0.194793 15
-0.155542 -2.28432 0.0393552 97
0.244618 -2.29604 0.119195 50
-0.155922 -2.28402 -0.118542 90
0.243314 -2.29143 -0.039617 52
-0.156113 -2.27529 -0.275337 59
0.243754 -2.2956 -0.198536 49
-0.157067 -2.27762 -0.436168 52
0.245887 -2.30058 -0.36137 45
-0.158882 -2.27529 -0.601362 61
0.247316 -2.2918 -0.523343 45
-0.394545 -5.34089 1.22638 1
0.237013 -2.29745 0.441803 9
-0.16503 -2.25542 0.194793 14
0.584595 -5.67466 0.695189 11
-0.167685 -2.28597 0.0393988 97
0.231936 -2.29485 0.119064 50
-0.167879 -2.28317 -0.118542 90
0.230913 -2.29271 -0.039617 55
-0.16916 -2.28431 -0.276554 65
0.231731 -2.29684 -0.198536 49
-0.169388 -2.27674 -0.436168 52
0.233583 -2.29938 -0.360979 45
-0.170793 -2.27443 -0.601362 59
0.23466 -2.29069 -0.522782 45
-0.421511 -5.58561 1.28309 20
0.589694 -5.64789 1.51018 11
0.233003 -2.29786 0.441803 11
-0.168966 -2.25513 0.194793 15
0.57467 -5.6657 0.693972 12
-0.171675 -2.28567 0.0393988 97
0.228331 -2.29521 0.119064 50
-0.171675 -2.28039 -0.118411 90
0.227162 -2.2956 -0.0396606 55
-0.172559 -2.28156 -0.27625 62
0.227721 -2.29725 -0.198536 49
-0.173549 -2.27889 -0.436644 52
0.229319 -2.29732 -0.360587 45
-0.174576 -2.27172 -0.600716 59
0.230811 -2.28863 -0.52222 45
-0.451735 -5.59546 1.2859 15
0.562303 -5.66281 1.51341 9
0.221129 -2.29657 0.441326 9
-0.180178 -2.25176 0.194575 15
-0.183241 -2.28477 0.0393988 96
0.21631 -2.29637 0.119064 50
-0.183618 -2.28447 -0.118673 90
0.215063 -2.29174 -0.0395733 55
-0.184503 -2.28063 -0.27625 61
0.215853 -2.29589 -0.198319 50
-0.184881 -2.27553 -0.436168 52
0.21705 -2.29604 -0.360196 47
-0.186072 -2.27081 -0.600716 59
0.218588 -2.28738 -0.521659 45
-0.463129 -5.62631 1.2932 14
0.553838 -5.67821 1.51729 11
0.216648 -2.29207 0.440373 4
-0.184517 -2.25641 0.195011 14
-0.186817 -2.27947 0.0393115 95
0.212302 -2.29675 0.119064 52
-0.187399 -2.28166 -0.118542 90
0.211297 -2.2946 -0.039617 58
-0.188483 -2.2803 -0.27625 61
0.212079 -2.29874 -0.198536 50
-0.189057 -2.27765 -0.436644 52
0.213275 -2.29887 -0.360587 47
-0.190238 -2.27289 -0.601362 59
0.214596 -2.28776 -0.521659 45
-0.477544 -5.44172 1.25108 1
-0.49886 -5.69514 0.897906 35
0.204867 -2.29562 0.44085 2
-0.196546 -2.25789 0.195229 15
-0.199187 -2.28344 0.0393988 95
0.200273 -2.29783 0.119064 53
-0.19996 -2.2831 -0.118673 90
0.199058 -2.29319 -0.0395733 58
-0.200639 -2.28176 -0.276554 61
0.199198 -2.29489 -0.198101 50
-0.20098 -2.27663 -0.436644 52
0.200795 -2.29504 -0.359804 47
-0.202351 -2.27427 -0.602009 59
0.202614 -2.28885 -0.521659 45
-0.510784 -5.70535 1.31229 27
-0.508799 -5.69426 0.897906 35
0.200022 -2.29112 0.439896 2
-0.199821 -2.2501 0.194575 15
-0.203124 -2.27807 0.0393115 91
0.195609 -2.29071 0.118672 55
-0.203945 -2.28274 -0.118673 90
0.195056 -2.29353 -0.0395733 59
-0.204621 -2.2814 -0.276554 61
0.195192 -2.29524 -0.198101 50
-0.205174 -2.27872 -0.43712 52
0.196357 -2.29046 -0.359021 47
-0.206717 -2.27387 -0.602009 59
0.198403 -2.28678 -0.521097 45
-0.517396 -5.44786 1.25333 1
-0.536796 -5.66192 0.893223 26
-0.212698 -2.25643 0.195229 15
-0.215759 -2.28444 0.0394424 90
0.183213 -2.29174 0.118672 56
-0.215894 -2.28164 -0.118673 90
0.182237 -2.28957 -0.0394861 59
-0.216725 -2.27779 -0.27625 58
0.182969 -2.29375 -0.197884 50
-0.217266 -2.27513 -0.436644 52
0.183961 -2.29149 -0.359021 49
-0.218155 -2.26795 -0.600716 61
0.185825 -2.28539 -0.520536 47
-0.544733 -5.64102 1.29825 14
-0.544298 -5.6364 0.889321 15
-0.216157 -2.25109 0.194793 15
-0.219504 -2.28157 0.0393988 90
0.179213 -2.29205 0.118672 56
-0.219635 -2.27878 -0.118542 90
0.178639 -2.29487 -0.0395733 62
-0.220941 -2.27988 -0.276554 61
0.178766 -2.29158 -0.197666 50
-0.221236 -2.27475 -0.436644 52
0.179962 -2.29181 -0.359021 47
-0.221876 -2.26516 -0.600069 61
0.182233 -2.29056 -0.521659 45
-0.569808 -5.59447 1.28814 14
-0.566309 -5.5697 0.879175 23
-0.228052 -2.25493 0.195229 15
-0.230796 -2.27795 0.0393552 90
0.167609 -2.29293 0.118672 56
-0.231818 -2.28008 -0.118673 90
0.166648 -2.29076 -0.0394861 65
-0.232224 -2.27627 -0.27625 58
0.166951 -2.29497 -0.197884 55
-0.232747 -2.2736 -0.436644 52
0.16836 -2.29269 -0.359021 47
-0.234334 -2.27362 -0.602656 59
0.170079 -2.28417 -0.519974 47
-0.576551 -5.56439 1.28141 15
-0.580868 -5.61537 0.886589 18
-0.231474 -2.24957 0.194793 14
-0.235169 -2.2775 0.0393552 90
0.163607 -2.29322 0.118672 58
-0.236314 -2.28464 -0.118936 85
0.16265 -2.29105 -0.0394861 68
-0.236454 -2.27832 -0.276554 58
0.162582 -2.29029 -0.197449 55
-0.237226 -2.27808 -0.437596 52
0.163994 -2.28806 -0.358238 49
-0.238445 -2.27076 -0.602009 59
0.166274 -2.28689 -0.520536 47
-0.613533 -5.62415 1.29601 14
-0.587392 -5.39367 0.85186 1
-0.243912 -2.25076 0.195011 14
-0.247091 -2.27624 0.0393552 90
0.151197 -2.29407 0.118672 59
-0.24773 -2.27841 -0.118673 82
0.15042 -2.29439 -0.0395297 68
-0.248507 -2.27455 -0.27625 58
0.150757 -2.29359 -0.197666 55
-0.249548 -2.27676 -0.437596 52
0.152518 -2.29627 -0.359413 49
-0.250332 -2.26948 -0.602009 59
0.153729 -2.28533 -0.519974 45
-0.615384 -5.56023 1.28141 15
-0.248114 -2.25281 0.195229 14
-0.251339 -2.27829 0.0393988 90
0.147593 -2.29431 0.118672 61
-0.251706 -2.27797 -0.118673 79
0.146251 -2.29215 -0.0394861 74
-0.252354 -2.27662 -0.276554 58
0.146917 -2.29634 -0.197884 55
-0.252975 -2.27144 -0.436644 52
0.148181 -2.29161 -0.35863 47
-0.254292 -2.26904 -0.602009 59
0.150139 -2.28557 -0.519974 45
-0.648426 -5.59081 1.28927 15
-0.25894 -2.24657 0.194793 14
-0.262291 -2.27202 0.0393115 90
0.135731 -2.29754 0.118803 62
-0.263341 -2.27414 -0.118542 77
0.134648 -2.29286 -0.0394861 76
-0.263983 -2.2728 -0.27625 58
0.135043 -2.29956 -0.198101 58
-0.264183 -2.26769 -0.436168 52
0.136181 -2.29235 -0.35863 49
-0.265491 -2.26533 -0.601362 59
0.138475 -2.29119 -0.521097 47
-0.658754 -5.59451 1.29039 20
-0.658925 -5.60426 0.886199 30
-0.26257 -2.24365 0.194575 14
-0.267238 -2.27648 0.0393988 90
0.131425 -2.29279 0.118541 65
-0.26731 -2.27368 -0.118542 77
0.130498 -2.2906 -0.0394424 77
-0.268242 -2.2748 -0.276554 56
0.130589 -2.29234 -0.197449 58
-0.269589 -2.27942 -0.438549 52
0.132179 -2.29259 -0.35863 49
-0.269552 -2.26242 -0.600716 59
0.13418 -2.28656 -0.519974 45
-0.686027 -5.56668 1.28477 17
-0.686819 -5.581 0.883077 27
-0.274401 -2.23972 0.194357 14
-0.278236 -2.2676 0.0392679 90
0.119018 -2.29347 0.118541 68
-0.278599 -2.26729 -0.118279 70
0.118103 -2.29127 -0.0394424 79
-0.28024 -2.27085 -0.27625 58
0.118852 -2.29796 -0.197884 59
-0.281312 -2.27305 -0.437596 52
0.120174 -2.29325 -0.35863 49
-0.281694 -2.26337 -0.601362 59
0.122076 -2.29212 -0.521097 47
-0.664231 -5.32145 1.22806 1
0.312145 -5.65307 1.50566 8
-0.694361 -5.57012 0.881517 27
-0.278927 -2.24418 0.194793 14
-0.282814 -2.27208 0.0393552 86
0.115284 -2.29116 0.11841 71
-0.282866 -2.26928 -0.118411 64
0.114104 -2.29147 -0.0394424 85
-0.284735 -2.2778 -0.277163 58
0.114453 -2.2907 -0.197231 59
-0.285279 -2.27256 -0.437596 52
0.115911 -2.28852 -0.357847 50
-0.286556 -2.27006 -0.603302 59
0.117952 -2.28258 -0.518851 47
-0.723587 -5.55947 1.28421 14
0.289065 -5.76311 1.53474 4
-0.691627 -5.32154 0.842494 1
0.280612 -5.79511 1.12 14
-0.289318 -2.23533 0.194139 12
0.270401 -5.75045 0.701578 15
-0.293987 -2.26814 0.0393115 83
0.103521 -2.29672 0.118672 71
-0.294421 -2.26529 -0.118279 64
0.102504 -2.29202 -0.0394424 90
-0.295691 -2.26889 -0.27625 56
0.102807 -2.29874 -0.197884 59
-0.295819 -2.26378 -0.436168 50
0.104278 -2.2965 -0.359021 50
-0.29741 -2.2638 -0.602009 58
0.106353 -2.29046 -0.520536 45
-0.739674 -5.6065 1.29544 14
0.279481 -5.77326 1.53732 18
-0.739371 -5.61165 0.888931 20
0.268673 -5.77848 1.11666 18
-0.29387 -2.23976 0.194575 12
0.253735 -5.60714 0.683932 23
-0.298997 -2.27252 0.0393988 82
0.0993995 -2.2944 0.118541 77
-0.29903 -2.26973 -0.118542 62
0.0982789 -2.2872 -0.0393552 90
-0.299977 -2.27083 -0.276554 55
0.098458 -2.29145 -0.197231 61
-0.301389 -2.27543 -0.438549 52
0.100044 -2.29174 -0.358238 50
-0.301756 -2.26322 -0.602009 59
0.101786 -2.27848 -0.517728 47
-0.773653 -5.62896 1.30162 15
0.248875 -5.78916 1.5412 12
-0.773086 -5.63203 0.892833 27
0.230468 -5.591 1.07996 27
-0.304968 -2.23074 0.193922 12
0.222889 -5.59604 0.682411 30
-0.310551 -2.26845 0.0393552 79
0.0869842 -2.2949 0.118541 79
-0.310229 -2.26318 -0.118279 64
0.0861005 -2.2927 -0.0394424 90
-0.312259 -2.26918 -0.276554 56
0.0865578 -2.29442 -0.197449 61
-0.312685 -2.26647 -0.43712 52
0.0877427 -2.29472 -0.35863 52
-0.313269 -2.25922 -0.601362 59
0.0898594 -2.28873 -0.519974 47
-0.785855 -5.65187 1.30724 18
0.229428 -5.5676 1.48175 14
-0.786662 -5.65758 0.897125 33
0.21972 -5.56688 1.0752 24
-0.30989 -2.2376 0.194575 12
0.213894 -5.61625 0.684845 20
-0.315199 -2.27286 0.0394424 73
0.0828834 -2.29256 0.11841 82
-0.315902 -2.275 -0.118936 64
0.0819096 -2.28785 -0.0393552 90
-0.316907 -2.27354 -0.277163 55
0.0823637 -2.28959 -0.197014 64
-0.317322 -2.27078 -0.438073 52
0.0835471 -2.28993 -0.357847 49
-0.319235 -2.27302 -0.605242 56
0.0857682 -2.28645 -0.519413 45
0.199918 -5.55907 1.47916 15
-0.814506 -5.64116 0.895174 29
0.191774 -5.60229 1.08187 14
-0.321246 -2.23348 0.194357 11
0.186908 -5.68922 0.693668 27
-0.326738 -2.2687 0.0393988 71
0.0709608 -2.29546 0.118541 88
-0.327452 -2.27084 -0.118804 61
0.0699294 -2.28825 -0.0393552 90
-0.327736 -2.26449 -0.27625 55
0.0707011 -2.29995 -0.197884 64
-0.328854 -2.26666 -0.437596 52
0.0721212 -2.29526 -0.35863 50
-0.330083 -2.26414 -0.603302 59
0.0737115 -2.28443 -0.518851 47
0.191316 -5.59079 1.48756 14
-0.82158 -5.62766 0.893223 29
0.183796 -5.65658 1.09235 15
-0.325504 -2.23538 0.194575 12
0.17845 -5.70438 0.695493 38
-0.331059 -2.2706 0.0394424 70
0.0672766 -2.29307 0.11841 88
-0.331777 -2.27274 -0.118936 59
0.0658583 -2.28587 -0.0393115 90
-0.331653 -2.26642 -0.276554 55
0.0663774 -2.29011 -0.197014 64
-0.333167 -2.26851 -0.438073 52
0.0678798 -2.28798 -0.357455 50
-0.335096 -2.27073 -0.605242 58
0.0700431 -2.28211 -0.51829 47
-0.816462 -5.38895 1.24828 1
0.164684 -5.64721 1.50243 14
-0.848444 -5.60619 0.890492 26
0.156065 -5.68932 1.09855 26
-0.336068 -2.22878 0.194139 11
0.148446 -5.70028 0.694885 35
-0.342547 -2.2689 0.0394424 67
0.0553346 -2.29589 0.118541 90
-0.342527 -2.26609 -0.118673 59
0.0544168 -2.29117 -0.0393988 90
-0.343142 -2.2622 -0.27625 53
0.0549149 -2.2954 -0.197449 68
-0.343904 -2.26195 -0.43712 52
0.0561611 -2.29818 -0.359021 52
-0.346219 -2.26662 -0.604595 58
0.0581603 -2.28488 -0.518851 47
-0.857427 -5.59956 1.29769 15
0.156466 -5.70542 1.51793 20
-0.857479 -5.59982 0.889711 27
0.14659 -5.70676 1.10189 23
-0.341466 -2.23804 0.195011 11
0.13831 -5.69309 0.693972 29
-0.346886 -2.27077 0.0394861 61
0.0512665 -2.29348 0.11841 90
-0.347997 -2.27536 -0.119198 59
0.0502975 -2.28626 -0.0393115 90
-0.348224 -2.26896 -0.277163 55
0.0507877 -2.29051 -0.197014 70
-0.34935 -2.27104 -0.439025 52
0.051844 -2.28593 -0.357064 52
-0.351285 -2.27317 -0.606535 58
0.0540465 -2.28011 -0.517728 47
-0.885035 -5.578 1.29376 15
0.126256 -5.69168 1.51406 17
-0.883303 -5.5733 0.886199 26
0.116133 -5.68046 1.09664 15
-0.3524 -2.2313 0.194575 11
0.107907 -5.66396 0.690321 23
-0.359554 -2.27386 0.0395733 59
0.0392092 -2.29122 0.118279 90
-0.360303 -2.27345 -0.119198 58
0.0383732 -2.28899 -0.0393552 90
-0.36049 -2.26956 -0.277467 53
0.0383473 -2.28826 -0.196796 71
-0.361236 -2.26918 -0.439025 52
0.0399707 -2.29111 -0.357847 52
-0.3628 -2.26892 -0.605889 58
0.0421071 -2.28036 -0.517728 47
-0.892836 -5.56442 1.29095 15
0.115602 -5.65809 1.50501 14
-0.851541 -5.31331 0.844835 1
0.104704 -5.65368 1.0914 14
-0.356294 -2.23068 0.194575 11
0.0972553 -5.62196 0.685149 29
-0.363522 -2.27069 0.0395297 58
0.0352538 -2.29378 0.11841 90
-0.364667 -2.27528 -0.11933 56
0.0344208 -2.29155 -0.0393988 90
-0.36445 -2.26892 -0.277467 52
0.0343534 -2.28832 -0.196796 71
-0.365196 -2.26855 -0.439025 52
0.035884 -2.28624 -0.357064 52
-0.366768 -2.26583 -0.605242 58
0.038173 -2.28287 -0.51829 47
-0.926525 -5.58114 1.29601 14
0.0845274 -5.62965 1.49726 14
-0.929231 -5.60338 0.892053 15
0.074476 -5.60998 1.08282 18
-0.369173 -2.23364 0.195011 11
0.0668363 -5.62241 0.685149 32
-0.374178 -2.26136 0.0393988 55
0.0228428 -2.29394 0.11841 90
-0.376166 -2.27088 -0.119198 56
0.0220219 -2.29171 -0.0393988 90
-0.376721 -2.26692 -0.277467 52
0.0223714 -2.28847 -0.196796 73
-0.37787 -2.26896 -0.439501 50
0.0239749 -2.29133 -0.357847 52
-0.379026 -2.26626 -0.605889 58
0.0257883 -2.2806 -0.517728 47
-0.940938 -5.61331 1.30387 15
0.0739847 -5.57908 1.48369 14
-0.945383 -5.64575 0.899077 18
0.0647759 -5.61747 1.08425 23
-0.372247 -2.22808 0.194575 11
0.0582263 -5.64236 0.687583 30
-0.37978 -2.27057 0.0395733 56
0.0192394 -2.29398 0.11841 90
-0.380542 -2.27268 -0.11933 56
0.0180221 -2.29174 -0.0393988 90
-0.380693 -2.26877 -0.277771 53
0.0183772 -2.28851 -0.196796 76
-0.38142 -2.26588 -0.439025 52
0.0199224 -2.28643 -0.357064 52
-0.383789 -2.27036 -0.607182 58
0.022177 -2.27821 -0.517167 47
-0.974891 -5.63471 1.31004 15
0.0458333 -5.58904 1.48627 15
-0.980827 -5.67478 0.90454 24
0.0363966 -5.62508 1.08568 21
-0.385641 -2.23843 0.195665 11
0.0287707 -5.65747 0.689408 32
-0.389562 -2.25876 0.0393988 55
0.00722801 -2.29404 0.11841 90
-0.392863 -2.27311 -0.119461 53
0.00642233 -2.2918 -0.0393988 90
-0.392143 -2.2643 -0.277467 53
0.00639444 -2.28857 -0.196796 76
-0.394147 -2.27117 -0.440453 50
0.0079504 -2.2865 -0.357064 52
-0.394027 -2.26125 -0.605242 58
0.0102642 -2.28073 -0.517728 47
-0.991025 -5.66899 1.31847 23
0.0361316 -5.59636 1.48821 15
-0.996685 -5.70712 0.910003 32
0.0257034 -5.64478 1.08949 23
-0.388261 -2.2304 0.195011 11
0.0190004 -5.68233 0.692451 30
-0.393898 -2.25801 0.0393988 53
0.00322414 -2.29405 0.11841 90
-0.39683 -2.27243 -0.119461 55
0.00242237 -2.29181 -0.0393988 92
-0.396094 -2.26361 -0.277467 50
0.00240012 -2.28858 -0.196796 77
-0.39726 -2.26565 -0.439501 50
0.00396917 -2.28898 -0.357455 52
-0.399209 -2.26525 -0.606535 58
0.0062717 -2.2783 -0.517167 47
-1.02342 -5.67314 1.32071 21
0.00589837 -5.62062 1.49467 14
-1.02185 -5.67005 0.90493 21
-0.00384898 -5.66692 1.09378 21
-0.399439 -2.22336 0.194575 9
-0.0117683 -5.7022 0.694885 35
-0.407047 -2.2633 0.0395297 55
-0.00918308 -2.29154 0.118279 90
-0.408723 -2.27032 -0.119461 53
-0.00997183 -2.28929 -0.0393552 96
-0.408778 -2.26388 -0.277771 50
-0.00957762 -2.28607 -0.196579 82
-0.410389 -2.26829 -0.440453 50
-0.00840766 -2.28403 -0.356672 53
-0.411497 -2.2655 -0.607182 56
-0.00605642 -2.28074 -0.517728 47
-1.02665 -5.64037 1.31341 14
-0.0039081 -5.63995 1.49984 14
-1.02466 -5.62939 0.898686 15
-0.0137782 -5.69145 1.09855 21
-0.402873 -2.22021 0.194357 9
-0.0217868 -5.7245 0.697623 36
-0.411445 -2.26504 0.0395733 53
-0.0131917 -2.29402 0.11841 90
-0.413581 -2.27451 -0.119723 53
-0.0139774 -2.29177 -0.0393988 96
-0.412728 -2.26316 -0.277771 50
-0.0135675 -2.28605 -0.196579 82
-0.413905 -2.26516 -0.439977 50
-0.0124022 -2.28648 -0.357064 53
-0.415451 -2.26478 -0.607182 56
-0.0100315 -2.27829 -0.517167 47
-1.04853 -5.59421 1.30387 14
-0.0326549 -5.68091 1.51083 15
-1.0454 -5.58287 0.892053 15
-0.0426662 -5.70358 1.10093 26
-0.415022 -2.22304 0.194793 9
-0.0507607 -5.72432 0.697623 32
-0.423825 -2.26784 0.0396606 55
-0.0248243 -2.29642 0.118541 90
-0.425485 -2.27232 -0.119723 52
-0.0255542 -2.28917 -0.0393552 97
-0.424178 -2.26104 -0.277771 50
-0.025537 -2.28595 -0.196579 82
-0.425819 -2.26545 -0.440453 50
-0.0239543 -2.28392 -0.356672 52
-0.427358 -2.26502 -0.607829 56
-0.0215628 -2.27821 -0.517167 47
-1.0533 -5.56604 1.29769 14
-0.042698 -5.70016 1.516 18
-1.05009 -5.55435 0.88776 20
-0.0535323 -5.69367 1.09903 17
-0.418902 -2.22231 0.194793 9
-0.0606302 -5.71181 0.696102 27
-0.427713 -2.26457 0.039617 55
-0.02878 -2.29138 0.118279 90
-0.428985 -2.26912 -0.119592 52
-0.0295766 -2.29162 -0.0393988 97
-0.429513 -2.26761 -0.278684 50
-0.0294998 -2.28341 -0.196362 82
-0.430232 -2.26711 -0.44093 50
-0.0279404 -2.28388 -0.356672 53
-0.432159 -2.26657 -0.608475 56
-0.0255611 -2.28061 -0.517728 47
-1.08013 -5.54353 1.29376 15
-0.0733636 -5.68536 1.51212 15
-1.09336 -5.61645 0.898686 21
-0.0828697 -5.65895 1.09235 15
-0.431872 -2.2249 0.195229 9
-0.439564 -2.2623 0.039617 53
-0.0412167 -2.29369 0.11841 90
-0.441816 -2.27174 -0.119855 52
-0.0419344 -2.28893 -0.0393552 97
-0.440823 -2.26039 -0.278076 50
-0.0415352 -2.2882 -0.196796 85
-0.442964 -2.26716 -0.441406 50
-0.0398604 -2.28123 -0.356281 53
-0.444021 -2.26427 -0.608475 56
-0.0378647 -2.278 -0.517167 47
-1.1006 -5.60158 1.3078 14
-0.0828201 -5.65142 1.50307 14
-1.10265 -5.61715 0.899077 21
-0.0924794 -5.64162 1.08902 15
-0.438156 -2.23636 0.196318 9
-0.443512 -2.26153 0.039617 52
-0.0447324 -2.28863 0.118148 90
-0.445298 -2.26852 -0.119723 50
-0.0459742 -2.29135 -0.0393988 98
-0.444853 -2.26212 -0.27838 50
-0.0454845 -2.28564 -0.196579 86
-0.44692 -2.26638 -0.441406 50
-0.0439686 -2.28857 -0.357455 53
-0.448442 -2.26586 -0.609122 56
-0.0414429 -2.27794 -0.517167 47
-1.12122 -5.55276 1.29769 14
-0.111014 -5.62919 1.49726 14
-1.12227 -5.56289 0.891272 20
-0.120426 -5.61164 1.0833 15
-0.449469 -2.23412 0.196318 8
-0.0546709 -2.26727 0.273816 9
-0.455448 -2.2617 0.0396606 52
-0.0567716 -2.29086 0.118279 90
-0.45717 -2.26615 -0.119723 50
-0.0575711 -2.29109 -0.0393988 98
-0.457185 -2.2622 -0.278684 49
-0.0575087 -2.28786 -0.196796 86
-0.458874 -2.2665 -0.441882 50
-0.0558957 -2.28584 -0.357064 53
-0.459905 -2.26356 -0.609122 58
-0.0533176 -2.27525 -0.516605 47
-1.12945 -5.54363 1.29601 14
-0.120341 -5.60484 1.49079 14
-1.13444 -5.57302 0.893223 14
-0.130592 -5.58441 1.07806 15
-0.452871 -2.23089 0.1961 8
-0.058569 -2.26469 0.273512 11
-0.460788 -2.26572 0.0397479 52
-0.0607089 -2.28826 0.118148 90
-0.462123 -2.27024 -0.119986 49
-0.0615697 -2.29099 -0.0393988 99
-0.461132 -2.26139 -0.278684 49
-0.0615017 -2.28775 -0.196796 85
-0.462829 -2.26569 -0.441882 50
-0.0598256 -2.28327 -0.356672 53
-0.466197 -2.27214 -0.611708 58
-0.0572325 -2.27272 -0.516044 47
-1.20391 -5.74964 1.34598 3
-0.149911 -5.57514 1.48304 14
-1.22432 -5.85199 0.93927 2
-0.160783 -5.61799 1.08473 15
-0.465445 -2.23084 0.196318 8
-0.0708213 -2.26434 0.273512 11
-0.472645 -2.26328 0.0397479 52
-0.0730886 -2.2879 0.118148 90
-0.472979 -2.26291 -0.119723 49
-0.0739642 -2.29062 -0.0393988 99
-0.474382 -2.26372 -0.279293 49
-0.0734047 -2.28491 -0.196579 86
-0.475081 -2.26315 -0.441882 50
-0.0718523 -2.28539 -0.357064 53
-0.478088 -2.26967 -0.611708 56
-0.0695975 -2.27481 -0.516605 47
-1.221 -5.78588 1.35497 20
-0.160378 -5.60143 1.49015 14
-1.22127 -5.79208 0.929904 18
-0.172398 -5.67903 1.09664 15
-0.469852 -2.23246 0.196536 8
-0.074378 -2.26423 0.273512 9
-0.476595 -2.26245 0.0397479 50
-0.0768391 -2.29277 0.11841 90
-0.478477 -2.2694 -0.120117 50
-0.0780418 -2.29299 -0.0394424 99
-0.478451 -2.2654 -0.279597 49
-0.0773134 -2.28229 -0.196362 89
-0.480559 -2.26952 -0.44331 50
-0.0757642 -2.28279 -0.356672 53
-0.0730976 -2.27227 -0.516044 47
-0.190153 -5.64399 1.50178 14
-0.481145 -2.23006 0.196536 4
-0.48804 -2.26001 0.0397479 50
-0.0885685 -2.28485 0.118018 90
-0.489824 -2.26443 -0.119986 50
-0.0896466 -2.29256 -0.0394424 99
-0.489779 -2.26044 -0.279293 49
-0.0893545 -2.28434 -0.196579 86
-0.490996 -2.26227 -0.442358 50
-0.0877158 -2.28236 -0.356672 53
-0.0853375 -2.28159 -0.51829 47
-0.201756 -5.69433 1.51535 17
-0.487692 -2.24138 0.197626 8
-0.492912 -2.26151 0.0397915 50
-0.0928437 -2.29218 0.11841 90
-0.494309 -2.26601 -0.120117 49
-0.0935509 -2.2899 -0.0393988 99
-0.493724 -2.25958 -0.279293 49
-0.0933413 -2.28418 -0.196579 89
-0.495996 -2.2662 -0.44331 49
-0.0917931 -2.28468 -0.357064 53
-0.0891393 -2.27657 -0.517167 47
-0.23179 -5.67385 1.51018 14
-0.498179 -2.23142 0.196972 4
-0.504746 -2.2589 0.0397915 50
-0.105353 -2.29413 0.118541 90
-0.504528 -2.25608 -0.119723 49
-0.10616 -2.29436 -0.0394861 100
-0.506486 -2.2593 -0.279597 49
-0.105409 -2.28615 -0.196796 89
-0.507172 -2.2587 -0.442358 50
-0.103861 -2.28663 -0.357455 52
-0.101662 -2.28092 -0.51829 47
-0.23716 -5.56486 1.4811 12
-0.504266 -2.24026 0.197844 4
-0.508688 -2.25802 0.0397915 49
-0.10873 -2.28898 0.118279 90
-0.509016 -2.25763 -0.119855 49
-0.109935 -2.28918 -0.0393988 99
-0.510034 -2.2585 -0.279597 36
-0.109399 -2.28596 -0.196796 86
-0.51057 -2.25541 -0.441882 8
-0.10763 -2.28151 -0.356672 53
-0.104923 -2.27346 -0.516605 47
-0.266114 -5.58047 1.48562 15
-0.513917 -2.2304 0.19719 4
-0.518421 -2.24811 0.0396606 41
-0.120967 -2.29336 0.118541 90
-0.519703 -2.25007 -0.119592 12
-0.121647 -2.29109 -0.0394424 99
-0.520171 -2.24855 -0.278684 36
-0.121494 -2.28785 -0.197014 86
-0.521979 -2.2528 -0.441882 8
-0.119946 -2.28832 -0.357847 53
-0.117065 -2.27774 -0.517728 47
-0.275736 -5.57759 1.48498 14
-0.518939 -2.23435 0.197626 4
-0.295406 -5.62001 0.685758 30
-0.522168 -2.24467 0.039617 4
-0.124838 -2.29066 0.11841 90
-0.523629 -2.24916 -0.119592 12
-0.125514 -2.28837 -0.0393988 98
-0.525224 -2.25247 -0.279293 3
-0.125093 -2.28017 -0.196362 83
-0.52703 -2.25667 -0.442834 4
-0.123555 -2.2807 -0.356672 53
-0.120916 -2.2751 -0.517167 45
-0.305259 -5.56396 1.48175 15
-0.52813 -2.2194 0.196536 4
-0.332603 -5.73724 0.700361 35
-0.533333 -2.23948 0.0395733 4
-0.137374 -2.29244 0.118541 90
-0.534238 -2.24153 -0.11933 11
-0.138038 -2.29016 -0.0394424 98
-0.534513 -2.23753 -0.277771 4
-0.137463 -2.28694 -0.197014 86
-0.536942 -2.24424 -0.44093 8
-0.135636 -2.28249 -0.357064 53
-0.133636 -2.28171 -0.518851 47
-0.318598 -5.62852 1.49919 14
-0.333574 -5.71856 1.1057 23
-0.530838 -2.21363 0.1961 11
-0.340887 -5.72433 0.69884 29
-0.535487 -2.23125 0.0394424 9
-0.140679 -2.28724 0.118279 90
-0.538734 -2.24302 -0.119461 11
-0.142035 -2.28991 -0.0394424 98
-0.538609 -2.2391 -0.278076 9
-0.141306 -2.28421 -0.196796 86
-0.540858 -2.24329 -0.44093 9
-0.13962 -2.28225 -0.357064 53
-0.136797 -2.2742 -0.517167 45
-0.351773 -5.70398 1.51987 20
-0.362208 -5.7119 1.10475 21
-0.541441 -2.2085 0.195883 9
-0.368004 -5.67789 0.693364 27
-0.547967 -2.23337 0.0395297 11
-0.152814 -2.28896 0.11841 90
-0.547693 -2.23057 -0.118936 12
-0.153624 -2.28916 -0.0394424 98
-0.549731 -2.23384 -0.277771 8
-0.153026 -2.28595 -0.197014 82
-0.552794 -2.24291 -0.441406 9
-0.151567 -2.28149 -0.357064 53
-0.148856 -2.27589 -0.517728 47
-0.360069 -5.67684 1.51277 15
-0.369026 -5.66227 1.09521 15
-0.544696 -2.20513 0.195665 9
-0.374333 -5.62277 0.68667 21
-0.550061 -2.22513 0.0393988 11
-0.156974 -2.29118 0.118541 90
-0.551585 -2.22961 -0.118936 11
-0.157452 -2.2864 -0.0393988 97
-0.554826 -2.23769 -0.27838 8
-0.156685 -2.28071 -0.196579 82
-0.155386 -2.27876 -0.356672 53
-0.15267 -2.27319 -0.517167 45
-0.388481 -5.6556 1.5076 14
-0.396795 -5.63333 1.08997 14
-0.556846 -2.20466 0.195883 9
-0.402363 -5.60093 0.684236 30
-0.562318 -2.22464 0.0394424 11
-0.168969 -2.29033 0.118541 90
-0.56632 -2.23879 -0.119592 11
-0.169601 -2.28804 -0.0394424 97
-0.566535 -2.23476 -0.27838 9
-0.16916 -2.28731 -0.197231 82
-0.167843 -2.2853 -0.357847 53
-0.165083 -2.27965 -0.518851 47
-0.396172 -5.62359 1.49919 12
-0.405055 -5.6106 1.08568 18
-0.563155 -2.21334 0.196754 9
-0.413038 -5.61259 0.685758 29
-0.565581 -2.22123 0.0393988 11
-0.172783 -2.28754 0.11841 90
-0.568991 -2.23296 -0.11933 11
-0.173594 -2.28774 -0.0394424 97
-0.172603 -2.27956 -0.196579 82
-0.171471 -2.28008 -0.357064 53
-0.168536 -2.27207 -0.517167 45
-0.422187 -5.57569 1.48692 14
-0.434988 -5.61574 1.08711 18
-0.578506 -2.22482 0.198061 8
-0.445314 -5.64746 0.690321 27
-0.580989 -2.23275 0.0396606 11
-0.184562 -2.28411 0.118279 90
-0.581305 -2.23237 -0.119461 11
-0.185373 -2.2843 -0.0393988 94
-0.184537 -2.27863 -0.196579 77
-0.183407 -2.27915 -0.357064 53
-0.180618 -2.27359 -0.517728 45
-0.432655 -5.58457 1.4895 14
-0.445364 -5.62232 1.08854 15
-0.584918 -2.23345 0.198933 8
-0.458129 -5.68378 0.694885 26
-0.58298 -2.22448 0.0395297 9
-0.188548 -2.28379 0.118279 83
-0.585835 -2.23377 -0.119592 9
-0.18936 -2.28398 -0.0393988 92
-0.188513 -2.2783 -0.196579 77
-0.187582 -2.28129 -0.357455 52
-0.184394 -2.27084 -0.517167 45
-0.463663 -5.60389 1.49532 14
-0.478682 -5.66637 1.0976 15
-0.596604 -2.23035 0.198933 4
-0.490406 -5.71097 0.698536 33
-0.597211 -2.23106 0.0397042 9
-0.20029 -2.28028 0.118148 79
-0.598818 -2.23549 -0.119855 4
-0.201316 -2.28295 -0.0393988 91
-0.20044 -2.27729 -0.196579 76
-0.199524 -2.28028 -0.357455 52
-0.603648 -2.23955 -0.611708 3
-0.196281 -2.26984 -0.517167 45
-0.476663 -5.64158 1.50566 14
-0.49212 -5.7071 1.1057 23
-0.601145 -2.23171 0.199151 4
-0.501445 -5.72247 0.700057 39
-0.597844 -2.21795 0.0394861 8
-0.20427 -2.27993 0.118148 73
-0.600112 -2.2248 -0.11933 4
-0.205082 -2.28011 -0.0393552 90
-0.204632 -2.27941 -0.196796 73
-0.203504 -2.27992 -0.357455 52
-0.607556 -2.23849 -0.611708 3
-0.199825 -2.26464 -0.516044 45
-0.511251 -5.68462 1.51793 15
-0.523657 -5.71168 1.10713 27
-0.615197 -2.23563 0.199805 8
-0.530348 -5.69743 0.697319 29
-0.612495 -2.22432 0.0396606 3
-0.216602 -2.27879 0.118148 65
-0.612141 -2.22152 -0.11933 4
-0.217415 -2.27897 -0.0393552 90
-0.216962 -2.27827 -0.196796 71
-0.215439 -2.27883 -0.357455 52
-0.617072 -2.22586 -0.609122 4
-0.212741 -2.27081 -0.517728 45
-0.523356 -5.70777 1.5244 21
-0.531136 -5.68388 1.10189 15
-0.613101 -2.21295 0.197844 12
-0.535588 -5.65706 0.692451 18
-0.613699 -2.21361 0.0394861 3
-0.220417 -2.28093 0.118279 59
-0.612673 -2.20842 -0.118673 11
-0.221156 -2.27609 -0.0393115 90
-0.220938 -2.27789 -0.196796 71
-0.219184 -2.27599 -0.357064 53
-0.621606 -2.22711 -0.609768 4
-0.216534 -2.27289 -0.51829 45
-0.54901 -5.6714 1.51535 14
-0.555841 -5.6396 1.09378 14
-0.622937 -2.20503 0.197408 9
-0.560062 -5.60232 0.686062 18
-0.621488 -2.19845 0.0392679 12
-0.232605 -2.28223 0.11841 56
-0.624524 -2.2077 -0.118804 11
-0.232673 -2.27495 -0.0393115 90
-0.232712 -2.27922 -0.197014 68
-0.230854 -2.27235 -0.356672 52
-0.636183 -2.23554 -0.613002 4
-0.228193 -2.26931 -0.517728 45
-0.554681 -5.62716 1.50372 12
-0.561554 -5.5971 1.08568 15
-0.630198 -2.21592 0.198497 8
-0.570088 -5.60381 0.686366 23
-0.628067 -2.20698 0.0394424 9
-0.236335 -2.27934 0.118279 52
-0.62495 -2.1946 -0.118148 9
-0.236644 -2.27454 -0.0393115 90
-0.236437 -2.27633 -0.196796 64
-0.235068 -2.2744 -0.357064 52
-0.638751 -2.22979 -0.611708 4
-0.232153 -2.2689 -0.517728 45
-0.580673 -5.59055 1.49467 14
-0.589574 -5.58188 1.0833 15
-0.635534 -2.19106 0.196536 8
-0.601517 -5.62049 0.6888 14
-0.638218 -2.19886 0.0393552 11
-0.248266 -2.27807 0.118279 50
-0.641702 -2.20797 -0.119067 9
-0.248816 -2.27575 -0.0393552 90
-0.249281 -2.27997 -0.197231 64
-0.247235 -2.2756 -0.357455 50
-0.653131 -2.23568 -0.614295 4
-0.24403 -2.26766 -0.517728 47
-0.591185 -5.59673 1.49661 14
-0.603153 -5.60758 1.08854 14
-0.642155 -2.19951 0.197408 8
-0.606267 -5.57255 0.683019 27
-0.642438 -2.19763 0.0393552 8
-0.251972 -2.27515 0.118148 45
-0.64415 -2.20205 -0.118804 8
-0.252517 -2.27283 -0.0393115 90
-0.25326 -2.27954 -0.197231 64
-0.65287 -2.22608 -0.44331 3
-0.251206 -2.27516 -0.357455 50
-0.658788 -2.23906 -0.615588 21
-0.248247 -2.26965 -0.51829 45
-0.629229 -5.57508 1.08282 17
-0.653334 -2.19362 0.19719 4
-0.643958 -5.63576 0.691234 27
-0.656797 -2.20382 0.0395297 4
-0.263429 -2.26631 0.117756 41
-0.666395 -2.23453 -0.120774 3
-0.265095 -2.27391 -0.0393552 90
-0.66926 -2.23986 -0.282335 11
-0.265192 -2.27818 -0.197231 64
-0.670544 -2.24132 -0.44712 47
-0.263394 -2.27627 -0.357847 50
-0.676759 -2.25639 -0.621408 61
-0.260523 -2.26827 -0.51829 45
-0.643119 -5.61055 1.08997 21
-0.66146 -2.20679 0.198497 3
-0.652809 -5.63474 0.691234 29
-0.667838 -2.22661 0.039966 11
-0.26785 -2.27334 0.118148 41
-0.671732 -2.23814 -0.121036 27
-0.268774 -2.27096 -0.0393115 90
-0.677786 -2.25544 -0.284465 52
-0.269455 -2.28019 -0.197449 64
-0.67729 -2.24955 -0.449024 53
-0.267366 -2.2758 -0.357847 49
-0.680697 -2.25521 -0.621408 64
-0.264086 -2.26786 -0.51829 45
-0.670059 -5.59504 1.08759 23
-0.671164 -2.19865 0.198061 3
-0.679636 -5.60908 0.688496 29
-0.684221 -2.23993 0.0402714 52
-0.280049 -2.27438 0.118279 38
-0.691489 -2.26085 -0.12248 53
-0.280265 -2.26958 -0.0393115 90
-0.690314 -2.25423 -0.284769 56
-0.28109 -2.27627 -0.197231 61
-0.690109 -2.25078 -0.449977 53
-0.279575 -2.27683 -0.358238 49
-0.693524 -2.25635 -0.622701 62
-0.275957 -2.26645 -0.51829 45
-0.679622 -5.584 1.08568 21
-0.678664 -2.20937 0.199151 4
-0.687019 -5.58818 0.686062 29
-0.695146 -2.26011 0.0406641 53
