# .PCD v0.7 - Point Cloud Data file format
VERSION 0.7
FIELDS x y z intensity
SIZE 4 4 4 4
TYPE F F F F
COUNT 1 1 1 1
WIDTH 1597
HEIGHT 1
VIEWPOINT 0 0 0 1 0 0 0
POINTS 1597
DATA ascii
-0.77027 0.0876162 -0.170704 52
-2.71825 0.810425 0.645756 50
-2.85934 0.319586 0.760583 47
-2.72425 0.811713 0.443685 50
-2.88015 0.326911 0.556185 49
-2.74026 0.815981 0.247087 55
-2.88173 0.331126 0.351398 49
-2.75483 0.820851 0.0495648 50
-2.90386 0.335667 0.151382 49
-0.631919 0.187298 -0.0328189 58
-0.645077 0.0784321 -0.0537113 90
-0.784615 0.093969 -0.119804 58
-0.772237 0.0917861 -0.171266 53
-2.71231 0.813292 0.644633 49
-2.85878 0.324576 0.760583 47
-2.7252 0.817176 0.444075 56
-2.87226 0.331106 0.554756 47
-2.73644 0.820046 0.246869 55
-2.88115 0.336155 0.351398 49
-2.8983 0.340161 0.15112 49
-0.626809 0.186963 -0.0325564 58
-0.644939 0.0795578 -0.0537113 90
-0.791808 0.0961871 -0.120979 58
-0.774496 0.0934104 -0.171827 52
-2.71253 0.829382 0.645756 49
-2.85464 0.339259 0.759937 47
-2.72088 0.831434 0.444075 55
-2.87292 0.34643 0.555232 50
-2.73211 0.834363 0.246869 53
-2.87196 0.350347 0.350485 47
-2.88905 0.354432 0.150728 47
-0.628176 0.191083 -0.0326876 58
-0.644499 0.0830461 -0.0537113 90
-0.786391 0.0997401 -0.120196 58
-0.776415 0.0977537 -0.172389 52
-2.7134 0.834832 0.646318 47
-2.85404 0.34424 0.759937 49
-2.71707 0.835455 0.443685 50
-2.86982 0.351651 0.554756 50
-2.72589 0.837664 0.246433 53
-2.87627 0.355961 0.351093 49
-2.88595 0.359169 0.150597 49
-0.625455 0.191443 -0.0325564 56
-0.644354 0.0841708 -0.0537113 90
-0.773825 0.0988151 -0.171827 52
-2.7135 0.850961 0.647441 49
-2.84974 0.359379 0.75929 49
-2.71486 0.850883 0.444075 49
-2.8655 0.366365 0.554279 50
-2.73558 0.856874 0.24774 90
-2.87184 0.371203 0.350789 49
-2.88891 0.375414 0.150858 49
-0.624444 0.194716 -0.0325564 58
-0.643904 0.0875435 -0.0537113 90
-0.768446 0.102387 -0.170704 52
-2.71448 0.855956 0.648003 52
-2.84911 0.364352 0.75929 50
-2.71588 0.85589 0.444465 47
-2.86486 0.371366 0.554279 50
-2.72933 0.860148 0.247304 108
-2.86879 0.375396 0.350485 49
-2.87347 0.378022 0.150073 45
-0.626484 0.196558 -0.0326876 58
-0.64375 0.0886672 -0.0537113 90
-0.792837 0.10755 -0.12137 58
-0.7707 0.103905 -0.171266 52
-2.70996 0.870157 0.648003 52
-2.84723 0.378768 0.75929 50
-2.71371 0.870854 0.444856 47
-2.86294 0.385861 0.554279 50
-2.71782 0.871666 0.246651 55
-2.86187 0.38975 0.349876 47
-2.87392 0.393397 0.150204 47
-0.625446 0.199835 -0.0326876 58
-0.640809 0.0917021 -0.0534938 90
-0.792263 0.1117 -0.12137 58
-0.770145 0.107939 -0.171266 52
-2.70612 0.874136 0.647441 52
-2.84178 0.3831 0.757998 47
-2.71689 0.877109 0.445636 49
-2.85976 0.391029 0.553802 47
-2.86118 0.394745 0.349876 47
-2.86581 0.397396 0.149812 47
-0.625097 0.200926 -0.0326876 58
-0.640648 0.0928203 -0.0534938 90
-0.792066 0.113083 -0.12137 56
-0.767542 0.108955 -0.170704 52
-2.69672 0.88724 0.646318 49
-2.84205 0.398801 0.758644 49
-2.71679 0.89334 0.446416 50
-2.85281 0.405315 0.552849 49
-2.859 0.410219 0.349876 47
-2.85868 0.412191 0.14955 44
-0.619294 0.202634 -0.0324251 56
-0.642619 0.0965253 -0.0537113 90
-0.789019 0.116881 -0.120979 58
-0.771766 0.113787 -0.171827 52
-2.69301 0.890708 0.645756 49
-2.84135 0.403761 0.758644 49
-2.71773 0.898383 0.446807 55
-2.84967 0.409948 0.552373 47
-2.85099 0.413653 0.348964 47
-0.626049 0.206071 -0.0328189 58
-0.644914 0.0980028 -0.0539288 90
-0.791258 0.11861 -0.12137 58
-0.769174 0.114655 -0.171266 52
-2.6837 0.90324 0.644633 47
-2.83688 0.417789 0.757998 47
-2.71065 0.911812 0.446416 55
-2.84513 0.424008 0.551896 47
-2.84387 0.427845 0.348355 45
-2.63111 0.398059 0.137644 90
-0.622632 0.20844 -0.0326876 56
-0.646873 0.101634 -0.0541462 90
-0.785742 0.122023 -0.120587 56
-0.766153 0.118324 -0.170704 52
-2.68227 0.907455 0.644633 47
-2.83615 0.42274 0.757998 47
-2.70204 0.914164 0.445246 50
-2.84439 0.428973 0.551896 49
-2.84558 0.433177 0.348659 47
-0.626996 0.211129 -0.0329502 58
-0.64177 0.102017 -0.0537113 90
-0.783086 0.123025 -0.120196 55
-0.770764 0.120383 -0.171827 52
-2.67502 0.921159 0.644072 47
-2.82674 0.436491 0.756059 47
-2.69721 0.928299 0.445246 47
-2.83725 0.443111 0.550943 47
-2.84327 0.44807 0.348659 49
-0.630564 0.216147 -0.0332127 58
-0.636288 0.104716 -0.0532764 90
-0.78487 0.127505 -0.120587 55
-0.767716 0.124044 -0.171266 50
-2.6642 0.922633 0.641826 49
-2.82358 0.441055 0.755413 47
-2.69325 0.932197 0.444856 47
-2.8364 0.448558 0.550943 49
-2.83758 0.452259 0.348051 49
-0.625469 0.215611 -0.0329502 58
-0.633644 0.105436 -0.0530589 90
-0.779769 0.128104 -0.119804 55
-0.772312 0.126139 -0.172389 52
-2.65917 0.937035 0.641826 49
-2.82116 0.456326 0.755413 47
-2.67886 0.943469 0.443295 45
-2.82674 0.462227 0.549513 49
-2.82775 0.466406 0.347138 49
-2.84449 0.47116 0.149288 56
-0.624331 0.218883 -0.0329502 58
-0.642914 0.110365 -0.0539288 90
-0.776628 0.131922 -0.119413 55
-0.766809 0.129534 -0.171266 50
-2.6577 0.94121 0.641826 50
-2.81797 0.460863 0.754767 49
-2.67721 0.948143 0.443295 44
-2.82593 0.46716 0.549513 50
-2.82448 0.470937 0.346834 49
-2.8412 0.475716 0.149157 73
-0.628654 0.221642 -0.0332127 58
-0.637807 0.110672 -0.0534938 90
-0.776396 0.133278 -0.119413 55
-0.768985 0.131267 -0.171827 50
-2.65027 0.954749 0.641264 50
-2.81314 0.475213 0.754121 47
-2.66756 0.960473 0.442514 45
-2.82829 0.482768 0.550466 50
-2.82442 0.486136 0.347138 53
-1.45124 0.521866 0.0263095 4
-2.84113 0.491007 0.149288 71
-0.629833 0.225778 -0.033344 58
-0.639673 0.114431 -0.0537113 89
-0.78058 0.138036 -0.120196 55
-0.765886 0.134884 -0.171266 52
-2.64877 0.958911 0.641264 50
-2.8123 0.480122 0.754121 49
-2.6614 0.962979 0.441734 47
-2.8226 0.486877 0.549513 50
-2.82121 0.490151 0.346834 55
-1.45503 0.526102 0.0263968 4
-2.84036 0.495469 0.149288 88
-0.627091 0.226025 -0.0332127 56
-1.42808 0.51717 -0.181936 4
-0.637019 0.115122 -0.0534938 89
-0.780338 0.139398 -0.120196 55
-0.768074 0.136498 -0.171827 52
-2.64143 0.971924 0.640703 50
-2.80746 0.493936 0.753475 49
-2.65633 0.976901 0.441734 49
-2.8201 0.501157 0.549513 50
-2.82593 0.506217 0.347747 58
-1.44297 0.530004 0.0262222 4
-2.83772 0.510334 0.149288 90
-0.625899 0.229306 -0.0332127 56
-1.42535 0.52464 -0.181936 4
-0.638859 0.118894 -0.0537113 86
-0.777166 0.14305 -0.119804 55
-0.767349 0.140518 -0.171827 50
-2.63973 0.976533 0.640703 50
-2.80659 0.498835 0.753475 49
-2.64999 0.97982 0.440953 49
-2.81672 0.50614 0.549036 52
-2.82016 0.510273 0.347138 56
-1.44429 0.533642 0.0262659 4
-2.83683 0.515286 0.149288 62
-1.42444 0.527127 -0.181936 4
-0.63865 0.120008 -0.0537113 85
-0.776915 0.144406 -0.119804 55
-0.767102 0.141857 -0.171827 50
-2.63441 0.990801 0.640703 50
-2.7991 0.51315 0.752182 50
-2.64927 0.995884 0.441734 52
-2.81403 0.520882 0.549036 52
-2.81736 0.525524 0.347138 55
-1.4368 0.539435 0.0261786 4
-2.83154 0.530172 0.149157 59
-1.43085 0.53833 -0.183153 4
-0.638013 0.123351 -0.0537113 79
-1.29826 0.488819 -0.262367 3
-0.776148 0.148472 -0.119804 53
-0.768719 0.146446 -0.172389 50
-2.63513 0.9958 0.641264 49
-2.7982 0.518035 0.752182 50
-2.64077 0.997423 0.440563 52
-2.8107 0.525346 0.54856 50
-2.81409 0.529494 0.346834 53
-1.44521 0.545481 0.0263531 4
-2.83071 0.534619 0.149157 59
-1.41376 0.53442 -0.181023 3
-0.637797 0.124464 -0.0537113 79
-1.29511 0.490213 -0.261891 4
-0.775888 0.149826 -0.119804 53
-0.768489 0.147654 -0.172389 50
-2.6276 1.00871 0.640703 50
-2.79317 0.531744 0.751536 50
-2.63551 1.01124 0.440563 52
-2.80801 0.539565 0.54856 52
-1.47922 0.566632 0.135527 4
-2.80884 0.543753 0.34653 50
-1.43776 0.550996 0.0262659 4
-2.82542 0.548961 0.149027 61
-0.622678 0.237913 -0.0332127 58
-1.4202 0.545381 -0.18224 4
-0.637159 0.127691 -0.0537113 79
-1.2949 0.497644 -0.262367 4
-0.775093 0.153887 -0.119804 52
-1.01079 0.388919 -0.280636 3
-0.767705 0.151676 -0.172389 52
-2.62829 1.01371 0.641264 50
-2.79224 0.536618 0.751536 50
-2.63374 1.01583 0.440563 52
-2.80706 0.544465 0.54856 50
-1.48055 0.57011 0.135745 8
-2.80545 0.548183 0.346225 50
-1.4368 0.553504 0.0262659 8
-2.82691 0.554368 0.149157 70
-0.619933 0.2381 -0.0330815 56
-1.42619 0.550547 -0.183153 4
-0.63449 0.128327 -0.0534938 77
-1.3009 0.502564 -0.263796 3
-0.774823 0.155239 -0.119804 53
-1.00111 0.387186 -0.278049 4
-0.769831 0.153477 -0.17295 50
-2.62032 1.02749 0.640703 50
-2.78929 0.551717 0.751536 49
-2.62821 1.03007 0.440563 52
-2.80648 0.560121 0.549036 50
-1.47745 0.578112 0.135745 4
-2.80001 0.562869 0.345921 52
-1.44309 0.564923 0.0264404 4
-2.82142 0.569165 0.149027 80
-0.630255 0.246013 -0.0337378 58
-1.41858 0.556438 -0.182544 4
-0.638671 0.132736 -0.0539288 74
-1.29816 0.509595 -0.263796 4
-0.776421 0.159777 -0.120196 53
-0.998996 0.392597 -0.278049 4
-0.771379 0.158114 -0.173512 50
-2.6187 1.0316 0.640703 50
-2.79069 0.557053 0.752182 49
-2.62199 1.03239 0.439783 52
-2.80309 0.564538 0.54856 50
-1.47644 0.58069 0.135745 8
-2.80642 0.568733 0.346834 55
-1.43977 0.566524 0.0263968 4
-2.82786 0.575077 0.149419 90
-0.62518 0.24528 -0.0334753 58
-1.42231 0.56049 -0.183153 4
-0.635997 0.133357 -0.0537113 73
-1.29955 0.512763 -0.264272 3
-0.773721 0.160645 -0.119804 53
-0.991575 0.39167 -0.276109 4
-0.763963 0.157891 -0.171827 52
-2.61326 1.0453 0.640703 50
-2.78547 0.57069 0.751536 49
-2.61884 1.04702 0.440173 53
-2.79539 0.577733 0.547607 50
-1.47579 0.589081 0.135963 4
-2.80827 0.584423 0.347442 59
-1.43689 0.573804 0.0263968 4
-2.81992 0.588863 0.149157 106
-0.623887 0.24855 -0.0334753 58
-1.41936 0.567929 -0.183153 4
-0.640167 0.137697 -0.0541462 73
-1.29238 0.517505 -0.26332 4
-0.770451 0.164194 -0.119413 52
-0.9963 0.399388 -0.278049 4
-0.767898 0.16287 -0.17295 52
-2.61143 1.04986 0.640703 50
-2.77974 0.574581 0.750244 49
-2.61243 1.04974 0.439392 52
-2.79428 0.583099 0.547607 52
-1.47476 0.591655 0.135963 8
-2.80238 0.588311 0.346834 61
-1.43578 0.576561 0.0263968 4
-2.81645 0.593273 0.149027 106
-0.621137 0.248706 -0.033344 58
-1.42757 0.574117 -0.18437 4
-0.637488 0.138304 -0.0539288 70
-1.29603 0.521597 -0.264272 4
-0.770163 0.165539 -0.119413 52
-0.988816 0.398582 -0.276109 4
-0.769998 0.164705 -0.173512 52
-2.60571 1.06397 0.640703 49
-2.77895 0.59011 0.75089 50
-2.61357 1.06666 0.440563 53
-2.79119 0.597722 0.547607 50
-1.48076 0.603393 0.136835 8
-2.80401 0.604503 0.347442 61
-1.43043 0.583125 0.0263531 4
-2.81319 0.608503 0.149027 108
-0.622137 0.252899 -0.0334753 58
-1.41296 0.577131 -0.182848 4
-0.63919 0.142163 -0.0541462 68
-1.28638 0.525809 -0.262844 4
-0.774115 0.170602 -0.120196 52
-0.986716 0.403754 -0.276109 4
-0.764331 0.167853 -0.172389 50
-2.60404 1.06806 0.640703 49
-2.77319 0.593956 0.749597 49
-2.61189 1.07077 0.440563 52
-2.79014 0.602592 0.547607 50
-1.4774 0.605031 0.136617 8
-2.79821 0.607861 0.346834 59
-1.44328 0.591319 0.0266149 4
-2.81712 0.613976 0.149288 90
-0.621694 0.253985 -0.0334753 58
-1.41435 0.580294 -0.183153 4
-0.636507 0.142751 -0.0539288 68
-1.29226 0.530857 -0.264272 4
-0.771402 0.171432 -0.119804 53
-0.988242 0.406397 -0.276756 3
-0.766448 0.169565 -0.17295 50
-2.60516 1.0845 0.642387 50
-2.77015 0.607985 0.749597 49
-2.60625 1.08443 0.440563 53
-2.78705 0.616706 0.547607 50
-1.47892 0.614416 0.137052 4
-2.79256 0.621969 0.34653 53
-1.43335 0.595733 0.026484 4
-2.80411 0.626557 0.148765 61
-0.62266 0.258197 -0.0336066 58
-1.41358 0.588647 -0.183457 3
-0.638182 0.146622 -0.0541462 67
-1.2873 0.536445 -0.263796 3
-0.770494 0.175469 -0.119804 52
-0.986172 0.411394 -0.276756 3
-0.770308 0.174624 -0.174073 52
-2.59877 1.08716 0.641264 49
-2.77145 0.613337 0.750244 49
-2.59752 1.08612 0.439392 53
-2.78347 0.621525 0.54713 50
-1.47555 0.616035 0.136835 4
-2.78179 0.624683 0.345313 49
-1.43682 0.600415 0.0265713 4
-2.80301 0.63145 0.148765 58
-0.622209 0.259284 -0.0336066 58
-1.41026 0.590153 -0.183153 4
-0.637925 0.147735 -0.0541462 65
-1.28862 0.539641 -0.264272 4
-0.770187 0.176813 -0.119804 50
-0.987606 0.414224 -0.277403 3
-0.770002 0.175968 -0.174073 50
-2.59733 1.10311 0.642387 49
-2.76573 0.627792 0.749597 49
-2.59388 1.10112 0.439783 53
-2.78017 0.636091 0.54713 49
-1.46302 0.620113 0.135963 4
-2.78078 0.640278 0.345617 49
-1.44055 0.610864 0.0267022 4
-2.79956 0.646606 0.148765 61
-0.62314 0.263515 -0.0337378 58
-1.40705 0.597775 -0.183153 3
-0.641998 0.152187 -0.0545811 65
-1.2902 0.54853 -0.265224 3
-0.764436 0.179743 -0.119021 50
-0.978761 0.416543 -0.275463 4
-0.766663 0.179591 -0.173512 50
-2.59559 1.10719 0.642387 49
-2.76228 0.632084 0.748951 47
-2.59214 1.10519 0.439783 52
-2.77906 0.640942 0.54713 50
-1.46194 0.622666 0.135963 4
-2.78703 0.646315 0.34653 55
-1.43949 0.613377 0.0267022 8
-2.8034 0.652126 0.149027 70
-0.624975 0.265583 -0.0338691 58
-1.41295 0.602912 -0.184065 4
-0.636878 0.152185 -0.0541462 65
-1.29375 0.552714 -0.266177 3
-0.768933 0.182186 -0.119804 52
-0.98469 0.421108 -0.277403 3
-0.76638 0.180795 -0.173512 50
-2.60317 1.12658 0.645756 44
-2.76139 0.646603 0.749597 49
-2.77817 0.65556 0.547607 52
-1.46105 0.631047 0.136181 4
-2.78602 0.661468 0.346834 61
-1.43407 0.619661 0.0266585 4
-2.79752 0.666221 0.148896 99
-0.625866 0.269845 -0.0340004 58
-1.40978 0.610302 -0.184065 3
-0.638496 0.156092 -0.0543637 64
-1.28418 0.556322 -0.264748 3
-0.765566 0.185642 -0.119413 50
-0.975903 0.423196 -0.275463 3
-0.767795 0.185362 -0.174073 50
-2.87593 1.25074 0.714824 27
-2.76026 0.651422 0.749597 49
-2.77213 0.659764 0.546653 52
-1.45081 0.629622 0.135309 4
-2.78486 0.666329 0.346834 61
-1.43517 0.623411 0.0267022 4
-2.79635 0.671103 0.148896 132
-0.623105 0.26994 -0.0338691 58
-1.41099 0.613754 -0.18437 4
-0.643068 0.158362 -0.0547986 65
-1.28996 0.561508 -0.266177 4
-0.767643 0.18755 -0.119804 50
-0.979514 0.427004 -0.276756 3
-0.765099 0.18614 -0.173512 50
-2.8513 1.25841 0.710332 27
-2.7567 0.666347 0.749597 45
-2.71604 1.19809 0.463586 17
-2.77341 0.675423 0.547607 52
-1.44739 0.637463 0.135309 4
-2.77881 0.6808 0.34653 61
-1.42502 0.627888 0.0265713 4
-2.79268 0.686223 0.148896 129
-0.623967 0.274208 -0.0340004 58
-1.40538 0.620375 -0.184065 4
-0.637391 0.160545 -0.0543637 62
-1.28241 0.566491 -0.265224 4
-0.76665 0.191566 -0.119804 52
-0.979472 0.433107 -0.277403 3
-0.768816 0.191425 -0.174635 50
-2.82037 1.25004 0.703032 29
-2.75083 0.670022 0.748305 33
-2.71415 1.20235 0.463586 11
-2.77222 0.680262 0.547607 52
-1.4531 0.643017 0.135963 4
-2.78014 0.685755 0.346834 62
-1.43535 0.635443 0.0267894 4
-2.78918 0.690013 0.148765 131
-0.623488 0.275297 -0.0340004 58
-1.4112 0.625605 -0.184978 4
-0.639528 0.162252 -0.0545811 62
-1.28142 0.568728 -0.265224 3
-0.766315 0.192904 -0.119804 50
-0.969892 0.430882 -0.274816 3
-0.763781 0.191477 -0.173512 50
-2.76713 1.24379 0.69124 24
-2.7521 0.685095 0.749597 49
-2.72133 1.22263 0.465928 12
-2.76398 0.693099 0.546653 52
-1.44301 0.6473 0.135309 4
-2.77652 0.700302 0.346834 61
-1.43668 0.644751 0.0268767 4
-2.7831 0.704 0.148634 110
-0.622086 0.278449 -0.0340004 58
-1.41243 0.635024 -0.185587 4
-0.638699 0.165487 -0.0545811 61
-1.27853 0.575207 -0.265224 3
-0.767689 0.197515 -0.120196 52
-0.963298 0.433796 -0.273523 3
-0.762768 0.195474 -0.173512 49
-2.74076 1.2371 0.685063 53
-2.74855 0.689314 0.748951 47
-2.73045 1.23246 0.467879 17
-2.76515 0.698519 0.54713 50
-1.44642 0.651868 0.135745 4
-2.77529 0.705147 0.346834 58
-1.43099 0.645199 0.0267894 8
-2.78187 0.708856 0.148634 105
-0.621599 0.279534 -0.0340004 58
-1.40906 0.636465 -0.185282 4
-0.635995 0.16599 -0.0543637 59
-1.27752 0.577437 -0.265224 3
-0.762555 0.197644 -0.119413 50
-0.966937 0.437474 -0.274816 3
-0.764788 0.197399 -0.174073 49
-2.73624 1.25293 0.685625 49
-2.74257 0.7031 0.748305 45
-2.69926 1.23542 0.463586 52
-2.76145 0.712988 0.54713 50
-1.44299 0.659432 0.135745 4
-2.77156 0.719669 0.346834 61
-1.43214 0.654765 0.0268767 8
-2.78537 0.725287 0.149027 93
-0.620078 0.282893 -0.0340004 58
-1.40796 0.644869 -0.185587 4
-0.635087 0.169429 -0.0543637 58
-1.27002 0.582069 -0.264272 4
-0.768682 0.203487 -0.120587 50
-0.964633 0.442531 -0.274816 3
-0.763744 0.201401 -0.174073 49
-2.70307 1.24344 0.677763 29
-2.74367 0.708486 0.748951 42
-2.69262 1.23807 0.462806 32
-2.76008 0.718288 0.54713 52
-1.45541 0.668196 0.137052 4
-2.7703 0.724505 0.346834 62
-1.42634 0.655422 0.0267894 4
-2.77927 0.728889 0.148765 110
-0.624118 0.286065 -0.0342629 56
-1.40233 0.645247 -0.184978 4
-0.634791 0.170537 -0.0543637 58
-1.269 0.584285 -0.264272 4
-0.763547 0.203585 -0.119804 50
-0.970357 0.447424 -0.276756 4
-0.763392 0.202733 -0.174073 49
-2.67423 1.24773 0.672148 29
-2.7398 0.72332 0.748951 45
-2.67693 1.24844 0.461245 30
-2.75865 0.733357 0.547607 52
-1.44726 0.673954 0.136617 4
-2.76634 0.739483 0.346834 61
-1.42062 0.661824 0.0267458 8
-2.77529 0.743915 0.148765 137
-0.62035 0.288272 -0.0341317 58
-1.41006 0.658082 -0.186499 4
-0.636296 0.1745 -0.0545811 58
-1.26582 0.591142 -0.264272 4
-0.76247 0.20758 -0.119804 49
-0.968001 0.452499 -0.276756 4
-0.764639 0.207484 -0.174635 49
-2.65242 1.24262 0.667094 50
-2.74087 0.728717 0.749597 49
-2.65261 1.24216 0.457343 30
-2.75263 0.736909 0.546653 49
-1.44834 0.677537 0.136835 4
-2.75798 0.741906 0.345921 55
-1.41268 0.661118 0.0266149 4
-2.76929 0.746982 0.148503 136
-0.619845 0.289354 -0.0341317 58
-1.39779 0.655021 -0.184978 4
-0.631179 0.174319 -0.0541462 56
-1.26257 0.592306 -0.263796 4
-0.762107 0.20891 -0.119804 49
-0.96284 0.452129 -0.275463 3
-0.766666 0.209312 -0.175197 49
-2.65687 1.26172 0.669902 58
-2.73481 0.741952 0.748951 44
-2.6483 1.25709 0.457733 58
-2.74649 0.750189 0.546177 50
-1.44039 0.682721 0.136399 4
-2.75645 0.756989 0.346225 52
-1.41608 0.671478 0.0267458 4
-2.77497 0.764106 0.149027 90
-0.618322 0.292596 -0.0341317 58
-1.40106 0.665531 -0.185891 4
-0.635062 0.178938 -0.0545811 56
-1.2662 0.601856 -0.265224 3
-0.964898 0.459077 -0.276756 4
-0.765559 0.213324 -0.175197 49
-2.65687 1.26741 0.670464 59
-2.73118 0.746092 0.748305 45
-2.64833 1.26277 0.458123 58
-2.74978 0.756755 0.54713 52
-1.45043 0.690597 0.137488 4
-2.75991 0.763114 0.346834 55
-1.40803 0.670964 0.0266149 4
-2.77123 0.768286 0.148896 71
-0.622315 0.295827 -0.0343942 58
-1.40214 0.669046 -0.186195 4
-0.634749 0.180046 -0.0545811 56
-1.26958 0.606184 -0.266177 3
-0.966192 0.461973 -0.277403 4
-0.765186 0.21466 -0.175197 49
-2.65655 1.28495 0.672148 59
-2.72245 0.759568 0.747013 49
-2.64368 1.27816 0.458513 59
-2.74815 0.771802 0.547607 50
-1.44892 0.699519 0.137706 4
-2.75574 0.778035 0.346834 70
-1.41124 0.681594 0.0267458 4
-2.76703 0.783268 0.148896 62
-0.623005 0.30017 -0.0345255 58
-1.4052 0.679871 -0.187108 4
-0.636195 0.184042 -0.0547986 56
-1.26186 0.610901 -0.265224 3
-0.961588 0.46597 -0.276756 4
-0.761667 0.21814 -0.174635 45
-2.65453 1.28912 0.672148 64
-2.72112 0.764318 0.747013 49
-2.65033 1.28709 0.460074 61
-2.74207 0.77527 0.546653 49
-1.44769 0.702047 0.137706 4
-2.75677 0.783518 0.347138 61
-1.4123 0.685149 0.0267894 4
-2.76566 0.788096 0.148896 71
-0.620235 0.300165 -0.0343942 56
-2.76151 0.787956 -0.0495212 17
-1.39062 0.675803 -0.185282 4
-0.635872 0.185152 -0.0547986 56
-1.26962 0.617405 -0.267129 3
-0.965114 0.469767 -0.278049 4
-2.65407 1.30669 0.673833 71
-2.72173 0.779878 0.748305 49
-2.6502 1.30422 0.461245 67
-2.73561 0.788941 0.546177 49
-1.4373 0.706316 0.137052 4
-2.74309 0.795194 0.345921 53
-1.40645 0.69143 0.0267458 4
-2.76629 0.803952 0.149157 98
-0.623134 0.305616 -0.0346568 56
-2.76455 0.804487 -0.0496521 30
-1.39151 0.685271 -0.185891 4
-0.634894 0.188479 -0.0547986 56
-1.26417 0.622957 -0.266653 3
-0.962641 0.474814 -0.278049 4
-2.65856 1.3141 0.675517 80
-2.71804 0.783962 0.747659 49
-2.65036 1.30948 0.461635 77
-2.73423 0.793714 0.546177 50
-1.44053 0.711032 0.137488 4
-2.73707 0.79812 0.345313 49
-1.40524 0.693883 0.0267458 4
-2.75783 0.806207 0.148765 105
-0.620362 0.305595 -0.0345255 58
-1.38599 0.685253 -0.185282 4
-0.629782 0.188195 -0.0543637 55
-1.25648 0.62189 -0.265224 3
-0.963973 0.477568 -0.278696 4
-2.65164 1.328 0.675517 86
-2.71404 0.797709 0.747659 45
-2.65229 1.32776 0.463196 88
-2.72547 0.806159 0.545224 50
-1.43914 0.71943 0.137706 4
-2.73048 0.811738 0.345008 47
-1.41288 0.706587 0.026964 4
-2.75358 0.820635 0.148765 73
-0.616522 0.30772 -0.0343942 56
-1.39125 0.696954 -0.186499 4
-0.631175 0.192198 -0.0545811 55
-1.25113 0.627139 -0.264748 3
-0.959386 0.481355 -0.278049 4
-2.62539 1.32058 0.669341 36
-2.71496 0.803126 0.748305 45
-2.62571 1.32018 0.458904 45
-2.72627 0.812086 0.5457 52
-1.43343 0.719702 0.13727 4
-2.73143 0.817209 0.345313 49
-1.40483 0.705925 0.0268331 4
-2.74257 0.822587 0.148242 50
-0.622672 0.312165 -0.034788 58
-1.3856 0.697146 -0.185891 4
-0.628452 0.192587 -0.0543637 53
-1.23907 0.623793 -0.262367 4
-0.958461 0.483196 -0.278049 4
-2.59651 1.32369 0.663725 33
-2.71289 0.818497 0.748951 45
-2.60313 1.32651 0.456172 35
-2.72433 0.827059 0.546177 49
-1.43617 0.730841 0.137924 4
-2.72935 0.832696 0.345617 52
-1.40111 0.713271 0.0268331 4
-0.618806 0.314286 -0.0346568 58
-1.38623 0.706891 -0.186499 4
-0.632201 0.197325 -0.0547986 55
-1.24224 0.633841 -0.263796 3
-0.960216 0.490411 -0.279342 4
-2.57491 1.31777 0.658671 32
-2.71377 0.823928 0.749597 49
-2.58126 1.32047 0.45266 33
-2.72054 0.831099 0.5457 49
-1.42824 0.729941 0.13727 4
-2.73278 0.83843 0.346225 73
-1.39764 0.714576 0.0267894 8
-0.618256 0.315366 -0.0346568 58
-1.37849 0.70567 -0.185587 4
-0.627093 0.19697 -0.0543637 53
-1.23021 0.630401 -0.261415 3
-0.952917 0.488771 -0.277403 4
-2.54852 1.32113 0.653618 33
-2.70956 0.837653 0.749597 49
-2.5502 1.32146 0.448368 33
-2.71864 0.845583 0.546177 45
-1.43116 0.7406 0.137924 4
-2.72362 0.851254 0.345617 50
-1.39844 0.723943 0.0268767 4
-0.614381 0.317448 -0.0345255 58
-1.38139 0.716311 -0.186499 4
-0.630808 0.201733 -0.0547986 53
-1.23572 0.641149 -0.26332 3
-0.952572 0.494704 -0.278049 4
-2.52893 1.31657 0.649126 33
-2.7081 0.842381 0.749597 49
-2.52818 1.31564 0.444856 32
-2.7217 0.85226 0.54713 47
-1.42324 0.739645 0.13727 4
-2.72213 0.856007 0.345617 49
-1.39705 0.726627 0.0268767 4
-0.618253 0.320828 -0.034788 56
-1.37573 0.716424 -0.185891 4
-0.630455 0.202834 -0.0547986 53
-1.21937 0.635351 -0.259987 3
-1.9851 0.626382 -0.324568 14
-0.958039 0.499891 -0.279989 4
-2.50238 1.31999 0.644072 32
-2.7035 0.857021 0.749597 49
-2.50356 1.32007 0.441734 33
-2.72188 0.867982 0.548083 49
-1.43023 0.753146 0.13836 4
-2.71509 0.869969 0.345313 47
-1.39102 0.732764 0.0268331 4
-0.618772 0.325227 -0.0349193 56
-1.37184 0.723857 -0.185891 4
-0.629384 0.206132 -0.0547986 49
-1.22676 0.647679 -0.262367 3
-1.97944 0.636017 -0.324176 12
-0.949008 0.501507 -0.278049 4
-2.48093 1.31365 0.639018 33
-2.7043 0.862468 0.750244 49
-2.48403 1.31475 0.438612 33
-2.72269 0.873477 0.54856 50
-2.72081 0.876504 0.346225 45
-1.38974 0.735191 0.0268331 4
-0.622615 0.328646 -0.0351819 56
-1.36851 0.724848 -0.185587 4
-0.631394 0.207993 -0.055016 45
-1.21696 0.645212 -0.260463 4
-1.97362 0.637963 -0.323393 14
-0.943868 0.500893 -0.276756 4
-2.45899 1.31856 0.635087 35
-2.69301 0.87392 0.748305 45
-2.45753 1.31723 0.4351 33
-2.71824 0.887247 0.54856 52
-2.71854 0.891507 0.34653 47
-1.3882 0.743398 0.0268767 4
-0.616487 0.329539 -0.0349193 56
-1.37125 0.735528 -0.186499 4
-0.630297 0.211296 -0.055016 39
-1.20719 0.647875 -0.259034 3
-1.96321 0.645989 -0.322219 14
-0.954076 0.512538 -0.280636 4
-2.43953 1.3136 0.630595 35
-2.68918 0.877873 0.747659 45
-2.44001 1.31332 0.432368 33
-2.71653 0.892464 0.54856 50
-2.71934 0.897024 0.346834 47
-1.38897 0.747248 0.0269203 4
-0.618108 0.3318 -0.0350506 56
-1.37215 0.739099 -0.186804 4
-0.625196 0.210838 -0.0545811 35
-1.20822 0.651148 -0.25951 3
-1.95974 0.648645 -0.321827 14
-0.946719 0.51092 -0.278696 4
-2.41315 1.31627 0.625541 36
-2.6798 0.890894 0.746366 45
-2.41553 1.31704 0.429247 35
-2.70716 0.905127 0.547607 49
-2.71209 0.910937 0.34653 50
-1.38723 0.755708 0.026964 4
-0.614171 0.333835 -0.0349193 56
-1.37248 0.748893 -0.187412 4
-0.631168 0.216482 -0.0552335 29
-1.20468 0.657675 -0.25951 3
-1.94929 0.656549 -0.320653 14
-0.946148 0.51703 -0.279342 4
-2.39399 1.31069 0.621049 36
-2.67366 0.894046 0.745074 45
-2.39396 1.31015 0.425735 35
-2.70325 0.909072 0.54713 45
-2.72007 0.918356 0.347747 89
-1.38153 0.755725 0.0268767 4
-0.613588 0.334906 -0.0349193 55
-1.36478 0.747466 -0.186499 4
-0.628429 0.216788 -0.055016 24
-1.19923 0.657413 -0.258558 3
-1.94112 0.65759 -0.319478 12
-0.951591 0.522174 -0.281282 4
-2.37644 1.3173 0.618242 35
-2.67139 0.908341 0.74572 47
-2.37412 1.31548 0.423393 35
-2.69165 0.920373 0.5457 45
-2.71053 0.930981 0.347138 50
-1.3755 0.761495 0.0268331 4
-0.620556 0.342962 -0.0354444 55
-1.36302 0.755807 -0.186804 4
-0.624929 0.219268 -0.0547986 27
-1.19588 0.663474 -0.258558 3
-1.93298 0.666146 -0.318695 12
-0.944717 0.524634 -0.279989 4
-2.35499 1.31077 0.613188 35
-2.66751 0.912225 0.745074 49
-2.3524 1.30881 0.419881 33
-2.68755 0.924744 0.545224 44
-2.70655 0.934904 0.346834 47
-1.37185 0.762918 0.0267894 4
-0.615596 0.341613 -0.0351819 53
-1.43492 0.499695 -0.0259168 4
-1.36603 0.760603 -0.187412 4
-0.619836 0.218735 -0.0543637 38
-1.19901 0.667954 -0.25951 3
-1.92714 0.667913 -0.317912 12
-0.943708 0.526447 -0.279989 4
-2.33301 1.31511 0.609257 36
-2.66254 0.926644 0.745074 47
-2.33238 1.31423 0.41754 35
-2.67804 0.93719 0.544271 44
-2.69443 0.947078 0.345921 44
-1.36784 0.77009 0.0267894 8
-0.611624 0.343605 -0.0350506 53
-1.43219 0.507451 -0.0259168 4
-1.36621 0.770425 -0.18802 4
-0.621033 0.222802 -0.0545811 47
-1.19324 0.673223 -0.259034 3
-1.92595 0.678809 -0.318303 12
-0.940939 0.531381 -0.279989 4
-2.31398 1.30917 0.604765 38
-2.65636 0.929702 0.743782 47
-2.31312 1.30816 0.414418 35
-2.6764 0.941862 0.544271 45
-2.69059 0.950486 0.345617 44
-0.615368 0.347133 -0.0353131 53
-1.4313 0.50995 -0.0259168 4
-1.35853 0.768897 -0.187108 4
-0.62769 0.226369 -0.0552335 50
-1.18566 0.671669 -0.257606 3
-1.9201 0.680531 -0.31752 12
-0.942109 0.534216 -0.280636 4
-2.29019 1.31157 0.600273 36
-2.65617 0.944746 0.745074 47
-2.2891 1.31043 0.411296 35
-2.66928 0.954574 0.543794 47
-2.68324 0.963726 0.345313 42
-1.47419 0.532917 0.0803357 4
-0.613603 0.350243 -0.0353131 53
-1.43341 0.518875 -0.0260041 4
-1.35663 0.777235 -0.187412 4
-0.624191 0.228703 -0.055016 50
-1.18225 0.677661 -0.257606 3
-1.91419 0.689744 -0.317129 12
-0.933114 0.535364 -0.278696 4
-2.27335 1.30666 0.596342 36
-2.65679 0.950189 0.74572 47
-2.27397 1.30703 0.408955 35
-2.66761 0.959232 0.543794 49
-2.67922 0.967569 0.345008 42
-1.46621 0.532952 0.0799432 4
-0.617318 0.353805 -0.0355757 53
-1.43015 0.520528 -0.0259605 4
-0.628477 0.231481 -0.0554509 50
-1.17681 0.677271 -0.256653 3
-1.90601 0.690577 -0.315954 12
-0.925905 0.533367 -0.276756 4
-1.06752 0.387812 -0.25381 4
-2.25362 1.31158 0.592973 36
-2.64951 0.963266 0.745074 47
-2.25003 1.30898 0.405833 36
-2.66025 0.972347 0.543317 49
-2.24341 1.30462 0.22399 36
-2.66479 0.978179 0.343792 41
-1.46574 0.541479 0.080074 4
-0.615457 0.357033 -0.0355757 53
-1.42975 0.528869 -0.0260041 4
-0.622579 0.233056 -0.055016 47
-1.17325 0.683423 -0.256653 3
-1.89773 0.698852 -0.315171 12
-0.931438 0.543084 -0.279342 4
-1.06776 0.39423 -0.254372 3
-2.23473 1.30528 0.588481 36
-2.64783 0.967889 0.745074 47
-2.23282 1.30418 0.403102 36
-2.66316 0.978674 0.544271 50
-2.23253 1.3035 0.223119 35
-2.65377 0.979408 0.342575 38
-1.46245 0.543175 0.0799432 4
-0.621298 0.361888 -0.0359695 52
-1.43821 0.53482 -0.0261786 4
-0.619834 0.233281 -0.0547986 47
-1.16147 0.679264 -0.254273 3
-1.89651 0.702163 -0.315171 12
-0.930489 0.544709 -0.279342 4
-1.07165 0.397769 -0.255495 4
-2.21296 1.30867 0.58455 36
-2.64046 0.980902 0.744428 47
-2.20896 1.30579 0.39998 36
-2.65339 0.990896 0.543317 49
-2.21067 1.3063 0.221593 35
-2.64395 0.991555 0.341966 36
-1.45491 0.549076 0.0796815 4
-0.619394 0.365136 -0.0359695 50
-1.42603 0.538838 -0.0260041 4
-0.618604 0.236524 -0.0547986 45
-1.16001 0.686589 -0.254749 3
-1.89049 0.711219 -0.31478 12
-0.9297 0.550807 -0.279989 4
-1.06955 0.403375 -0.255495 4
-2.19205 1.30094 0.579496 35
-2.641 0.98635 0.745074 49
-2.19181 1.30081 0.397248 35
-2.65396 0.996384 0.543794 50
-2.19554 1.30252 0.220286 36
-2.6306 0.991811 0.340445 33
-1.46096 0.55425 0.080074 4
-0.625194 0.370044 -0.0363633 49
-1.42508 0.541326 -0.0260041 4
-0.61586 0.236726 -0.0545811 45
-1.15459 0.6861 -0.253796 3
-1.88925 0.714518 -0.31478 12
-0.928737 0.552429 -0.279989 4
-1.07569 0.407803 -0.257179 4
-2.17455 1.3065 0.576689 35
-2.63354 0.999312 0.744428 45
-2.17016 1.30336 0.394517 36
-2.64871 1.01027 0.543794 50
-2.17375 1.30502 0.218761 38
-2.6161 1.00204 0.339228 30
-1.4627 0.563673 0.0803357 4
-0.621044 0.372134 -0.0362321 42
-1.42223 0.54878 -0.0260041 4
-0.616896 0.240944 -0.0547986 45
-1.15729 0.695937 -0.255225 3
-1.88779 0.72528 -0.315171 12
-0.934101 0.562277 -0.282576 4
-1.05988 0.408234 -0.25381 3
-2.15141 1.2977 0.571073 36
-2.63179 1.00391 0.744428 47
-2.1552 1.29949 0.392175 36
-2.64676 1.01535 0.543794 50
-2.15654 1.2998 0.217236 38
-2.60044 1.00128 0.337402 27
-1.45473 0.563541 0.0799432 4
-0.62253 0.374508 -0.0363633 42
-1.42827 0.553951 -0.026135 4
-0.625774 0.245594 -0.0556684 44
-1.15607 0.697956 -0.255225 3
-1.88191 0.726806 -0.314388 12
-0.935085 0.565321 -0.283222 4
-1.05916 0.410083 -0.25381 4
-2.13396 1.30297 0.568266 36
-2.62407 1.01726 0.743782 49
-2.13128 1.30083 0.389054 35
-2.64141 1.02919 0.543794 50
-2.1346 1.30237 0.21571 38
-2.58573 1.01173 0.336186 26
-1.45863 0.574125 0.0803357 4
-0.622691 0.379065 -0.0364946 36
-1.43224 0.564399 -0.0262659 3
-0.622159 0.247962 -0.0554509 44
-1.14391 0.699073 -0.25332 3
-1.87808 0.736649 -0.314388 12
-0.934171 0.571472 -0.283869 4
-1.06374 0.418454 -0.255495 4
-2.11738 1.2974 0.564335 36
-2.62454 1.02271 0.744428 49
-2.11871 1.29772 0.387102 36
-2.63732 1.03291 0.543317 50
-2.11959 1.29828 0.214403 39
-2.56797 1.00946 0.334056 27
-1.4647 0.579148 0.0807282 4
-1.42194 0.563244 -0.0260913 4
-0.621725 0.249047 -0.0554509 42
-1.14059 0.699782 -0.252844 3
-1.87909 0.740826 -0.31478 12
-0.937284 0.575635 -0.285162 4
-1.05627 0.417468 -0.25381 3
-2.10021 1.30205 0.561527 36
-2.61709 1.0351 0.743782 45
-2.0972 1.29969 0.384371 36
-2.63434 1.04715 0.543794 50
-2.10029 1.30111 0.213096 39
-2.55342 1.01923 0.332839 26
-1.7126 1.06105 0.0345558 12
-1.47093 0.590502 0.0812516 4
-1.42604 0.573209 -0.0262222 4
-0.620413 0.252299 -0.0554509 39
-1.13287 0.702954 -0.251892 3
-1.87059 0.748831 -0.313997 12
-0.936409 0.581648 -0.285809 3
-1.06087 0.425685 -0.255495 3
-2.08553 1.29798 0.558158 38
-2.61528 1.03967 0.743782 45
-2.08864 1.29943 0.3832 38
-2.63233 1.05221 0.543794 50
-2.08322 1.29556 0.211571 38
-2.54933 1.02277 0.332535 26
-1.69146 1.05244 0.0341631 12
-1.45831 0.588433 0.0805974 4
-1.4204 0.573839 -0.026135 4
-0.624596 0.255233 -0.0558859 36
-1.13164 0.70493 -0.251892 3
-0.93529 0.583445 -0.285809 4
-1.05333 0.424832 -0.25381 3
-2.06611 1.30145 0.554789 38
-2.61409 1.0556 0.745074 47
-2.06487 1.30017 0.380078 38
-2.62451 1.06505 0.543317 49
-2.06353 1.29885 0.210263 38
-2.54836 1.03841 0.333143 26
-1.67959 1.05728 0.0340322 12
-1.46435 0.600073 0.0811207 4
-1.41959 0.582457 -0.0261786 4
-0.623251 0.2585 -0.0558859 35
-1.11744 0.704487 -0.249511 3
-0.930182 0.587043 -0.285162 3
-1.05779 0.433266 -0.255495 3
-2.04554 1.29297 0.549735 38
-2.61001 1.05926 0.744428 47
-2.05239 1.29681 0.378127 38
-2.62492 1.07056 0.543794 50
-2.04864 1.29446 0.208956 38
-2.55132 1.04428 0.333752 27
-1.66718 1.05353 0.033814 11
-1.45416 0.598599 0.0805974 4
-1.42319 0.586825 -0.0262659 4
-0.62741 0.261471 -0.0563208 33
-1.11828 0.707751 -0.249987 3
-0.929156 0.588665 -0.285162 3
-1.05937 0.435844 -0.256056 3
-2.02643 1.29578 0.546366 38
-2.60461 1.07246 0.744428 47
-2.03309 1.29956 0.375786 38
-2.6172 1.08289 0.543317 50
-2.02947 1.29676 0.207649 39
-2.53894 1.05478 0.332839 29
-1.6534 1.05656 0.0336395 11
-1.44639 0.604294 0.0803357 4
-1.4179 0.593064 -0.0262222 4
-0.628333 0.265706 -0.0565382 32
-1.10848 0.709427 -0.248559 3
-0.928196 0.594666 -0.285809 4
-1.06383 0.444172 -0.257741 3
-2.01187 1.29141 0.542997 36
-2.60497 1.07792 0.745074 45
-2.01628 1.29376 0.373054 39
-2.01882 1.29491 0.206777 41
-2.53939 1.06017 0.333143 30
-1.65347 1.06109 0.0336831 12
-1.44534 0.606817 0.0803357 4
-1.41455 0.594576 -0.0261786 4
-0.630167 0.26776 -0.0567557 32
-1.10312 0.708703 -0.247606 3
-0.927053 0.596447 -0.285809 3
-1.05855 0.444162 -0.256618 4
-1.99668 1.29696 0.540751 38
-2.60133 1.09293 0.74572 47
-2.00096 1.29926 0.371493 39
-1.99926 1.29767 0.20547 41
-1.6437 1.06701 0.0335959 12
-1.44893 0.617544 0.0807282 4
-1.60177 1.04014 -0.098588 14
-1.41822 0.605143 -0.0263095 4
-0.631051 0.272026 -0.0569731 26
-1.09515 0.711981 -0.246654 4
-1.4837 0.631359 -0.250179 9
-0.923917 0.601293 -0.285809 4
-1.0494 0.447047 -0.254933 3
-1.9824 1.29211 0.537382 38
-2.59942 1.09747 0.74572 45
-1.98444 1.29296 0.368762 39
-1.97822 1.28891 0.203509 41
-1.64603 1.07261 0.0336831 12
-1.43877 0.615918 0.0802048 4
-1.61041 1.04976 -0.0992444 14
-1.41256 0.605661 -0.0262222 4
-1.08569 0.708517 -0.244749 3
-1.47123 0.629128 -0.248222 8
-0.918826 0.600258 -0.284516 3
-1.04645 0.447746 -0.254372 4
-1.95935 1.29173 0.532889 39
-2.59605 1.11156 0.746366 47
-1.96116 1.29245 0.36564 38
-1.96543 1.2948 0.202855 41
-1.64475 1.08368 0.0337704 12
-1.44699 0.62838 0.0808591 4
-1.41177 0.613793 -0.0262659 4
-1.08619 0.716711 -0.245702 3
-0.92383 0.610235 -0.287102 3
-1.04857 0.45514 -0.255495 3
-1.951 1.29111 0.531205 38
-2.60299 1.11989 0.748951 42
-1.95067 1.29042 0.364079 39
-1.95279 1.29135 0.201766 42
-2.78859 1.20965 0.368435 14
-1.64267 1.08683 0.0337704 12
-1.43902 0.62793 0.0804665 4
-1.4107 0.616256 -0.0262659 4
-1.08085 0.715891 -0.244749 3
-0.916624 0.607995 -0.285162 3
-1.03659 0.452148 -0.252687 3
-1.93387 1.29487 0.528397 39
-2.87818 1.25621 0.831019 26
-1.9293 1.29133 0.361348 39
-2.86363 1.25577 0.600509 26
-1.93956 1.29774 0.201112 41
-2.76155 1.21575 0.365697 20
-1.44017 0.637714 0.0807282 4
-1.41421 0.626897 -0.0263968 4
-1.9356 1.29753 -0.281422 41
-1.07696 0.721729 -0.244749 3
-1.47021 0.65003 -0.249396 4
-0.919439 0.61683 -0.287102 3
-1.03636 0.458726 -0.253249 3
-1.9197 1.28975 0.525028 39
-2.85164 1.2506 0.823911 26
-1.92317 1.2916 0.360567 39
-2.83896 1.25091 0.595743 26
-1.9249 1.29278 0.199805 41
-2.76191 1.22109 0.366001 27
-1.43917 0.639976 0.0807282 4
-1.4154 0.630374 -0.0264404 4
-1.92533 1.29502 -0.280205 42
-1.06756 0.718119 -0.242845 3
-1.4623 0.649608 -0.248222 4
-1.03786 0.461334 -0.25381 3
-1.90285 1.29293 0.52222 39
-2.81878 1.25328 0.816157 26
-1.90617 1.29471 0.358616 41
-2.79896 1.2503 0.588594 24
-1.90185 1.29131 0.198061 41
-2.75774 1.23655 0.366305 23
-1.43579 0.647502 0.0807282 4
-1.40078 0.632423 -0.0262222 4
-1.06999 0.72766 -0.244273 3
-1.45662 0.656248 -0.24783 4
-1.04434 0.470728 -0.256056 3
-1.8845 1.28526 0.517728 39
-2.77025 1.23759 0.802586 24
-1.88759 1.2869 0.355494 39
-2.74279 1.23163 0.577156 24
-1.88725 1.2862 0.196754 41
-2.73067 1.23019 0.362959 15
-1.43239 0.648984 0.0805974 4
-1.40652 0.637943 -0.0263531 4
-1.06467 0.726755 -0.243321 3
-1.46449 0.662835 -0.249396 4
-1.03239 0.467572 -0.253249 3
-1.8715 1.29128 0.516044 39
-2.7481 1.2456 0.798063 56
-1.8745 1.29288 0.354324 39
-2.74524 1.25003 0.579062 53
-1.87617 1.29356 0.196318 41
-2.68332 1.22644 0.357482 14
-1.87654 1.2943 0.0391806 41
-1.43794 0.660867 0.0811207 4
-1.3985 0.643468 -0.0262659 4
-1.05669 0.729711 -0.242368 4
-1.03872 0.477181 -0.255495 4
-1.85746 1.28589 0.512674 39
-2.74152 1.2484 0.79677 42
-1.86435 1.2902 0.352763 39
-2.72519 1.24668 0.575249 32
-1.85958 1.28691 0.194793 41
-2.66108 1.22137 0.354744 14
-1.86401 1.29046 0.0389625 42
-1.43236 0.661047 0.0808591 4
-1.39737 0.645908 -0.0262659 4
-1.05944 0.734355 -0.243321 4
-1.03797 0.478813 -0.255495 3
-1.84073 1.28861 0.509867 39
-2.70225 1.24714 0.787077 26
-1.84342 1.29003 0.350031 39
-2.68765 1.24606 0.568577 26
-1.84488 1.29059 0.193922 42
-2.62763 1.22277 0.351093 14
-1.84312 1.28983 0.0386571 41
-1.42661 0.667486 0.0807282 4
-1.40089 0.656132 -0.0263968 4
-1.19733 0.83855 -0.174938 9
-1.04969 0.735476 -0.241892 4
-1.03103 0.482195 -0.254372 4
-1.82851 1.28481 0.507059 39
-2.67595 1.24072 0.779969 26
-1.83106 1.28614 0.34808 41
-2.66076 1.23985 0.563334 30
-1.83244 1.28664 0.192832 42
-2.60075 1.21584 0.347747 15
-1.83655 1.29049 0.0385698 41
-1.42545 0.669975 0.0807282 4
-1.402 0.659633 -0.0264404 4
-1.20398 0.846354 -0.176155 11
-1.05442 0.741549 -0.243321 4
-1.02356 0.480915 -0.252687 4
-1.8136 1.28903 0.504813 41
-2.66045 1.25108 0.777384 52
-1.81402 1.28887 0.346129 41
-2.65645 1.25481 0.563811 58
-1.8153 1.28932 0.191743 42
-2.5874 1.22671 0.346834 15
-1.81144 1.28705 0.0381771 41
-1.42857 0.68088 0.0811207 4
-1.3939 0.66507 -0.0263531 4
-1.04839 0.745818 -0.242845 4
-1.02755 0.489561 -0.254372 4
-1.79967 1.28338 0.501444 41
-2.66482 1.25881 0.779323 56
-1.80172 1.28486 0.344178 41
-2.6587 1.26154 0.564764 58
-1.80494 1.2867 0.190871 42
-2.56732 1.22272 0.3444 23
-1.80512 1.28731 0.0380899 41
-1.42738 0.683372 0.0811207 4
-1.3995 0.670722 -0.026484 4
-1.04509 0.746219 -0.242368 4
-1.02009 0.488227 -0.252687 3
-1.78305 1.28566 0.498636 41
-2.66059 1.27332 0.779969 56
-1.79118 1.29107 0.343397 42
-2.65892 1.27816 0.566194 58
-1.78629 1.28708 0.189564 44
-2.5611 1.2357 0.3444 26
-1.78642 1.28765 0.0378281 41
-1.4284 0.692753 0.0813824 4
-1.38934 0.674543 -0.0263531 4
-1.02419 0.496544 -0.254372 4
-1.77292 1.28305 0.49639 42
-2.66273 1.28005 0.781261 58
-1.77293 1.28261 0.340276 41
-2.65646 1.28327 0.566194 59
-1.77799 1.28581 0.18891 44
-2.57011 1.24556 0.345921 26
-1.77585 1.28521 0.0376536 42
-1.4182 0.690899 0.0808591 4
-1.39491 0.680233 -0.026484 4
-1.01455 0.494102 -0.252126 3
-1.75809 1.28687 0.494144 41
-2.65793 1.29549 0.781908 59
-1.75601 1.28488 0.338324 41
-2.65853 1.30146 0.5681 61
-1.75895 1.28658 0.187603 44
-2.55888 1.25726 0.345313 26
-1.76507 1.29153 0.0375663 44
-1.41444 0.698562 0.0808591 4
-1.39569 0.689971 -0.0265713 4
-1.75753 1.28789 -0.262864 44
-1.01405 0.500653 -0.252687 4
-1.74625 1.28241 0.491336 41
-2.66001 1.30224 0.7832 65
-1.74802 1.28325 0.337154 42
-2.65846 1.30718 0.568577 68
-1.74867 1.28375 0.186731 44
-2.56135 1.26347 0.345921 27
-1.75073 1.28573 0.0373045 42
-1.42678 0.707396 0.0816441 4
-1.39449 0.692406 -0.0265713 4
-1.74951 1.28624 -0.261951 45
-1.00014 0.49581 -0.249318 3
-1.72974 1.28427 0.488529 42
-2.65988 1.3189 0.785139 73
-1.73335 1.28649 0.335593 42
-2.65181 1.32062 0.568577 77
-1.73416 1.28664 0.18586 42
-2.5547 1.27686 0.345921 32
-1.73818 1.2901 0.0371736 42
-1.42083 0.713743 0.0815132 4
-1.39097 0.699456 -0.0265713 4
-1.73479 1.28946 -0.260734 45
-0.995345 0.499956 -0.248757 3
-1.71969 1.28146 0.486283 42
-2.65325 1.32139 0.783846 59
-1.7212 1.28213 0.333642 42
-2.64707 1.32461 0.5681 52
-1.72592 1.2852 0.185206 44
-2.56579 1.28798 0.347747 21
-1.72368 1.28447 0.0369118 42
-1.41511 0.713986 0.0812516 4
-1.38751 0.700762 -0.0265277 4
-1.72459 1.28654 -0.259517 45
-1.00319 0.506043 -0.251003 4
-1.70495 1.28487 0.484037 42
-2.62664 1.32596 0.77803 33
-1.70832 1.28697 0.332471 42
-2.61819 1.32739 0.563334 32
-1.70701 1.28552 0.183899 42
-2.55214 1.29848 0.346834 14
-1.70695 1.28595 0.0366937 42
-1.409 0.720502 0.0811207 4
-1.38147 0.707127 -0.026484 4
-1.7077 1.28838 -0.257996 47
-1.96681 1.00236 -0.344535 12
-0.993916 0.508165 -0.249318 3
-1.69322 1.2802 0.481229 42
-2.60061 1.31857 0.770922 32
-1.69646 1.2822 0.33052 42
-2.59398 1.32086 0.558568 30
-1.69483 1.28098 0.182809 42
-2.52577 1.29011 0.343487 14
-1.69673 1.28289 0.0365192 42
-1.40565 0.721581 0.0809899 4
-1.68849 1.27711 -0.109484 23
-1.38691 0.712945 -0.0266149 4
-1.69579 1.28356 -0.256475 47
-1.97826 1.01251 -0.346884 12
-0.993116 0.509726 -0.249318 3
-1.67875 1.28312 0.478983 42
-2.5724 1.32072 0.76446 30
-1.67795 1.28206 0.328179 42
-2.56325 1.32164 0.553326 30
-1.68437 1.28652 0.182373 44
-2.51457 1.30104 0.342879 15
-1.68228 1.28538 0.0363446 45
-1.39741 0.726641 0.0807282 4
-1.68597 1.28868 -0.109746 27
-1.3744 0.715367 -0.0264404 4
-1.97952 1.02625 -0.348059 14
-0.9926 0.516033 -0.24988 4
-1.67094 1.28131 0.477298 42
-2.5572 1.31859 0.760583 30
-1.66984 1.28047 0.327008 41
-2.54349 1.31711 0.549513 30
-1.67027 1.28036 0.181066 45
-2.49025 1.29403 0.339836 15
-1.67408 1.28375 0.0362137 44
-1.40501 0.733675 0.0812516 4
-1.67184 1.28249 -0.108959 32
-1.37537 0.718915 -0.026484 4
-1.96676 1.02403 -0.346101 14
-1.00036 0.522237 -0.252126 4
-1.65436 1.28286 0.474491 42
-2.52455 1.31859 0.752828 29
-1.65336 1.28163 0.325057 44
-2.51698 1.32019 0.545224 30
-1.6537 1.28145 0.179977 44
-2.47685 1.30359 0.338924 21
-1.65352 1.28177 0.0359083 44
-1.39894 0.739861 0.0811207 4
-1.65721 1.2851 -0.108434 35
-1.37159 0.726107 -0.026484 4
-1.93951 1.02284 -0.342186 14
-0.99329 0.525209 -0.251003 3
-1.64081 1.27647 0.471121 42
-2.50726 1.31517 0.748305 30
-1.64332 1.27844 0.323496 42
-2.49511 1.31432 0.540934 30
-1.64164 1.27669 0.178887 44
-2.46579 1.30329 0.337707 26
-1.64733 1.28158 0.0358211 45
-1.39985 0.743465 0.0812516 4
-1.64315 1.27879 -0.107646 38
-1.37032 0.7285 -0.026484 4
-1.9268 1.02047 -0.340228 14
-0.994529 0.528075 -0.251564 4
-1.62814 1.28081 0.469437 42
-2.47899 1.31699 0.741843 32
-1.62885 1.28092 0.321935 44
-2.46869 1.317 0.536645 32
-1.63102 1.28218 0.178451 45
-2.44579 1.30918 0.335881 32
-1.63078 1.28246 0.0356029 45
-1.40475 0.755488 0.0817749 4
-1.63229 1.28457 -0.107383 39
-1.37089 0.738021 -0.0265713 4
-1.90835 1.02357 -0.337879 14
-0.983148 0.528697 -0.249318 4
-1.62017 1.27912 0.467752 44
-2.46389 1.31451 0.737966 32
-1.6208 1.27917 0.320764 44
-2.45533 1.31596 0.534262 32
-1.6151 1.27422 0.176926 45
-2.43475 1.30876 0.334664 33
-1.62243 1.28093 0.035472 45
-1.40343 0.757939 0.0817749 4
-1.62221 1.28122 -0.106858 41
-1.3696 0.740412 -0.0265713 4
-1.60971 1.27314 -0.391408 55
-1.89351 1.01991 -0.33553 14
-0.982224 0.530412 -0.249318 4
-1.60562 1.28178 0.465506 44
-2.43548 1.31638 0.731504 32
-1.60421 1.28021 0.318813 42
-2.42898 1.3183 0.529973 32
-1.60234 1.27828 0.176272 47
-2.41237 1.31364 0.332535 33
-1.60985 1.28473 0.0353411 45
-1.61158 1.28658 -0.106596 44
-1.35899 0.74423 -0.0264404 4
-1.60855 1.28644 -0.392837 52
-1.88163 1.02627 -0.334356 14
-0.990051 0.541518 -0.252126 3
-1.596 1.2782 0.46326 44
-2.41831 1.31259 0.72698 32
-1.59449 1.27655 0.317252 42
-2.40942 1.31317 0.52616 32
-1.59428 1.2764 0.175619 45
-2.3885 1.30556 0.329492 33
-1.59785 1.27972 0.035123 45
-1.5996 1.28158 -0.105939 45
-1.36208 0.748996 -0.0265277 4
-1.59291 1.27848 -0.389504 52
-1.86899 1.02365 -0.332398 14
-0.984918 0.540746 -0.251003 3
-1.58171 1.2804 0.461014 44
-2.3968 1.3167 0.722457 32
-1.57819 1.27711 0.315301 44
-2.38553 1.31589 0.522347 33
-1.58393 1.28132 0.175183 47
-2.36642 1.30966 0.327363 33
-1.58359 1.28149 0.0349484 47
-1.58317 1.28207 -0.105283 45
-1.3517 0.752255 -0.0263968 4
-1.5807 1.28189 -0.388075 53
-1.84847 1.02508 -0.329657 14
-1.57745 1.28105 -0.53476 58
-0.984208 0.54707 -0.251564 3
-1.56625 1.2724 0.457083 44
-2.37756 1.31158 0.717287 33
-1.57021 1.27518 0.314131 44
-2.36796 1.31217 0.519011 35
-1.57396 1.2778 0.174311 47
-2.35111 1.30658 0.325537 33
-1.57918 1.28296 0.0349048 45
-1.57706 1.28168 -0.105021 45
-1.35695 0.75825 -0.0265277 4
-1.56895 1.27689 -0.385694 52
-1.83156 1.01993 -0.326917 14
-1.56376 1.27491 -0.53088 59
-0.985384 0.549965 -0.252126 3
-1.5537 1.27621 0.455399 45
-2.35777 1.31738 0.71341 33
-1.55757 1.27896 0.31296 44
-2.34178 1.31378 0.514722 35
-1.56125 1.28155 0.173658 45
-2.32669 1.30958 0.323103 33
-1.557 1.27851 0.0345558 45
-1.56068 1.28199 -0.104364 47
-1.35282 0.765581 -0.0265277 4
-1.55634 1.28068 -0.384266 52
-1.81327 1.02226 -0.324568 14
-1.55334 1.28 -0.529587 58
-0.982394 0.555288 -0.252126 4
-1.54793 1.27555 0.454276 44
-2.33438 1.30971 0.706948 33
-1.54603 1.27354 0.311009 44
-2.3245 1.30946 0.511386 36
-1.54557 1.27318 0.172133 47
-2.30949 1.30472 0.320973 35
-1.54898 1.27645 0.0344249 45
-1.55074 1.27836 -0.103839 47
-1.34713 0.765485 -0.0264404 4
-1.54843 1.2787 -0.382837 52
-1.78997 1.01331 -0.320653 14
-1.54366 1.27655 -0.527 59
-0.985769 0.559217 -0.253249 4
-1.53375 1.2774 0.452029 45
-2.3088 1.31081 0.701132 35
-1.53555 1.27846 0.310228 44
-2.30717 1.31515 0.509003 36
-1.53528 1.27779 0.171697 47
-2.29184 1.31065 0.319452 35
-1.53674 1.27947 0.034294 45
-1.53658 1.27979 -0.103314 45
-1.34541 0.773532 -0.026484 4
-1.5344 1.28023 -0.380933 52
-1.76963 1.01411 -0.317912 14
-1.52977 1.27815 -0.524414 59
-0.978592 0.561962 -0.252126 3
-1.52614 1.27512 0.450345 45
-2.29181 1.3065 0.696609 35
-1.52763 1.27638 0.309058 45
-2.28781 1.30945 0.50519 35
-1.52349 1.27248 0.170607 45
-2.27017 1.30356 0.316714 33
-1.52492 1.27413 0.0340758 45
-1.53243 1.28087 -0.103183 47
-1.52652 1.27817 -0.379504 53
-1.75071 1.00738 -0.31478 14
-1.52199 1.27616 -0.522474 59
-0.979725 0.564877 -0.252687 3
-1.50992 1.27549 0.447537 45
-2.27447 1.31246 0.693378 35
-1.5115 1.27639 0.307106 45
-2.26392 1.3116 0.501377 35
-1.5111 1.27562 0.169954 47
-2.24613 1.30549 0.31428 33
-1.5125 1.27725 0.0339449 45
-1.51236 1.27759 -0.102264 47
-1.50838 1.27557 -0.237916 47
-1.51232 1.2798 -0.377599 53
-1.72618 1.0054 -0.311256 14
-1.50792 1.27786 -0.519887 61
-0.978863 0.571218 -0.253249 3
-1.50048 1.27155 0.445291 45
-2.25544 1.30678 0.688208 35
-1.50739 1.27743 0.306716 44
-2.24464 1.30571 0.497564 36
-1.50508 1.27503 0.169518 49
-2.23312 1.30317 0.312759 33
-1.50455 1.27504 0.033814 47
-1.50632 1.27699 -0.102001 47
-1.50048 1.27338 -0.237003 50
-1.5026 1.27608 -0.375695 53
-1.70308 0.995995 -0.307341 14
-1.50201 1.27736 -0.518594 59
-0.979972 0.574148 -0.25381 3
-1.48596 1.27357 0.443045 45
-2.23582 1.31165 0.684331 35
-1.48921 1.27592 0.304375 44
-2.22695 1.31163 0.495181 36
-1.49059 1.27667 0.168646 49
-2.20465 1.30265 0.309717 33
-1.49194 1.27828 0.0336831 47
-1.49182 1.27862 -0.101476 47
-1.48604 1.27501 -0.235786 50
-1.49196 1.28099 -0.374743 53
-1.67656 0.992374 -0.303426 14
-1.49142 1.28232 -0.517301 59
-0.978952 0.580676 -0.254372 4
-1.47842 1.27113 0.44136 45
-2.21686 1.30578 0.679161 35
-1.48346 1.27504 0.303594 45
-2.20563 1.30431 0.490892 35
-1.47893 1.27115 0.167557 49
-2.1855 1.29602 0.307283 35
-1.48213 1.27436 0.0335086 47
-1.48391 1.27634 -0.101082 49
-1.4784 1.27248 -0.234873 50
-1.48043 1.27557 -0.372362 55
-1.65995 0.986506 -0.300685 14
-1.47822 1.27544 -0.513421 61
-0.984334 0.585924 -0.256056 4
-1.46623 1.27406 0.439676 45
-2.19569 1.30836 0.674638 35
-1.47118 1.27792 0.302424 47
-2.18846 1.30918 0.488509 35
-1.46683 1.27371 0.166903 49
-2.17017 1.30236 0.306066 35
-1.47189 1.27856 0.0334214 47
-1.47155 1.27917 -0.100688 47
-1.46049 1.27043 -0.233048 52
-1.4721 1.28144 -0.371886 53
-1.6484 0.991382 -0.299511 14
-1.4681 1.27973 -0.512128 61
-0.974976 0.587326 -0.254372 4
-1.45483 1.2686 0.436868 47
-2.17888 1.30354 0.670114 38
-1.4615 1.27399 0.300863 45
-2.16488 1.30078 0.483743 36
-1.45898 1.27136 0.16625 49
-2.15725 1.29976 0.304545 35
-1.46378 1.27645 0.0332905 47
-1.4618 1.27517 -0.100163 47
-1.45453 1.26971 -0.23244 52
-1.45693 1.27269 -0.368552 55
-1.63608 0.987902 -0.297553 15
-1.45112 1.26982 -0.506955 61
-0.98022 0.592782 -0.256056 3
-1.44247 1.27162 0.435184 47
-2.15732 1.30658 0.665591 36
-1.44718 1.27535 0.299302 45
-2.14964 1.30701 0.481837 36
-1.44461 1.27264 0.165378 49
-2.13746 1.30368 0.302719 35
-1.44396 1.27252 0.032985 47
-1.45136 1.2795 -0.0999007 49
-1.44206 1.27263 -0.231527 52
-1.44451 1.27568 -0.367124 55
-1.62034 0.990045 -0.295595 15
-1.43902 1.27259 -0.505015 59
-0.972832 0.59555 -0.254933 3
-1.43682 1.27065 0.434061 47
-2.14057 1.30158 0.661067 38
-1.43778 1.27107 0.297741 44
-2.13687 1.30439 0.479454 36
-1.43866 1.27186 0.164942 50
-2.12058 1.298 0.300589 35
-1.438 1.27172 0.0328978 47
-2.11542 1.29686 0.128223 35
-1.44352 1.27706 -0.0995069 49
-1.43078 1.26666 -0.230006 52
-1.43861 1.27494 -0.366172 55
-1.61861 0.992872 -0.295595 15
-1.42777 1.26708 -0.501782 59
-0.967733 0.594545 -0.25381 4
-1.42289 1.27166 0.431814 49
-2.11954 1.30357 0.656544 38
-1.42743 1.27529 0.296961 45
-2.11351 1.3049 0.475641 36
-1.42106 1.26916 0.163635 49
-2.10108 1.30127 0.298764 35
-1.42782 1.27565 0.0328105 47
-2.09161 1.29742 0.127176 35
-1.42565 1.27461 -0.0987193 49
-1.42228 1.27248 -0.229701 53
-1.42666 1.27729 -0.364743 55
