# .PCD v0.7 - Point Cloud Data file format
VERSION 0.7
FIELDS x y z intensity
SIZE 4 4 4 4
TYPE F F F F
COUNT 1 1 1 1
WIDTH 1514
HEIGHT 1
VIEWPOINT 0 0 0 1 0 0 0
POINTS 1514
DATA ascii
-0.828692 -0.314931 -0.135073 47
-0.826143 -0.160233 -0.215973 50
-0.817746 -0.31164 -0.193727 42
-7.19455 -1.38298 1.68065 35
-7.02525 -1.35173 1.12502 1
-3.16375 -1.21624 0.651504 9
-7.03103 -1.3541 0.623381 1
-3.09116 -1.18392 0.401597 11
-1.6714 -0.322363 0.0291019 59
-1.71454 -0.653025 0.0943356 47
-0.66664 -0.129303 -0.0338691 53
-1.70281 -0.647849 -0.0311962 39
-0.816389 -0.157742 -0.0976611 50
-0.836337 -0.315575 -0.0750219 52
-0.817514 -0.157668 -0.154754 50
-0.826936 -0.312599 -0.134682 47
-0.821704 -0.157744 -0.21468 50
-0.818288 -0.310212 -0.193727 42
-7.20911 -1.34537 1.68234 36
-7.03489 -1.31415 1.12541 1
-3.14254 -1.18919 0.645785 3
-7.03091 -1.31467 0.622728 1
-3.12073 -1.17596 0.40464 11
-1.68043 -0.314983 0.0292328 58
-0.667308 -0.125811 -0.0338691 53
-1.70629 -0.638626 -0.0311962 53
-0.824549 -0.154683 -0.0985738 52
-0.837978 -0.311192 -0.0750219 53
-0.825594 -0.154585 -0.156182 52
-0.828561 -0.308265 -0.134682 47
-0.824894 -0.153878 -0.215327 50
-0.815399 -0.304052 -0.192604 42
-7.19684 -1.33139 1.67897 36
-7.02723 -1.3013 1.12385 1
-3.14691 -1.18457 0.646262 2
-7.0234 -1.30058 0.621856 1
-3.12722 -1.1728 0.405248 2
-1.67852 -0.311596 0.0291891 58
-0.665071 -0.124192 -0.0337378 53
-1.70272 -0.633891 -0.0311089 53
-0.819911 -0.152489 -0.0979654 53
-0.840851 -0.310604 -0.0752393 53
-0.818621 -0.151814 -0.154754 50
-0.826787 -0.305948 -0.13429 47
-0.82041 -0.151569 -0.214033 47
-0.820434 -0.304492 -0.193727 44
-7.20611 -1.29412 1.67953 36
-7.03638 -1.26493 1.12424 1
-3.15746 -1.17034 0.647215 2
-7.02989 -1.26502 0.621856 1
-3.12866 -1.15469 0.40464 3
-1.68254 -0.303538 0.0292328 58
-1.706 -0.625967 0.0934197 47
-0.665713 -0.120708 -0.0337378 55
-1.69653 -0.621799 -0.0309344 49
-0.828026 -0.149504 -0.0988781 53
-0.84013 -0.305334 -0.0750219 53
-0.821795 -0.1481 -0.15523 50
-0.828378 -0.301615 -0.13429 47
-0.814034 -0.146147 -0.212093 47
-0.81745 -0.298495 -0.192604 42
-7.19157 -1.27856 1.6756 35
-7.03371 -1.25178 1.12346 1
-3.1482 -1.16002 0.644832 2
-7.01983 -1.25056 0.620767 1
-3.12369 -1.14665 0.403727 11
-1.66835 -0.297684 0.028971 65
-1.70474 -0.622126 0.0932888 45
-0.665922 -0.119546 -0.0337378 53
-1.7023 -0.620561 -0.0310216 50
-0.816068 -0.145896 -0.0973569 53
-0.840662 -0.303867 -0.0750219 53
-0.824469 -0.147092 -0.155706 50
-0.828903 -0.300169 -0.13429 47
-0.81907 -0.14542 -0.213387 47
-0.81797 -0.297068 -0.192604 45
-7.20318 -1.24046 1.67672 36
-7.04038 -1.21371 1.12346 1
-3.14039 -1.13848 0.641972 2
-7.04122 -1.2151 0.622074 1
-3.12984 -1.12973 0.403727 2
-1.67235 -0.289369 0.0290146 44
-1.70574 -0.612044 0.093158 47
-0.666539 -0.116058 -0.0337378 55
-1.69858 -0.608793 -0.0308908 52
-0.839899 -0.298614 -0.0748044 52
-0.822834 -0.142215 -0.15523 52
-0.828142 -0.294983 -0.133899 47
-0.81982 -0.141129 -0.213387 47
-0.817275 -0.291806 -0.192042 45
-7.19071 -1.22669 1.67335 35
-7.03011 -1.20057 1.1215 1
-3.13084 -1.12882 0.639589 2
-7.28146 -1.24343 0.643209 30
-3.11761 -1.11976 0.401901 2
-1.68271 -0.288129 0.0291891 14
-1.70435 -0.608518 0.0930272 47
-0.661818 -0.114057 -0.0334753 53
-1.702 -0.606673 -0.0309344 52
-0.842762 -0.297991 -0.0750219 53
-0.818241 -0.13996 -0.154278 50
-0.828655 -0.293538 -0.133899 47
-0.815302 -0.138895 -0.212093 47
-0.820024 -0.29135 -0.192604 45
-7.19704 -1.18902 1.67335 35
-7.02899 -1.16254 1.12033 1
-3.13651 -1.11296 0.639589 2
-7.05178 -1.16755 0.622292 1
-3.12109 -1.10259 0.401597 2
-1.70634 -0.283275 0.0295818 12
-1.7028 -0.597919 0.0927655 47
-0.667314 -0.111518 -0.0337378 55
-1.70033 -0.596384 -0.0308471 50
-0.834869 -0.290398 -0.074152 55
-0.821361 -0.136214 -0.154754 50
-0.825526 -0.287545 -0.133116 47
-0.820762 -0.135545 -0.213387 47
-0.812357 -0.283787 -0.190358 44
-7.19409 -1.17693 1.67223 35
-7.02857 -1.14987 1.11994 1
-7.04152 -1.15323 0.621203 1
-3.10195 -1.08971 0.398859 2
-1.69678 -0.592459 0.092373 50
-0.662579 -0.109549 -0.0334753 55
-1.69901 -0.592586 -0.0308035 52
-0.827823 -0.136081 -0.0985738 53
-0.835374 -0.28894 -0.074152 53
-0.819175 -0.134387 -0.154278 50
-0.828356 -0.286924 -0.133507 47
-0.818613 -0.133728 -0.21274 50
-0.815148 -0.283181 -0.190919 45
-7.19794 -1.13761 1.67167 35
-7.03205 -1.11267 1.11955 1
-7.28115 -1.15332 0.641902 36
-3.1123 -1.07508 0.399467 2
-1.69986 -0.583566 0.092373 49
-0.66561 -0.106468 -0.0336066 55
-1.69973 -0.582865 -0.0307599 52
-0.826073 -0.131359 -0.0982696 53
-0.839229 -0.285377 -0.0743695 53
-0.815018 -0.129335 -0.153325 50
-0.827514 -0.281774 -0.133116 47
-0.821688 -0.129812 -0.213387 49
-0.809717 -0.276508 -0.189235 42
-7.19491 -1.12555 1.67054 35
-7.02423 -1.09887 1.11799 1
-7.28807 -1.14138 0.642338 32
-3.12121 -1.07208 0.40038 3
-1.69851 -0.579786 0.0922421 47
-0.665795 -0.105306 -0.0336066 55
-1.69365 -0.577458 -0.030629 52
-0.823849 -0.129536 -0.0979654 53
-0.837371 -0.283101 -0.074152 53
-0.824944 -0.129417 -0.15523 50
-0.823335 -0.27872 -0.132333 49
-0.821913 -0.128378 -0.213387 49
-0.817105 -0.277484 -0.190919 45
-7.22257 -1.08987 1.6756 27
-7.30336 -1.10333 1.1617 41
-7.28164 -1.10135 0.641248 27
-3.12443 -1.05492 0.400076 3
-1.6968 -0.569284 0.0919804 49
-0.661399 -0.101074 -0.033344 55
-1.69429 -0.567782 -0.0305853 53
-0.824516 -0.12522 -0.0979654 53
-0.836483 -0.277915 -0.0739346 53
-0.820756 -0.124369 -0.154278 52
-0.822445 -0.273613 -0.131941 47
-0.824962 -0.124429 -0.214033 50
-0.813934 -0.271633 -0.189796 42
-7.13994 -1.06595 1.65594 14
-7.30039 -1.08986 1.16092 41
-7.02984 -1.05076 0.618806 1
-1.70015 -0.567118 0.0921113 49
-0.661575 -0.0999197 -0.033344 55
-1.69764 -0.56562 -0.030629 53
-0.827188 -0.124145 -0.0982696 53
-0.832245 -0.274866 -0.0734997 53
-0.820972 -0.122936 -0.154278 50
-0.820581 -0.271389 -0.13155 49
-0.822789 -0.122637 -0.213387 50
-0.819022 -0.271772 -0.190919 45
-7.07567 -1.01726 1.63966 26
-7.02491 -1.01121 1.11604 1
-7.01306 -1.01075 0.616845 1
-1.69599 -0.555856 0.0917188 49
-0.664577 -0.0966932 -0.0334753 55
-1.69584 -0.555156 -0.0305417 53
-0.820457 -0.118759 -0.0973569 52
-0.831355 -0.269578 -0.0732822 53
-0.819174 -0.118289 -0.153802 52
-0.821991 -0.267089 -0.13155 47
-0.82342 -0.118327 -0.213387 50
-0.813498 -0.265176 -0.189235 44
-7.0702 -1.00389 1.63798 26
-7.02422 -0.998604 1.11565 1
-7.00248 -0.996754 0.615755 1
-1.69696 -0.552895 0.0917188 49
-0.667217 -0.0958831 -0.0336066 53
-1.6968 -0.552195 -0.0305417 53
-0.818206 -0.116979 -0.0970526 53
-0.831825 -0.268127 -0.0732822 55
-0.814519 -0.116175 -0.152849 52
-0.822456 -0.265654 -0.13155 47
-0.818863 -0.116076 -0.212093 47
-0.811647 -0.262992 -0.188673 45
-7.0707 -0.96496 1.63685 26
-7.01973 -0.95925 1.11409 1
-7.00531 -0.958515 0.615537 1
-7.06286 -2.28028 0.905723 1
-1.69755 -0.542939 0.0915879 49
-0.665236 -0.0920512 -0.0334753 55
-1.69501 -0.541472 -0.0304544 53
-0.821286 -0.112884 -0.0973569 53
-0.837958 -0.265297 -0.0737171 53
-0.82 -0.112425 -0.153802 50
-0.82858 -0.262718 -0.132333 49
-0.814673 -0.111143 -0.2108 47
-0.808423 -0.257093 -0.18755 44
-7.06738 -0.953202 1.63573 26
-7.02139 -0.946997 1.11409 1
-7.0045 -0.945954 0.61532 1
-7.09281 -2.27631 0.90907 1
-3.11121 -0.420391 0.0541897 35
-1.69849 -0.539975 0.0915879 50
-0.660447 -0.0902245 -0.0332127 55
-1.68881 -0.536225 -0.0303236 53
-0.819022 -0.111121 -0.0970526 53
-0.826562 -0.260032 -0.0726299 55
-0.817762 -0.110668 -0.153325 52
-0.821985 -0.259006 -0.131158 47
-0.817259 -0.110039 -0.211447 49
-0.813508 -0.257177 -0.188673 45
-7.06503 -0.915247 1.63404 26
-6.97037 -2.22207 1.94831 1
-7.0212 -0.910812 1.11331 1
-7.23865 -2.29394 1.46791 42
-7.0092 -0.910489 0.61532 1
-7.08768 -2.23514 0.90694 1
-3.11329 -0.404638 0.0541897 30
-1.69644 -0.52987 0.0913262 50
-0.663386 -0.087085 -0.033344 53
-1.6915 -0.52767 -0.0303236 52
-0.822035 -0.107292 -0.0973569 53
-0.830287 -0.256448 -0.0728473 53
-0.818312 -0.106528 -0.153325 50
-0.82564 -0.255586 -0.13155 47
-0.81541 -0.105595 -0.2108 47
-0.812477 -0.25232 -0.188112 45
-7.06661 -0.902915 1.63404 27
-6.99035 -2.21502 1.95283 1
-7.01298 -0.897304 1.11175 1
-7.23602 -2.27782 1.46648 38
-7.00584 -0.897622 0.614884 1
-7.32594 -2.29639 0.93706 33
-3.1215 -0.39961 0.0543206 18
-1.69975 -0.527655 0.0914571 50
-0.661061 -0.0856115 -0.0332127 55
-1.69719 -0.52621 -0.0304108 53
-0.822221 -0.105857 -0.0973569 55
-0.823603 -0.252767 -0.0721949 55
-0.818497 -0.105099 -0.153325 52
-0.821373 -0.252666 -0.130767 49
-0.813215 -0.103728 -0.210153 49
-0.808269 -0.249438 -0.186989 45
-7.06898 -0.864373 1.63348 26
-7.24893 -2.25406 2.02197 36
-7.02263 -0.859947 1.11253 1
-7.22675 -2.23337 1.46219 32
-7.00565 -0.859099 0.614448 1
-7.32165 -2.25161 0.93493 32
-3.10619 -0.381137 0.0540152 24
-1.69542 -0.51625 0.0910646 50
-0.659022 -0.0818465 -0.0330815 56
-1.70001 -0.51702 -0.0304108 53
-0.822782 -0.101407 -0.0973569 53
-0.832057 -0.250646 -0.0728473 53
-0.819053 -0.100669 -0.153325 52
-0.820325 -0.247635 -0.130375 47
-0.813747 -0.0994682 -0.210153 49
-0.811934 -0.245781 -0.18755 47
-7.07033 -0.853268 1.63348 27
-7.24132 -2.23783 2.01874 33
-7.02398 -0.848915 1.11253 1
-7.22594 -2.21931 1.46124 32
-7.00466 -0.846572 0.61423 1
-7.32044 -2.23865 0.934322 32
-3.10436 -0.375416 0.0539716 29
-1.701 -0.515046 0.0913262 50
-0.656685 -0.080398 -0.0329502 55
-1.69374 -0.511863 -0.0302799 53
-0.820476 -0.0998185 -0.0970526 55
-0.825348 -0.247011 -0.0721949 53
-0.824102 -0.0998217 -0.154278 52
-0.825478 -0.247648 -0.131158 49
-0.821114 -0.0989018 -0.212093 50
-0.807662 -0.243074 -0.186427 45
-7.06744 -0.8154 1.6318 27
-7.241 -2.19763 2.01551 33
-7.02097 -0.811277 1.11136 1
-7.23004 -2.18058 1.45981 32
-7.00886 -0.811108 0.61423 1
-7.32493 -2.19814 0.933409 32
-3.11119 -0.360271 0.0540588 30
-1.69889 -0.504698 0.0910646 50
-0.657097 -0.0769585 -0.0329502 56
-1.69391 -0.502567 -0.0302363 53
-0.816057 -0.0949559 -0.0964442 55
-0.821858 -0.241257 -0.07176 52
-0.822158 -0.0953706 -0.153802 53
-0.822034 -0.241902 -0.130375 47
-0.821604 -0.0947446 -0.212093 50
-0.813588 -0.240248 -0.18755 47
-7.06885 -0.803064 1.6318 26
-7.23558 -2.1822 2.01293 33
-7.01501 -0.798186 1.11019 1
-7.22716 -2.16457 1.45838 32
-7.00284 -0.798029 0.613576 1
-7.31925 -2.18252 0.932192 32
-3.10691 -0.353734 0.0539716 29
-1.69498 -0.500305 0.0908029 50
-0.659711 -0.0760924 -0.0330815 56
-1.69239 -0.498896 -0.0301927 55
-0.821153 -0.0940881 -0.0970526 55
-0.829439 -0.241954 -0.0724124 52
-0.819884 -0.0936611 -0.153325 52
-0.824821 -0.241173 -0.130767 49
-0.816984 -0.0926312 -0.2108 50
-0.814006 -0.238828 -0.18755 45
-7.06825 -0.764283 1.63068 27
-7.23802 -2.14027 2.01034 33
-7.01186 -0.759423 1.10902 1
-7.23368 -2.12532 1.45742 32
-7.00458 -0.759861 0.613359 1
-7.31904 -2.13939 0.930671 32
-3.10375 -0.336924 0.0538843 26
-1.69527 -0.490427 0.090672 50
-0.6601 -0.0726372 -0.0330815 56
-1.69507 -0.489732 -0.0301927 56
-0.816716 -0.0891139 -0.0964442 55
-0.818741 -0.234117 -0.0713251 52
-0.815498 -0.0887013 -0.152373 52
-0.821333 -0.235464 -0.129984 49
-0.817458 -0.0883522 -0.2108 50
-0.812949 -0.233734 -0.186989 47
-7.06217 -0.752407 1.62899 26
-7.23248 -2.12491 2.00776 33
-7.01059 -0.748146 1.10863 1
-7.22796 -2.10993 1.45552 33
-7.00342 -0.74737 0.613141 1
-7.31286 -2.12512 0.929454 32
-3.10682 -0.331771 0.0539279 21
-1.69364 -0.487067 0.0905412 50
-0.665191 -0.0720121 -0.033344 58
-1.69352 -0.486077 -0.030149 56
-0.82179 -0.0883531 -0.0970526 55
-0.82154 -0.233381 -0.0715426 52
-0.81077 -0.0867639 -0.151421 52
-0.821743 -0.23403 -0.129984 47
-0.812807 -0.086423 -0.209507 49
-0.810977 -0.231774 -0.186427 44
-6.85515 -0.694111 1.58014 1
-7.23618 -2.08626 2.00582 33
-7.00704 -0.710683 1.10746 1
-7.23619 -2.07264 1.45504 33
-6.9972 -0.710908 0.612269 1
-7.31196 -2.08339 0.927933 32
-3.11094 -0.316294 0.0539716 17
-1.69617 -0.478192 0.0905412 50
-0.660591 -0.0680271 -0.0330815 56
-1.69836 -0.478183 -0.0301927 61
-0.819772 -0.0838008 -0.0967484 55
-0.822751 -0.229077 -0.0715426 52
-0.813641 -0.0829038 -0.151897 53
-0.820582 -0.229047 -0.129592 49
-0.820444 -0.0830249 -0.211447 50
-0.814521 -0.228195 -0.186989 45
-6.85392 -0.681905 1.57958 1
-7.23749 -2.07296 2.00517 33
-7.00827 -0.698452 1.10746 1
-7.22363 -2.05404 1.45171 33
-7.2859 -0.727338 0.637544 32
-7.31081 -2.06927 0.927324 32
-3.09911 -0.309086 0.0537534 14
-1.6922 -0.473872 0.0902795 50
-0.658225 -0.0666278 -0.0329502 56
-1.69438 -0.473858 -0.0301054 74
-0.814979 -0.0818822 -0.0961399 55
-0.820753 -0.226963 -0.0713251 52
-0.816227 -0.0817239 -0.152373 52
-0.820981 -0.227614 -0.129592 49
-0.818198 -0.0812152 -0.2108 50
-0.812575 -0.226106 -0.186427 45
-6.85023 -0.644129 1.57789 1
-7.24395 -2.03246 2.00388 33
-6.9972 -0.659137 1.10512 1
-7.23902 -2.01751 1.45266 35
-7.26989 -0.686039 0.635801 36
-7.32429 -2.03035 0.927629 35
-3.10068 -0.292855 0.0537534 12
-1.69714 -0.465376 0.0904104 50
-0.66105 -0.0634136 -0.0330815 56
-1.69692 -0.464684 -0.0301054 90
-0.810468 -0.0770106 -0.0955314 55
-0.81953 -0.221998 -0.0711077 52
-0.814214 -0.0770794 -0.151897 52
-0.824541 -0.223973 -0.129984 49
-0.813803 -0.0764865 -0.209507 49
-0.816133 -0.22236 -0.186989 47
-6.93372 -0.640976 1.59698 1
-7.2312 -2.01527 1.99936 32
-7.28099 -0.674278 1.14999 39
-7.22597 -2.00028 1.44932 33
-7.28596 -0.674724 0.637109 36
-7.31551 -2.01554 0.926107 33
-3.10368 -0.287672 0.053797 11
-1.69306 -0.461384 0.0901487 52
-0.66116 -0.0622598 -0.0330815 56
-1.69532 -0.461059 -0.0300618 90
-0.81553 -0.0761906 -0.0961399 55
-0.817515 -0.219907 -0.0708902 50
-0.811903 -0.0754353 -0.151421 52
-0.815409 -0.219907 -0.128418 49
-0.818745 -0.0755012 -0.2108 50
-0.809438 -0.219128 -0.185304 45
-7.07531 -0.616692 1.62899 1
-7.23665 -1.97737 1.99806 33
-7.00398 -0.611708 1.10551 1
-7.2289 -1.96174 1.44789 33
-7.28184 -0.637189 0.636455 36
-7.31878 -1.97527 0.925195 33
-3.09514 -0.271091 0.0536225 11
-1.69304 -0.451862 0.0900178 52
-0.658979 -0.0586963 -0.0329502 56
-1.69522 -0.451822 -0.0300181 85
-0.810974 -0.0714921 -0.0955314 56
-0.811404 -0.213821 -0.0702379 52
-0.812274 -0.071325 -0.151421 52
-0.821317 -0.216923 -0.129201 49
-0.811898 -0.0707399 -0.20886 50
-0.808223 -0.214248 -0.184742 44
-7.07627 -0.605578 1.62899 1
-7.22378 -1.9603 1.99354 30
-7.00012 -0.599063 1.10472 1
-7.22757 -1.94784 1.44694 35
-7.27798 -0.624054 0.636019 36
-7.31742 -1.9612 0.924586 33
-3.0956 -0.265689 0.0536225 11
-1.68659 -0.446968 0.0896253 52
-0.651618 -0.0569102 -0.0325564 56
-1.696 -0.448863 -0.0300181 80
-0.811097 -0.0700766 -0.0955314 56
-0.811775 -0.212404 -0.0702379 50
-0.812397 -0.0699072 -0.151421 52
-0.824079 -0.216129 -0.129592 49
-0.816833 -0.0697252 -0.210153 52
-0.808596 -0.212838 -0.184742 47
-7.06488 -0.566118 1.62562 1
-7.23395 -1.92245 1.99354 33
-6.99823 -0.562008 1.10394 1
-7.22344 -1.90621 1.44408 35
-7.27866 -0.585739 0.635801 36
-7.31799 -1.92033 0.923369 33
-3.09446 -0.249277 0.0535789 11
-1.69374 -0.439398 0.089887 52
-0.654405 -0.0535823 -0.0326876 56
-1.68866 -0.437443 -0.0298436 70
-0.813927 -0.0660252 -0.0958357 56
-0.815322 -0.20864 -0.0704553 50
-0.812752 -0.0656525 -0.151421 52
-0.815647 -0.209302 -0.128026 49
-0.817187 -0.0654474 -0.210153 50
-0.809699 -0.208601 -0.184742 47
-7.08771 -0.555495 1.63068 1
-7.21861 -1.90487 1.98837 32
-6.99674 -0.5496 1.10355 1
-7.21996 -1.89047 1.44265 35
-7.27471 -0.572644 0.635365 35
-7.09325 -1.84798 0.894466 1
-3.08746 -0.242751 0.053448 11
-1.68725 -0.434553 0.0894945 52
-0.659476 -0.0528284 -0.0329502 56
-1.68216 -0.432607 -0.0297127 70
-0.816515 -0.0647966 -0.0961399 55
-0.813275 -0.20659 -0.0702379 50
-0.815313 -0.0644231 -0.151897 53
-0.820789 -0.209124 -0.128809 49
-0.812496 -0.0635104 -0.20886 52
-0.812419 -0.207805 -0.185304 47
-7.07361 -0.515902 1.62674 1
-7.2218 -1.86398 1.98643 32
-6.99469 -0.511377 1.10277 1
-7.22263 -1.85081 1.44122 35
-7.28018 -0.533458 0.635583 35
-7.31712 -1.86423 0.921544 35
-3.1186 -0.228763 0.0539716 8
-1.68716 -0.424802 0.0893636 52
-0.654763 -0.0490124 -0.0326876 58
-1.66994 -0.419803 -0.0294509 15
-0.814378 -0.0601992 -0.0958357 55
-0.814345 -0.202329 -0.0702379 50
-0.813201 -0.059835 -0.151421 52
-0.819481 -0.204213 -0.128418 49
-0.815226 -0.0594267 -0.209507 52
-0.813531 -0.203406 -0.185304 47
-7.06712 -0.504272 1.62506 1
-7.21335 -1.84836 1.9832 32
-6.99302 -0.500214 1.10238 1
-7.2211 -1.83698 1.44027 35
-7.27614 -0.520396 0.635147 36
-7.31523 -1.85152 0.920935 35
-1.68783 -0.422151 0.0893636 52
-0.654848 -0.0478696 -0.0326876 58
-0.811997 -0.0587451 -0.0955314 56
-0.802624 -0.197857 -0.0691506 49
-0.810856 -0.058244 -0.150945 53
-0.819836 -0.202783 -0.128418 49
-0.812919 -0.0578366 -0.20886 50
-0.811489 -0.201527 -0.184742 49
-7.0648 -0.466941 1.62394 1
-7.22027 -1.81124 1.98256 33
-6.98569 -0.46294 1.10082 1
-7.21602 -1.79684 1.43741 35
-7.27371 -0.483232 0.634712 36
-7.31278 -1.8102 0.919414 35
-1.69001 -0.413308 0.0893636 52
-0.650107 -0.0441127 -0.0324251 56
-0.814769 -0.0546546 -0.0958357 56
-0.803649 -0.193652 -0.0691506 49
-0.808692 -0.0539799 -0.150468 53
-0.81849 -0.197893 -0.128026 49
-0.815612 -0.0538763 -0.209507 50
-0.812533 -0.197275 -0.184742 49
-7.07047 -0.454922 1.62506 1
-7.22107 -1.79805 1.98191 33
-6.99634 -0.451381 1.10238 1
-7.21231 -1.78122 1.43598 35
-7.27454 -0.470537 0.634712 33
-7.31593 -1.79744 0.919414 33
-1.68103 -0.407976 0.0888403 53
-0.652675 -0.0431374 -0.0325564 58
-0.812387 -0.0530749 -0.0955314 56
-0.801567 -0.191655 -0.0689331 49
-0.811234 -0.0527233 -0.150945 53
-0.816436 -0.195875 -0.127635 50
-0.818124 -0.0524607 -0.210153 52
-0.805781 -0.194104 -0.183058 47
-6.96096 -0.410093 1.59923 1
-7.22131 -1.75667 1.97932 35
-7.00115 -0.413666 1.10277 1
-7.21199 -1.74112 1.43407 35
-7.27698 -0.431171 0.634712 33
-7.3159 -1.7555 0.918197 33
-1.68807 -0.400039 0.089102 53
-0.650399 -0.0395731 -0.0324251 59
-1.55896 -0.368497 -0.0273566 17
-0.810185 -0.0485346 -0.0952272 56
-0.802559 -0.187456 -0.0689331 49
-0.816408 -0.0486168 -0.151897 53
-0.81505 -0.19102 -0.127243 49
-0.813565 -0.0479008 -0.20886 52
-0.811556 -0.190884 -0.184181 47
-6.86431 -0.3936 1.57677 1
-7.21733 -1.74235 1.97739 33
-7.2779 -0.418492 1.14648 38
-7.20786 -1.72681 1.43264 33
-7.27772 -0.41847 0.634712 33
-7.08937 -1.68922 0.889294 1
-1.68627 -0.396808 0.0889711 53
-0.650467 -0.0384379 -0.0324251 59
-1.56203 -0.366354 -0.0274003 20
-0.812738 -0.0474021 -0.0955314 56
-0.800462 -0.185478 -0.0687157 47
-0.811591 -0.046917 -0.150945 53
-0.817784 -0.19017 -0.127635 50
-0.813648 -0.0464808 -0.20886 50
-0.809486 -0.189042 -0.183619 49
-6.86627 -0.357653 1.57677 1
-7.2143 -1.70302 1.97416 33
-7.27506 -0.380123 1.1457 38
-7.20934 -1.68862 1.43121 35
-7.28721 -0.382018 0.635365 33
-7.09328 -1.65095 0.888686 1
-1.68832 -0.387974 0.0889711 53
-0.650654 -0.0351451 -0.0324251 59
-1.559 -0.357312 -0.027313 23
-0.812975 -0.043146 -0.0955314 55
-0.814269 -0.0429336 -0.151421 53
-0.813959 -0.184765 -0.126852 50
-0.816284 -0.0424833 -0.209507 52
-0.812836 -0.185356 -0.184181 49
-6.86926 -0.346989 1.57733 1
-7.21726 -1.69043 1.97416 33
-7.27325 -0.367301 1.14531 36
-7.21228 -1.67604 1.43121 35
-7.28786 -0.369299 0.635365 32
-7.08406 -1.63577 0.887165 1
-1.68413 -0.383903 0.0887094 55
-0.650714 -0.0340094 -0.0324251 59
-1.56936 -0.356836 -0.0274875 21
-0.81057 -0.0416041 -0.0952272 55
-0.811891 -0.0413916 -0.150945 52
-0.816686 -0.1839 -0.127243 50
-0.813945 -0.0409414 -0.20886 50
-0.808413 -0.182834 -0.183058 49
-6.8686 -0.309709 1.57677 1
-7.22131 -1.65153 1.97286 33
-7.2726 -0.329102 1.14492 38
-7.21856 -1.63771 1.43074 35
-7.28223 -0.330798 0.634712 33
-7.29826 -1.64517 0.913025 33
-1.68368 -0.374531 0.0885786 53
-0.643406 -0.0301537 -0.0320313 59
-0.810777 -0.0373594 -0.0952272 56
-0.807193 -0.0369242 -0.149992 53
-0.817637 -0.179621 -0.127243 50
-0.811736 -0.0365746 -0.208214 49
-0.806983 -0.17806 -0.182496 49
-6.86913 -0.297721 1.57677 1
-7.21947 -1.63786 1.97157 33
-7.27317 -0.316409 1.14492 36
-7.20733 -1.6206 1.42788 35
-7.28777 -0.318304 0.635147 32
-7.2987 -1.63188 0.912721 33
-1.68434 -0.371592 0.0885786 53
-0.648446 -0.029245 -0.0322938 59
-0.808362 -0.0358386 -0.094923 56
-0.771374 -0.167232 -0.0658888 42
-0.814612 -0.0358262 -0.151421 52
-0.81554 -0.177655 -0.126852 50
-0.811804 -0.0350161 -0.208214 50
-0.812046 -0.177721 -0.183619 47
-6.87308 -0.260643 1.57733 1
-7.22115 -1.5972 1.96963 33
-7.27477 -0.277053 1.14492 36
-7.21332 -1.58232 1.4274 35
-7.2869 -0.278774 0.63493 32
-7.07955 -1.54256 0.884122 1
-1.68388 -0.361942 0.0884478 55
-0.648591 -0.0258494 -0.0322938 59
-0.808544 -0.0314645 -0.094923 55
-0.767372 -0.162132 -0.0654539 42
-0.809889 -0.0312375 -0.150468 52
-0.818871 -0.173909 -0.127243 50
-0.81439 -0.0308523 -0.20886 50
-0.810616 -0.172803 -0.183058 47
-6.87104 -0.249758 1.57677 1
-7.21214 -1.582 1.9664 33
-7.27026 -0.265446 1.14414 36
-7.21127 -1.56868 1.42645 35
-7.28738 -0.266055 0.63493 32
-7.06741 -1.52828 0.882297 1
-3.13239 -0.114603 0.0541025 9
-1.68201 -0.358769 0.0883169 55
-0.643645 -0.0245379 -0.0320313 59
-1.65977 -0.353058 -0.0290146 52
-0.808593 -0.0301944 -0.094923 56
-0.767654 -0.160792 -0.0654539 41
-0.812395 -0.02991 -0.150945 52
-0.814347 -0.171434 -0.12646 50
-0.814443 -0.0294309 -0.20886 50
-0.813267 -0.172047 -0.183619 49
-6.87956 -0.214004 1.57845 1
-7.22005 -1.54548 1.9664 33
-7.27402 -0.227452 1.14453 36
-7.20952 -1.53011 1.42454 35
-7.28863 -0.229167 0.63493 30
-7.07046 -1.49023 0.881688 1
-3.09045 -0.0974277 0.0533607 9
-1.68142 -0.349442 0.0881861 55
-0.653746 -0.0214741 -0.0325564 59
-1.67132 -0.346711 -0.0291891 55
-0.803779 -0.0258095 -0.0943145 56
-0.758737 -0.15472 -0.064584 41
-0.80763 -0.0256504 -0.149992 53
-0.812818 -0.166658 -0.126069 50
-0.812167 -0.0252374 -0.208214 50
-0.804624 -0.165764 -0.181373 47
-6.86531 -0.20157 1.57508 1
-7.22037 -1.53237 1.96575 33
-7.26947 -0.214611 1.14375 36
-7.21004 -1.51576 1.42406 35
-7.28902 -0.216446 0.63493 29
-7.06091 -1.47534 0.880167 1
-3.10812 -0.0920042 0.0536661 11
-1.68203 -0.346507 0.0881861 55
-0.648792 -0.0201884 -0.0322938 61
-1.67682 -0.344814 -0.0292764 56
-0.811264 -0.0246197 -0.0952272 56
-0.810127 -0.0243102 -0.150468 52
-0.815524 -0.165745 -0.12646 49
-0.817042 -0.0238105 -0.209507 50
-0.807297 -0.164861 -0.181935 49
-6.86143 -0.164307 1.57396 1
-7.2191 -1.49132 1.96317 33
-7.27053 -0.175277 1.14375 36
-7.21548 -1.4775 1.42359 35
-7.2851 -0.176886 0.634494 29
-7.07122 -1.43761 0.880471 1
-3.10606 -0.0756692 0.0536225 12
-1.68388 -0.337401 0.0881861 55
-0.643897 -0.0166726 -0.0320313 59
-1.67621 -0.33524 -0.0292328 59
-0.813866 -0.0202876 -0.0955314 56
-0.8127 -0.0199827 -0.150945 52
-0.811542 -0.160486 -0.125677 50
-0.809913 -0.0193716 -0.207567 50
-0.808177 -0.160491 -0.181935 49
-6.87142 -0.153745 1.57621 1
-7.21696 -1.47775 1.96188 35
-7.27326 -0.163911 1.14414 35
-7.20602 -1.46245 1.4212 35
-7.28042 -0.164059 0.634058 32
-7.06374 -1.42453 0.879254 1
-3.10619 -0.070248 0.0536225 15
-1.67951 -0.333769 0.0879244 56
-0.646421 -0.0156037 -0.0321625 59
-1.68169 -0.333299 -0.02932 61
-0.806454 -0.018848 -0.0946187 58
-0.807826 -0.0184606 -0.149992 53
-0.811821 -0.159069 -0.125677 50
-0.81236 -0.0180073 -0.208214 50
-0.80604 -0.158736 -0.181373 49
-6.88919 -0.118053 1.58014 1
-7.21488 -1.4393 1.95929 33
-7.27402 -0.125827 1.14414 36
-7.21333 -1.42596 1.4212 35
-7.28863 -0.127337 0.634712 30
-7.07354 -1.38801 0.879559 1
-3.09901 -0.054397 0.0534916 29
-1.68124 -0.324971 0.0879244 56
-0.646491 -0.0123317 -0.0321625 59
-1.68336 -0.324783 -0.02932 62
-0.806542 -0.0146252 -0.0946187 56
-0.810363 -0.014411 -0.150468 53
-0.815066 -0.155293 -0.126069 50
-0.810026 -0.0138583 -0.207567 50
-0.804471 -0.154041 -0.180812 49
-6.91128 -0.107568 1.58519 1
-7.21264 -1.42577 1.958 33
-7.26682 -0.113017 1.14297 33
-7.21822 -1.41384 1.42168 35
-7.06621 -1.37376 0.878342 1
-3.0966 -0.0489498 0.053448 36
-1.67935 -0.321559 0.0877936 56
-0.641519 -0.0111275 -0.0319 59
-1.68147 -0.321369 -0.0292764 62
-0.804085 -0.0131811 -0.0943145 58
-0.807933 -0.0129615 -0.149992 53
-0.815335 -0.15387 -0.126069 50
-0.810049 -0.0124445 -0.207567 50
-0.807129 -0.153105 -0.181373 49
-7.21289 -1.38661 1.95606 33
-7.21347 -1.37373 1.4193 35
-7.06355 -1.33489 0.877125 1
-3.10181 -0.032786 0.0535353 24
-1.68101 -0.312762 0.0877936 56
-0.646562 -0.00781803 -0.0321625 59
-1.68067 -0.312097 -0.0292328 62
-0.809106 -0.00901754 -0.094923 58
-0.810444 -0.00875333 -0.150468 53
-0.813704 -0.14914 -0.125677 49
-0.807688 -0.00818269 -0.20692 50
-0.812706 -0.149788 -0.182496 49
-7.21056 -1.37312 1.95477 33
-7.20862 -1.35977 1.41787 35
-3.1056 -0.0279456 0.268658 8
-7.06831 -1.32302 0.877429 1
-3.09437 -0.0273095 0.0534044 23
-1.67665 -0.308909 0.0875319 56
-0.644078 -0.00666908 -0.0320313 59
-1.67139 -0.307327 -0.0290583 58
-0.806639 -0.00758631 -0.0946187 58
-0.808004 -0.00732083 -0.149992 53
-0.809109 -0.146809 -0.124894 49
-0.810116 -0.00678901 -0.207567 50
-0.808178 -0.147467 -0.181373 49
-3.10932 -0.0106355 0.708647 3
-7.21052 -1.33402 1.95283 33
-3.10187 -0.0111426 0.484659 4
-7.20599 -1.32023 1.41596 35
-3.08827 -0.0116266 0.267132 9
-7.06537 -1.28421 0.876212 1
-3.09697 -0.011115 0.053448 14
-1.67824 -0.300126 0.0875319 53
-0.641607 -0.00328921 -0.0319 59
-1.66559 -0.297233 -0.0289274 47
-0.801705 -0.00335055 -0.0940102 58
-0.711278 -0.124265 -0.0600175 36
-0.810485 -0.00309519 -0.150468 53
-0.814725 -0.143455 -0.125677 49
-0.807725 -0.00254381 -0.20692 52
-0.806543 -0.142794 -0.180812 47
-3.06792 -0.00569354 0.699102 2
-7.20334 -1.31969 1.95025 33
-3.0772 -0.00569429 0.480756 2
-7.20828 -1.30765 1.41596 35
-3.10074 -0.00625614 0.268222 1
-7.06272 -1.271 0.875603 1
-3.08698 -0.00569575 0.0532735 14
-1.67385 -0.296312 0.0872702 38
-0.644109 -0.00217244 -0.0320313 59
-1.65627 -0.292559 -0.0287528 47
-0.804191 -0.00195304 -0.0943145 59
-0.709042 -0.122583 -0.0598 36
-0.808035 -0.00167977 -0.149992 53
-0.810114 -0.141157 -0.124894 50
-0.812558 -0.00113237 -0.208214 52
-0.804394 -0.140952 -0.18025 49
-3.07034 0.0109153 0.699663 4
-7.20777 -1.28153 1.9496 33
-3.05002 0.0103136 0.476464 9
-7.20778 -1.26861 1.41453 35
-3.04843 0.0097876 0.263646 14
-7.06195 -1.23271 0.874691 1
-3.07447 0.0104197 0.0530553 20
-1.6803 -0.288403 0.0875319 18
-0.646608 0.001323 -0.0321625 59
-1.66516 -0.285169 -0.0288837 47
-0.799227 0.00223518 -0.093706 59
-0.704788 -0.11789 -0.0593651 36
-0.810487 0.00256309 -0.150468 53
-0.810842 -0.136913 -0.124894 49
-0.810138 0.00310868 -0.207567 52
-0.805121 -0.136738 -0.18025 47
-3.07519 0.0163021 0.700786 4
-7.20049 -1.26726 1.94701 35
-3.05247 0.0156506 0.476854 9
-7.19811 -1.25265 1.41215 35
-3.0484 0.0151081 0.263646 14
-7.0592 -1.21954 0.874082 1
-3.07695 0.0163366 0.0530989 20
-1.6931 -0.287594 0.0881861 14
-0.644108 0.00243672 -0.0320313 61
-1.6829 -0.285235 -0.0291891 11
-0.796741 0.0036145 -0.0934018 59
-0.700084 -0.115814 -0.0589302 38
-0.805573 0.0039451 -0.149516 55
-0.808647 -0.135077 -0.124502 50
-0.805301 0.00462778 -0.206274 52
-0.805358 -0.135332 -0.18025 49
-3.06775 0.0328585 0.699102 4
-7.19296 -1.22584 1.94314 35
-3.05481 0.0321929 0.477244 9
-7.20699 -1.21536 1.41263 35
-3.04828 0.0316012 0.263646 14
-7.05835 -1.18009 0.87317 1
-3.04932 0.0321448 0.052619 32
-0.64159 0.00578133 -0.0319 59
-1.67949 -0.275303 -0.0291019 11
-0.695768 -0.111326 -0.0584953 38
-0.80554 0.00830359 -0.149516 55
-0.806908 -0.130432 -0.124111 50
-0.802851 0.00881348 -0.205627 52
-0.803677 -0.130568 -0.179689 49
-3.06769 0.0376773 0.699102 9
-7.19985 -1.21409 1.94443 36
-3.06463 0.0371155 0.478805 8
-7.19942 -1.20116 1.41072 35
-3.05569 0.0370153 0.2643 14
-7.06264 -1.16941 0.873474 1
-3.05176 0.0374987 0.0526626 23
-0.644075 0.00693335 -0.0320313 59
-1.6997 -0.275627 -0.0294509 11
-0.698418 -0.110517 -0.0587128 38
-0.807978 0.00974335 -0.149992 55
-0.804699 -0.12862 -0.123719 50
-0.805249 0.0102497 -0.206274 52
-0.803881 -0.129305 -0.179689 49
-3.11617 0.0546149 0.710332 1
-7.19875 -1.17646 1.94249 36
-3.09649 0.0537327 0.483878 1
-7.19572 -1.16313 1.40881 35
-3.07538 0.0528322 0.266043 2
-7.06132 -1.13123 0.872561 1
-3.06153 0.0531225 0.0528372 3
-0.64403 0.0103056 -0.0320313 61
-1.70354 -0.267415 -0.0294946 11
-0.80408 0.0134857 -0.0943145 65
-0.68915 -0.105287 -0.0578429 39
-0.810372 0.013879 -0.150468 58
-0.807799 -0.124796 -0.124111 50
-0.805187 0.0143253 -0.206274 52
-0.799737 -0.124317 -0.178566 49
-7.19841 -1.16351 1.94184 36
-6.96531 -1.11201 1.36306 1
-3.07529 0.0581997 0.266043 11
-7.06083 -1.11852 0.872257 1
-3.07642 0.0592959 0.0530989 14
-0.646507 0.0114793 -0.0321625 62
-1.71635 -0.266392 -0.0297127 15
-0.799094 0.0147886 -0.093706 68
-0.691793 -0.104473 -0.0580604 41
-0.807893 0.0152428 -0.149992 55
-0.803138 -0.122612 -0.123328 50
-0.805158 0.0158711 -0.206274 52
-0.797547 -0.122537 -0.178004 45
-7.2046 -1.12455 1.94184 36
-6.97104 -1.07552 1.36306 1
-7.06188 -1.07955 0.871648 1
-3.09606 0.0759021 0.053448 14
-0.641447 0.0147388 -0.0319 67
-0.79156 0.0189209 -0.0927933 70
-0.687406 -0.100097 -0.0576255 42
-0.812706 0.0197413 -0.150945 56
-0.806231 -0.118638 -0.123719 50
-0.805064 0.0200866 -0.206274 52
-0.800606 -0.118591 -0.178566 45
-7.15809 0.189781 1.64247 42
-7.19462 -1.11012 1.93861 35
-7.26268 0.192587 1.14258 36
-6.96805 -1.06261 1.36211 1
-7.0613 -1.06685 0.871344 1
-3.09842 0.0813724 0.0534916 12
-0.651402 0.0161267 -0.0324251 70
-0.796487 0.0204384 -0.0934018 70
-0.685117 -0.0985258 -0.057408 44
-0.807764 0.0210235 -0.149992 58
-0.803995 -0.116862 -0.123328 50
-0.805028 0.0214917 -0.206274 52
-0.800812 -0.117194 -0.178566 49
-7.15452 0.228429 1.64191 35
-7.19078 -1.071 1.93603 33
-7.26157 0.230612 1.14258 38
-6.95895 -1.02396 1.35925 1
-7.27864 0.229897 0.634058 27
-7.06187 -1.02914 0.870736 1
-3.08796 0.0972752 0.0533171 11
-0.653804 0.0196173 -0.0325564 74
-0.801329 0.0247704 -0.0940102 68
-0.67823 -0.0938612 -0.0567557 45
-0.810095 0.0253336 -0.150468 58
-0.809482 -0.113364 -0.124111 50
-0.80249 0.0256252 -0.205627 52
-0.799004 -0.112645 -0.178004 49
-7.14929 0.239503 1.64078 33
-7.19502 -1.05881 1.93668 33
-7.25869 0.243202 1.14219 38
-6.9583 -1.01146 1.35877 1
-7.27574 0.242517 0.63384 29
-7.05875 -1.0161 0.870127 1
-3.13025 0.104096 0.0540588 11
-0.656264 0.0208429 -0.0326876 80
-0.793845 0.0259131 -0.0930975 71
-0.678393 -0.0926773 -0.0567557 45
-0.812503 0.0268327 -0.150945 58
-0.804791 -0.111246 -0.123328 50
-0.802444 0.0270258 -0.205627 52
-0.80161 -0.1116 -0.178566 45
-7.14793 0.276933 1.64078 33
-7.19073 -1.02101 1.93409 33
-7.2549 0.279842 1.1418 36
-6.95847 -0.975541 1.35782 1
-7.27691 0.279436 0.634058 30
-7.05151 -0.978648 0.868606 1
-3.1072 0.119066 0.0536661 3
-0.653652 0.0241812 -0.0325564 82
-0.791224 0.0298329 -0.0927933 74
-0.669001 -0.0877582 -0.0558859 45
-0.809904 0.0308471 -0.150468 58
-0.80779 -0.107511 -0.123719 50
-0.799884 0.0309892 -0.20498 52
-0.804577 -0.10788 -0.179127 49
-7.15231 0.289606 1.64191 33
-7.19011 -1.00812 1.93344 33
-7.25933 0.292704 1.14258 35
-6.95547 -0.961504 1.35686 1
-7.26894 0.291835 0.633404 32
-7.03846 -0.964309 0.866781 1
-3.06004 -0.414345 0.160017 9
-0.653608 0.025322 -0.0325564 85
-0.79365 0.031316 -0.0930975 73
-0.674088 -0.0872647 -0.0563208 45
-0.804945 0.0320568 -0.149516 58
-0.80553 -0.105765 -0.123328 50
-0.802236 0.0326272 -0.205627 52
-0.799938 -0.105807 -0.178004 49
-7.14577 0.328075 1.64078 33
-7.19067 -0.968558 1.93215 33
-7.26257 0.332203 1.14336 32
-6.95798 -0.924747 1.35639 1
-7.2797 0.331728 0.634494 26
-7.04358 -0.926213 0.866781 1
-3.05976 -0.397457 0.159886 9
-0.650973 0.0286289 -0.0324251 89
-0.79099 0.035494 -0.0927933 77
-0.80476 0.0364115 -0.149516 58
-0.801177 -0.1009 -0.122545 50
-0.802054 0.0368272 -0.205627 52
-0.800499 -0.101478 -0.178004 49
-7.14768 0.339415 1.64134 33
-7.18756 -0.955367 1.93086 32
-7.25711 0.343376 1.14258 33
-6.95471 -0.91196 1.35543 1
-7.28159 0.344552 0.634712 27
-7.03518 -0.913863 0.865564 1
-3.05048 -0.391364 0.159363 9
-0.658403 0.0301231 -0.0328189 90
-0.788455 0.0366169 -0.092489 79
-0.804695 0.037816 -0.149516 58
-0.8038 -0.0998201 -0.122936 50
-0.804401 0.0383462 -0.206274 52
-0.803073 -0.100537 -0.178566 50
-7.14337 0.376707 1.64078 35
-7.18991 -0.918667 1.93021 32
-7.25768 0.3815 1.14297 35
-6.95194 -0.875823 1.354 1
-7.28224 0.381533 0.63493 27
-7.04972 -0.878248 0.866781 1
-3.05249 -0.375387 0.159363 9
-0.655743 0.0334377 -0.0326876 90
-0.79073 0.0408772 -0.0927933 80
-0.665218 -0.077795 -0.0554509 47
-0.804493 0.0418884 -0.149516 58
-0.804312 -0.0956101 -0.122936 50
-0.799374 0.0421543 -0.20498 53
-0.798754 -0.0957222 -0.177443 50
-7.14027 0.389041 1.64022 33
-7.18671 -0.90551 1.92892 32
-7.25454 0.394032 1.14258 36
-6.95117 -0.862171 1.35353 1
-7.27659 0.393972 0.634494 27
-7.27781 -0.893922 0.894771 33
-3.04818 -0.36945 0.159101 9
-0.655684 0.0345821 -0.0326876 90
-0.78818 0.0421204 -0.092489 83
-0.667825 -0.0769365 -0.0556684 49
-0.804419 0.0432925 -0.149516 58
-0.804477 -0.0942062 -0.122936 50
-0.799291 0.0436889 -0.20498 53
-0.803755 -0.0949285 -0.178566 50
-7.14292 0.42796 1.64134 35
-7.18671 -0.866032 1.92763 32
-7.25969 0.43372 1.14375 38
-6.95315 -0.825472 1.35305 1
-7.27933 0.433634 0.63493 30
-7.03857 -0.825743 0.864651 1
-3.05757 -0.353825 0.159494 11
-0.657986 0.0381646 -0.0328189 90
-0.785464 0.0462341 -0.0921848 82
-0.665745 -0.0731491 -0.0554509 50
-0.804173 0.0476441 -0.149516 58
-0.807412 -0.0902816 -0.123328 50
-0.799052 0.0478734 -0.20498 52
-0.799419 -0.090004 -0.177443 50
-7.13981 0.43903 1.64078 33
-7.18341 -0.852915 1.92634 32
-7.259 0.445123 1.14375 38
-6.94727 -0.812475 1.35162 1
-7.2711 0.445879 0.634276 30
-7.03739 -0.814399 0.864347 1
-3.05069 -0.348161 0.159101 11
-0.655427 0.0391588 -0.0326876 90
-0.790344 0.047776 -0.0927933 83
-0.665872 -0.071987 -0.0554509 50
-0.804088 0.0490476 -0.149516 58
-0.797757 -0.0877336 -0.121762 50
-0.801377 0.0494208 -0.205627 53
-0.799559 -0.0887482 -0.177443 50
-7.13985 0.47657 1.64134 33
-7.18284 -0.815997 1.92504 32
-7.25411 0.48296 1.14336 38
-6.94642 -0.776752 1.35067 1
-7.26378 0.482345 0.63384 32
-7.03663 -0.776993 0.863738 1
-3.04999 -0.331909 0.15897 11
-0.657703 0.0427572 -0.0328189 91
-0.795034 0.0522476 -0.0934018 86
-0.661288 -0.0679547 -0.055016 49
-0.811176 0.053615 -0.150945 58
-0.798206 -0.0835554 -0.121762 50
-0.801117 0.0534763 -0.205627 52
-0.79275 -0.0837484 -0.175758 50
-7.14387 0.489365 1.64247 33
-7.18185 -0.803189 1.9244 32
-7.24833 0.495282 1.14258 38
-6.94302 -0.762875 1.34971 1
-7.26044 0.494852 0.633622 35
-7.26985 -0.790063 0.892337 33
-3.05056 -0.326585 0.15897 11
-0.652646 0.043562 -0.0325564 95
-0.792466 0.0534638 -0.0930975 86
-0.666358 -0.0673366 -0.0554509 50
-0.808632 0.0548604 -0.150468 58
-0.800805 -0.0824297 -0.122153 50
-0.796195 0.0546748 -0.204334 53
-0.792895 -0.0823647 -0.175758 50
-7.14111 0.528009 1.64247 33
-7.1885 -0.764577 1.92504 32
-7.248 0.534674 1.14297 39
-6.94203 -0.725997 1.34876 1
-7.25269 0.533761 0.633186 33
-7.26908 -0.750205 0.891728 33
-3.04483 -0.309307 0.158578 11
-0.654899 0.0471632 -0.0326876 98
-0.787216 0.0573811 -0.092489 85
-0.664224 -0.0635915 -0.0552335 50
-0.800982 0.0586839 -0.14904 58
-0.803682 -0.0784902 -0.122545 50
-0.798305 0.0590252 -0.20498 53
-0.793329 -0.0780735 -0.175758 50
-7.1427 0.53941 1.64303 35
-7.18261 -0.751271 1.92311 32
-7.25208 0.546431 1.14375 38
-6.94329 -0.71388 1.34876 1
-7.25175 0.546418 0.633186 33
-7.27025 -0.738786 0.891728 33
-3.05277 -0.30528 0.15897 11
-0.659795 0.048684 -0.0329502 101
-0.789599 0.0588062 -0.0927933 88
-0.661856 -0.0621813 -0.055016 50
-0.805772 0.0604575 -0.149992 58
-0.801361 -0.076837 -0.122153 50
-0.790978 0.0598588 -0.203041 53
-0.79345 -0.0768273 -0.175758 50
-7.1325 0.576211 1.64134 33
-7.18633 -0.714907 1.92311 30
-7.2442 0.583997 1.14297 38
-6.94193 -0.678247 1.34781 1
-7.24641 0.582915 0.632969 35
-7.27649 -0.700949 0.892032 33
-3.04935 -0.288814 0.158709 11
-0.654554 0.051734 -0.0326876 104
-0.789281 0.0629397 -0.0927933 88
-0.667131 -0.0591907 -0.0554509 50
-0.805456 0.0645351 -0.149992 58
-0.799295 -0.0724026 -0.121762 50
-0.793072 0.0640602 -0.203687 52
-0.796266 -0.0729086 -0.17632 50
-6.8717 0.567165 1.58126 1
-7.18035 -0.701654 1.92117 32
-7.24563 0.596843 1.14336 38
-6.93833 -0.664447 1.34686 1
-7.25035 0.595971 0.633404 33
-7.27276 -0.687778 0.891424 33
-3.05731 -0.284196 0.159101 11
-0.656951 0.0530827 -0.0328189 108
-0.784224 0.0639054 -0.0921848 88
-0.662274 -0.0575592 -0.055016 50
-0.798005 0.0653272 -0.148564 59
-0.796962 -0.0707742 -0.12137 50
-0.795354 0.0657861 -0.204334 52
-0.796392 -0.0715187 -0.17632 50
-7.14275 0.628519 1.64471 36
-7.17442 -0.661901 1.91858 29
-7.23983 0.63582 1.14297 38
-6.94416 -0.628332 1.34733 1
-7.24701 0.63519 0.633404 33
-7.27884 -0.64864 0.891728 33
-3.06129 -0.267872 0.159232 12
-0.65169 0.0560831 -0.0325564 111
-0.78881 0.0685861 -0.0927933 88
-0.665047 -0.0543113 -0.0552335 52
-0.79764 0.0696439 -0.148564 58
-0.789943 -0.0659393 -0.120196 50
-0.799809 0.0703815 -0.205627 52
-0.794342 -0.0669893 -0.175758 50
-7.17797 -0.649597 1.91923 30
-7.23145 0.646531 1.1418 30
-6.9428 -0.615993 1.34686 1
-7.25086 0.648282 0.63384 33
-7.27738 -0.636988 0.891424 33
-3.04927 -0.261975 0.158578 12
-0.659051 0.0578914 -0.0329502 115
-0.783759 0.0693787 -0.0921848 88
-0.665141 -0.0531505 -0.0552335 53
-0.802405 0.0714799 -0.149516 58
-0.792517 -0.0647766 -0.120587 50
-0.79728 0.0715571 -0.20498 52
-0.796872 -0.0659572 -0.17632 52
-7.16914 -0.612222 1.916 30
-6.94583 -0.580844 1.34686 1
-7.27814 -0.59867 0.89112 33
-3.05558 -0.246414 0.15884 12
-0.656253 0.0611047 -0.0328189 120
-0.788325 0.0739537 -0.0927933 90
-0.66541 -0.0496671 -0.0552335 53
-0.79959 0.075306 -0.14904 58
-0.792845 -0.0606261 -0.120587 50
-0.799311 0.0758239 -0.205627 52
-0.802062 -0.0621899 -0.177443 50
-2.8501 0.274523 0.651933 30
-7.17742 -0.600318 1.91794 30
-6.94204 -0.567105 1.3459 1
-7.27918 -0.585966 0.89112 35
-3.05102 -0.24068 0.158578 12
-0.656145 0.06225 -0.0328189 126
-0.785725 0.075089 -0.092489 89
-0.663013 -0.0483068 -0.055016 53
-0.8019 0.07694 -0.149516 56
-0.790489 -0.0590433 -0.120196 52
-0.799164 0.0773583 -0.205627 52
-0.794885 -0.0601936 -0.175758 50
-2.84372 0.289444 0.65081 47
-7.16852 -0.560526 1.9147 27
-6.93513 -0.529994 1.344 1
-7.27235 -0.545824 0.889903 33
-3.05228 -0.224169 0.158578 12
-0.658294 0.0659387 -0.0329502 130
-0.790244 0.0798467 -0.0930975 90
-0.660773 -0.0446488 -0.0547986 53
-0.801472 0.0812776 -0.149516 58
-0.793249 -0.0550895 -0.120587 52
-0.798748 0.0815417 -0.205627 52
-0.795199 -0.055892 -0.175758 50
-2.84327 0.29391 0.65081 47
-7.16949 -0.548014 1.9147 29
-6.93604 -0.517889 1.344 1
-7.26824 -0.534033 0.889294 33
-3.04765 -0.219009 0.158316 12
-0.658178 0.0670875 -0.0329502 134
-0.790118 0.0810879 -0.0930975 90
-0.663334 -0.043677 -0.055016 55
-0.796447 0.0821641 -0.148564 58
-0.788419 -0.0533416 -0.119804 52
-0.801006 0.0831893 -0.206274 52
-0.795286 -0.0546429 -0.175758 50
-2.83927 0.308529 0.650249 47
-7.15772 -0.510678 1.91083 29
-6.93858 -0.482777 1.344 1
-7.27342 -0.49614 0.889599 33
-3.05623 -0.203558 0.158709 12
-0.660299 0.0708042 -0.0330815 135
-0.799549 0.0863061 -0.0943145 90
-0.661069 -0.0400347 -0.0547986 55
-0.798461 0.0864626 -0.14904 58
-0.798541 -0.0498879 -0.12137 52
-0.793374 0.086445 -0.204334 53
-0.793131 -0.0503089 -0.175197 50
-2.84114 0.313753 0.65081 47
-7.16101 -0.498354 1.91147 29
-6.93704 -0.469287 1.34352 1
-7.26932 -0.483113 0.88899 33
-3.05409 -0.198058 0.158578 14
-0.657694 0.0716808 -0.0329502 140
-0.794465 0.0871517 -0.093706 90
-0.658653 -0.0387166 -0.0545811 55
-0.798309 0.0878561 -0.14904 55
-0.7937 -0.0481651 -0.120587 52
-0.793207 0.087968 -0.204334 52
-0.793218 -0.0489246 -0.175197 52
-2.83941 0.32912 0.65081 49
-7.15396 -0.458977 1.90889 27
-2.85074 0.329948 0.447977 55
-6.93696 -0.432804 1.34304 1
-2.865 0.33111 0.249265 88
-7.27183 -0.443775 0.88899 33
-3.05262 -0.181379 0.158447 14
-0.657309 0.0751235 -0.0329502 144
-0.793981 0.0914488 -0.093706 90
-0.658846 -0.0352674 -0.0545811 55
-0.797822 0.0921741 -0.14904 58
-0.796413 -0.0440213 -0.120979 52
-0.795133 0.092403 -0.20498 52
-0.791039 -0.0444805 -0.174635 50
-2.83163 0.332723 0.649126 50
-7.15716 -0.446642 1.90953 26
-2.85016 0.334923 0.447977 56
-6.9328 -0.420396 1.34209 1
-2.87184 0.336985 0.249919 95
-7.27259 -0.431083 0.88899 33
-3.05792 -0.176346 0.158709 14
-0.662136 0.0768566 -0.0332127 148
-0.658907 -0.0341175 -0.0545811 55
-0.795223 0.0932762 -0.148564 58
-0.791559 -0.0423375 -0.120196 52
-0.799767 0.094365 -0.206274 53
-0.793548 -0.0432472 -0.175197 50
-2.83226 0.347843 0.649687 52
-7.15692 -0.410271 1.90889 26
-2.84353 0.348741 0.447197 56
-6.93239 -0.385163 1.34161 1
-2.87257 0.35182 0.250137 96
-7.26972 -0.393995 0.888382 33
-3.05877 -0.160867 0.158709 14
-0.656769 0.0797105 -0.0329502 146
-0.659077 -0.030667 -0.0545811 56
-0.799611 0.097905 -0.149516 58
-0.791764 -0.0383305 -0.120196 52
-0.799279 0.0984118 -0.206274 53
-0.791324 -0.0390951 -0.174635 50
-2.82924 0.352483 0.649126 52
-6.98642 -0.388148 1.86301 1
-2.84047 0.353397 0.446807 55
-6.92822 -0.371586 1.34066 1
-2.86206 0.3556 0.249265 90
-7.26792 -0.381175 0.888077 32
-3.05406 -0.155266 0.158447 14
-0.654152 0.0805464 -0.0328189 141
-0.743786 -0.0339358 -0.0123912 9
-0.785784 0.0973078 -0.0927933 90
-0.656642 -0.0293872 -0.0543637 55
-0.797004 0.0989937 -0.14904 58
-0.791829 -0.0369486 -0.120196 50
-0.799088 0.0999461 -0.206274 52
-0.791391 -0.0377139 -0.174635 50
-2.82487 0.36747 0.648564 50
-6.97395 -0.349607 1.85913 1
-2.83851 0.36876 0.446807 55
-6.92516 -0.335065 1.33971 1
-2.86504 0.371723 0.249701 68
-7.27478 -0.343353 0.888686 33
-3.05236 -0.138623 0.158316 14
-0.656196 0.0842936 -0.0329502 134
-0.731474 -0.0293288 -0.0121731 11
-0.787724 0.101743 -0.0930975 90
-0.656787 -0.0259486 -0.0543637 55
-0.79889 0.103624 -0.149516 58
-0.792012 -0.0328021 -0.120196 50
-0.798554 0.104129 -0.206274 52
-0.791578 -0.0335697 -0.174635 49
-2.82912 0.372546 0.649687 52
-6.97937 -0.337671 1.86042 1
-2.84772 0.374511 0.448368 55
-6.92574 -0.322977 1.33971 1
-2.8521 0.374596 0.248612 56
-7.26793 -0.330312 0.887773 32
-3.05757 -0.134055 0.158578 14
-0.656048 0.0854388 -0.0329502 124
-0.729022 -0.0280673 -0.0121294 11
-0.780166 0.102138 -0.0921848 88
-0.661803 -0.025142 -0.0547986 56
-0.798727 0.104879 -0.149516 56
-0.789601 -0.0313068 -0.119804 50
-0.798389 0.105383 -0.206274 52
-0.794068 -0.032302 -0.175197 50
-2.8272 0.38686 0.649687 50
-6.97612 -0.303346 1.85913 1
-2.8409 0.388249 0.447587 53
-6.92968 -0.289232 1.34018 1
-2.85264 0.389364 0.24883 53
-7.27199 -0.293624 0.888077 32
-3.05322 -0.118376 0.158316 15
-0.655623 0.0886438 -0.0329502 115
-0.782097 0.106425 -0.092489 88
-0.659433 -0.021692 -0.0545811 56
-0.795754 0.108584 -0.14904 55
-0.794684 -0.0275107 -0.120587 50
-0.795454 0.10909 -0.205627 53
-0.789354 -0.0280792 -0.174073 50
-2.82417 0.390966 0.649126 50
-6.98387 -0.291477 1.86107 1
-2.83777 0.392867 0.447197 50
-7.17049 -0.286915 1.38689 36
-2.84702 0.393658 0.248394 50
-7.26753 -0.280737 0.887469 33
-3.05591 -0.113143 0.158447 15
-0.655467 0.089788 -0.0329502 111
-0.779453 0.107446 -0.0921848 85
-0.661959 -0.0206367 -0.0547986 56
-0.793133 0.109633 -0.148564 58
-0.787329 -0.0258354 -0.119413 50
-0.795262 0.110478 -0.205627 52
-0.789401 -0.0267015 -0.174073 49
-2.81961 0.405892 0.648564 50
-6.98289 -0.254816 1.86042 1
-2.83323 0.407367 0.446807 49
-7.17434 -0.249454 1.38737 35
-2.84492 0.40856 0.248394 50
-7.2689 -0.24268 0.887469 33
-3.05147 -0.0969746 0.158185 15
-0.652501 0.0929757 -0.0328189 106
-0.778879 0.111526 -0.0921848 83
-0.654593 -0.0168084 -0.0541462 56
-0.799834 0.114843 -0.149992 58
-0.787453 -0.0217126 -0.119413 52
-0.794673 0.114641 -0.205627 52
-0.784661 -0.0223987 -0.17295 50
-2.81648 0.41046 0.648003 49
-6.98091 -0.242543 1.85978 1
-2.83007 0.411955 0.446416 49
-7.17236 -0.235597 1.38689 35
-2.83681 0.412446 0.24774 49
-7.26435 -0.229833 0.88686 33
-3.05663 -0.0918064 0.158447 17
-0.647397 0.093391 -0.0325564 103
-0.778683 0.112885 -0.0921848 82
-0.657111 -0.0157437 -0.0543637 58
-0.797205 0.115882 -0.149516 55
-0.78749 -0.0203382 -0.119413 50
-0.79684 0.11652 -0.206274 53
-0.789569 -0.0211899 -0.174073 49
-2.81181 0.425327 0.647441 49
-6.98936 -0.204987 1.86172 1
-2.83024 0.427631 0.446807 49
-7.17595 -0.198109 1.38737 35
-2.837 0.428161 0.247958 50
-7.26797 -0.190593 0.887165 32
-3.05209 -0.0751365 0.158185 17
-0.646899 0.0967794 -0.0325564 100
-0.780514 0.11747 -0.092489 79
-0.657184 -0.0123029 -0.0543637 56
-0.796566 0.120193 -0.149516 58
-0.790057 -0.0161427 -0.119804 52
-0.791445 0.119958 -0.20498 52
-0.789672 -0.0169176 -0.174073 50
-2.80873 0.429374 0.646879 49
-6.97281 -0.19231 1.85719 1
-2.82217 0.431447 0.445636 49
-7.17628 -0.185585 1.38737 35
-2.8264 0.431603 0.247087 49
-7.27325 -0.178032 0.887773 32
-3.04972 -0.0697485 0.158055 15
-0.646729 0.0979083 -0.0325564 98
-0.780308 0.118832 -0.092489 79
-0.662184 -0.0112767 -0.0547986 56
-0.801206 0.122333 -0.150468 58
-0.790084 -0.0147638 -0.119804 52
-0.788848 0.120969 -0.204334 52
-0.787265 -0.0154764 -0.173512 50
-2.80396 0.444182 0.646318 49
-6.97131 -0.155742 1.85655 1
-2.81743 0.445831 0.445246 50
-7.16979 -0.14785 1.38594 35
-2.8241 0.446396 0.247087 52
-7.2716 -0.139898 0.887469 32
-3.04755 -0.0537314 0.157924 17
-0.648674 0.101685 -0.0326876 97
-0.779675 0.122916 -0.092489 77
-0.659744 -0.00776201 -0.0545811 56
-0.795707 0.125751 -0.149516 58
-0.785213 -0.0105302 -0.119021 52
-0.792973 0.125863 -0.205627 53
-0.787335 -0.0113541 -0.173512 49
-2.80567 0.448972 0.646879 50
-6.9764 -0.143677 1.85784 1
-2.81665 0.450747 0.445246 50
-7.1774 -0.13548 1.38737 33
-2.82824 0.452113 0.247522 55
-7.25199 -0.126846 0.885035 29
-3.05013 -0.0484559 0.158055 20
-0.64603 0.102421 -0.0325564 95
-0.781909 0.124672 -0.0927933 76
-0.657266 -0.00656749 -0.0543637 56
-0.795487 0.12714 -0.149516 55
-0.795105 -0.00933557 -0.120587 52
-0.792752 0.127247 -0.205627 52
-0.787354 -0.00997993 -0.173512 50
-2.79839 0.463347 0.645756 50
-6.99879 -0.107496 1.86365 1
-2.81182 0.465085 0.444856 52
-2.82337 0.466508 0.247304 56
-3.04785 -0.0324543 0.157924 21
-0.645485 0.105802 -0.0325564 91
-0.778798 0.128356 -0.092489 77
-0.659782 -0.00315597 -0.0545811 58
-0.79481 0.131303 -0.149516 55
-0.790205 -0.00511025 -0.119804 52
-0.792075 0.131396 -0.205627 52
-0.789831 -0.0058904 -0.174073 52
-2.79526 0.467339 0.645195 50
-2.80856 0.469583 0.444465 53
-2.82992 0.47267 0.247958 73
-3.0504 -0.027161 0.158055 23
-0.647762 0.107342 -0.0326876 90
-0.785914 0.130952 -0.0934018 71
-0.659787 -0.00200443 -0.0545811 58
-0.79458 0.13269 -0.149516 58
-0.790213 -0.00373107 -0.119804 53
-0.791844 0.132779 -0.205627 52
-0.792276 -0.00454079 -0.174635 50
-2.79029 0.48204 0.644633 50
-2.80607 0.484282 0.444465 55
-3.10719 -0.0179391 0.596696 9
-2.82986 0.487905 0.248176 90
-3.07932 -0.0134714 0.373303 8
-3.048 -0.0111757 0.157924 23
-0.642252 0.109992 -0.0324251 90
-0.782773 0.13464 -0.0930975 71
-0.654807 0.00158971 -0.0541462 56
-0.791456 0.136428 -0.14904 55
-0.790222 0.000406503 -0.119804 53
-0.786381 0.136091 -0.204334 52
-2.79664 0.48817 0.646318 52
-2.81008 0.49003 0.445246 56
-3.0925 -0.0118941 0.593836 9
-2.83392 0.493701 0.248612 97
-3.05453 -0.00799305 0.37026 3
-0.699454 0.121045 0.0117804 8
-3.05051 -0.00586469 0.158055 17
-0.644518 0.111543 -0.0325564 90
-0.78498 0.136435 -0.0934018 70
-0.657293 0.00272474 -0.0543637 58
-0.7888 0.137384 -0.148564 55
-0.79022 0.0017857 -0.119804 53
-0.788496 0.138021 -0.20498 52
-2.78677 0.501994 0.644633 52
-2.80496 0.504788 0.444856 56
-3.07043 0.00430215 0.589547 8
-2.82875 0.508584 0.248394 96
-3.0446 0.00852145 0.369043 11
-0.696351 0.124262 0.0117367 8
-3.0455 0.0106306 0.157793 18
-0.646382 0.11536 -0.0326876 90
-0.786672 0.141123 -0.093706 71
-0.65727 0.00616626 -0.0543637 58
-0.79046 0.142088 -0.14904 55
-0.792669 0.00592668 -0.120196 55
-0.780091 0.00527068 -0.171827 52
-2.78597 0.506371 0.644633 52
-2.79688 0.507866 0.443685 55
-3.05815 0.00964178 0.587164 4
-2.82051 0.512182 0.24774 89
-3.0421 0.013297 0.368739 11
-3.04798 0.0154232 0.157924 23
-0.648635 0.116936 -0.0328189 90
-0.781568 0.141466 -0.0930975 68
-0.654768 0.00730384 -0.0541462 58
-0.792625 0.14391 -0.149516 55
-0.790188 0.00730239 -0.119804 53
-0.784954 0.00650625 -0.17295 52
-2.78329 0.520952 0.644633 52
-2.79661 0.522959 0.444075 50
-3.06051 0.0251365 0.587641 4
