# .PCD v0.7 - Point Cloud Data file format
VERSION 0.7
FIELDS x y z intensity
SIZE 4 4 4 4
TYPE F F F F
COUNT 1 1 1 1
WIDTH 1521
HEIGHT 1
VIEWPOINT 0 0 0 1 0 0 0
POINTS 1521
DATA ascii
-7.22058 -1.80998 1.98256 32
-6.99562 -0.462371 1.10238 1
-7.22109 -1.79677 1.43836 35
-7.27131 -0.481799 0.634494 33
-7.3155 -1.80952 0.919718 33
-1.68766 -0.412414 0.0892328 52
-0.660072 -0.0447676 -0.0329502 58
-0.809826 -0.0541895 -0.0952272 56
-0.803649 -0.193652 -0.0691506 47
-0.81115 -0.0539975 -0.150945 53
-0.820886 -0.198487 -0.128418 49
-0.813211 -0.0535794 -0.20886 50
-0.810203 -0.196545 -0.184181 47
-7.07776 -0.45539 1.62674 1
-7.21436 -1.79504 1.97997 33
-6.99388 -0.451223 1.10199 1
-7.21707 -1.7824 1.43693 35
-7.27711 -0.469427 0.63493 33
-7.3087 -1.79565 0.918501 33
-1.68346 -0.408571 0.0889711 52
-0.657658 -0.0434561 -0.0328189 58
-0.809911 -0.0529174 -0.0952272 55
-0.803986 -0.192249 -0.0691506 47
-0.811243 -0.0525817 -0.150945 53
-0.816436 -0.195875 -0.127635 49
-0.815713 -0.0523103 -0.209507 50
-0.810511 -0.195273 -0.184181 47
-6.97791 -0.41231 1.60316 1
-7.22335 -1.7585 1.97997 33
-7.27223 -0.430903 1.1457 38
-7.22123 -1.74469 1.43598 33
-7.2769 -0.432441 0.634712 33
-7.31559 -1.75678 0.918197 35
-1.68557 -0.399751 0.0889711 53
-0.650399 -0.0395731 -0.0324251 58
-1.56376 -0.369935 -0.0274439 18
-0.807699 -0.0485314 -0.094923 56
-0.797715 -0.186295 -0.0684982 45
-0.816399 -0.0487593 -0.151897 53
-0.812649 -0.190443 -0.126852 50
-0.813557 -0.0480428 -0.20886 52
-0.809154 -0.190454 -0.183619 49
-6.86431 -0.3936 1.57677 1
-7.21937 -1.74418 1.97803 33
-7.27544 -0.418351 1.14609 38
-7.21502 -1.72853 1.43407 33
-7.27516 -0.419597 0.634494 33
-7.30899 -1.7417 0.91698 33
-1.68627 -0.396808 0.0889711 53
-0.65296 -0.0385798 -0.0325564 58
-1.56197 -0.366627 -0.0274003 20
-0.81026 -0.0472619 -0.0952272 56
-0.798039 -0.184902 -0.0684982 45
-0.814033 -0.0471965 -0.151421 53
-0.810578 -0.188451 -0.12646 50
-0.813648 -0.0464808 -0.20886 52
-0.811855 -0.189609 -0.184181 49
-6.86147 -0.356203 1.57565 1
-7.22165 -1.70343 1.97609 33
-7.27513 -0.378853 1.1457 38
-7.21919 -1.68961 1.43312 35
-7.28727 -0.380746 0.635365 33
-7.30864 -1.69988 0.915763 35
-1.68353 -0.386548 0.0887094 55
-0.655646 -0.0352894 -0.0326876 58
-1.55906 -0.35704 -0.027313 23
-0.81546 -0.043131 -0.0958357 56
-0.784441 -0.177339 -0.0671935 42
-0.809374 -0.0425423 -0.150468 53
-0.816396 -0.185183 -0.127243 49
-0.816292 -0.0423408 -0.209507 50
-0.808124 -0.184104 -0.183058 47
-6.86932 -0.34579 1.57733 1
-7.21521 -1.68861 1.97351 33
-7.27331 -0.366032 1.14531 38
-7.21257 -1.67478 1.43121 35
-7.28544 -0.367902 0.635147 33
-7.08677 -1.63509 0.887469 1
-1.67933 -0.382487 0.0884478 55
-0.653213 -0.0340204 -0.0325564 58
-1.56942 -0.356562 -0.0274875 21
-0.815535 -0.0417076 -0.0958357 56
-0.782323 -0.175411 -0.066976 44
-0.811898 -0.0412499 -0.150945 53
-0.816718 -0.183757 -0.127243 49
-0.81154 -0.0406827 -0.208214 50
-0.803699 -0.181591 -0.181935 45
-6.87103 -0.309818 1.57733 1
-7.22131 -1.65153 1.97286 33
-7.27014 -0.328991 1.14453 36
-7.21138 -1.63607 1.42931 35
-7.28223 -0.330798 0.634712 33
-7.08043 -1.59592 0.885643 1
-1.68612 -0.37508 0.0887094 55
-0.655877 -0.0307113 -0.0326876 59
-1.59316 -0.353552 -0.0278802 21
-0.810777 -0.0373594 -0.0952272 56
-0.7808 -0.170765 -0.0667586 42
-0.814548 -0.0372479 -0.151421 52
-0.81282 -0.178534 -0.12646 50
-0.814148 -0.0366791 -0.20886 50
-0.809359 -0.178599 -0.183058 49
-6.874 -0.29793 1.57789 1
-7.21711 -1.63732 1.97092 33
-7.27317 -0.316409 1.14492 36
-7.20733 -1.6206 1.42788 35
-7.28529 -0.318195 0.63493 32
-7.29386 -1.6308 0.912112 33
-1.68434 -0.371592 0.0885786 55
-0.650941 -0.0293522 -0.0324251 59
-1.60841 -0.354038 -0.028142 29
-0.808362 -0.0358386 -0.094923 56
-0.773805 -0.167775 -0.0661062 42
-0.809708 -0.0356189 -0.150468 52
-0.81554 -0.177655 -0.126852 49
-0.814217 -0.035116 -0.20886 50
-0.812046 -0.177721 -0.183619 49
-6.87308 -0.260643 1.57733 1
-7.21879 -1.59668 1.96899 33
-7.27724 -0.277146 1.14531 38
-7.20852 -1.58126 1.42645 35
-7.28939 -0.278868 0.635147 32
-7.07227 -1.54097 0.883209 1
-1.68144 -0.361411 0.0883169 53
-0.646096 -0.0257553 -0.0321625 59
-1.63717 -0.351174 -0.0286219 44
-0.808544 -0.0314645 -0.094923 56
-0.772239 -0.163191 -0.0658888 41
-0.812342 -0.0313278 -0.150945 52
-0.816459 -0.173382 -0.126852 49
-0.81439 -0.0308523 -0.20886 50
-0.808237 -0.172281 -0.182496 47
-7.0585 -0.256534 1.62001 21
-7.22157 -1.58408 1.96899 33
-7.27273 -0.265536 1.14453 36
-7.21607 -1.56972 1.4274 35
-7.28489 -0.265965 0.634712 32
-7.06984 -1.52881 0.882601 1
-3.12989 -0.114513 0.0540588 9
-1.68445 -0.359297 0.0884478 55
-0.643645 -0.0245379 -0.0320313 59
-1.65733 -0.352531 -0.028971 50
-0.808593 -0.0301944 -0.094923 56
-0.80749 -0.0297378 -0.149992 52
-0.81676 -0.171957 -0.126852 50
-0.814443 -0.0294309 -0.20886 50
-0.808506 -0.171011 -0.182496 49
-6.87226 -0.213778 1.57677 1
-7.22241 -1.54598 1.96705 35
-7.27402 -0.227452 1.14453 38
-7.21432 -1.53114 1.42549 33
-7.28365 -0.229012 0.634494 30
-7.07289 -1.49074 0.881993 1
-3.11544 -0.0982041 0.053797 11
-1.68142 -0.349442 0.0881861 55
-0.64626 -0.0212441 -0.0321625 59
-1.67621 -0.34774 -0.0292764 53
-0.803779 -0.0258095 -0.0943145 56
-0.80763 -0.0256504 -0.149992 52
-0.812818 -0.166658 -0.126069 50
-0.814581 -0.0253082 -0.20886 50
-0.814157 -0.167787 -0.183619 50
-6.86775 -0.201641 1.57565 1
-7.21801 -1.53187 1.96511 33
-7.26947 -0.214611 1.14375 36
-7.21004 -1.51576 1.42406 33
-7.28902 -0.216446 0.63493 29
-7.06819 -1.47687 0.88108 1
-3.10562 -0.0919314 0.0536225 12
-1.67958 -0.345997 0.0880552 56
-0.646296 -0.0201161 -0.0321625 59
-1.67682 -0.344814 -0.0292764 56
-0.806303 -0.0244776 -0.0946187 56
-0.807673 -0.0242408 -0.149992 52
-0.810691 -0.164733 -0.125677 49
-0.8098 -0.023612 -0.207567 50
-0.807297 -0.164861 -0.181935 50
-6.859 -0.164249 1.5734 1
-7.21674 -1.49083 1.96252 33
-7.27299 -0.175336 1.14414 36
-7.21067 -1.47651 1.42263 35
-7.28759 -0.176945 0.634712 29
-7.07122 -1.43761 0.880471 1
-3.10606 -0.0756692 0.0536225 12
-1.68143 -0.336904 0.0880552 56
-0.646393 -0.0167319 -0.0321625 59
-1.68111 -0.336234 -0.02932 61
-0.806424 -0.0201148 -0.0946187 56
-0.807793 -0.0198705 -0.149992 53
-0.811542 -0.160486 -0.125677 50
-0.809913 -0.0193716 -0.207567 50
-0.80579 -0.160002 -0.181373 49
-6.86412 -0.153583 1.57452 1
-7.21696 -1.47775 1.96188 33
-7.2782 -0.164022 1.14492 35
-7.21083 -1.46343 1.42216 35
-7.28291 -0.164115 0.634276 29
-7.07104 -1.42601 0.880167 1
-3.10619 -0.070248 0.0536225 15
-1.68196 -0.334263 0.0880552 56
-0.641429 -0.0154939 -0.0319 59
-1.68414 -0.333792 -0.0293637 62
-0.803974 -0.0187943 -0.0943145 56
-0.812734 -0.0185643 -0.150945 52
-0.811821 -0.159069 -0.125677 49
-0.809945 -0.017958 -0.207567 49
-0.808428 -0.159221 -0.181935 49
-6.88431 -0.117971 1.57901 1
-7.21488 -1.4393 1.95929 35
-7.26908 -0.125742 1.14336 36
-7.21092 -1.42548 1.42073 35
-7.29112 -0.12738 0.63493 30
-7.06867 -1.38705 0.87895 1
-3.09401 -0.0543115 0.0534044 29
-1.68124 -0.324971 0.0879244 56
-0.643997 -0.012177 -0.0320313 59
-1.67845 -0.323822 -0.0292328 64
-0.804061 -0.0145845 -0.0943145 58
-0.810363 -0.014411 -0.150468 52
-0.817488 -0.155769 -0.12646 50
-0.81244 -0.0138953 -0.208214 50
-0.80925 -0.154986 -0.181935 49
-6.90643 -0.106288 1.58407 1
-7.2079 -1.42483 1.95671 33
-7.26188 -0.112941 1.14219 35
-7.20883 -1.41069 1.41977 35
-7.06621 -1.37376 0.878342 1
-3.09911 -0.0484473 0.0534916 36
-1.6818 -0.322036 0.0879244 56
-0.646514 -0.0110905 -0.0321625 59
-1.67656 -0.320416 -0.0291891 64
-0.804085 -0.0131811 -0.0943145 58
-0.812841 -0.0130318 -0.150945 53
-0.805641 -0.151982 -0.124502 50
-0.807636 -0.0122706 -0.20692 50
-0.807129 -0.153105 -0.181373 49
-7.20839 -1.38444 1.95477 33
-7.20889 -1.37155 1.41834 35
-7.07354 -1.33551 0.878342 1
-3.09682 -0.0321949 0.053448 23
-1.67861 -0.312006 0.0876627 55
-0.644067 -0.00768078 -0.0320313 59
-1.6709 -0.309952 -0.0290583 62
-0.804145 -0.00883042 -0.0943145 58
-0.810445 -0.00861188 -0.150468 52
-0.808852 -0.148221 -0.124894 49
-0.810104 -0.00806153 -0.207567 49
-0.807945 -0.148736 -0.181373 49
-7.20842 -1.3714 1.95412 33
-7.20645 -1.35805 1.41739 35
-3.11307 -0.0274662 0.269311 8
-7.06587 -1.32256 0.877125 1
-3.09437 -0.0267694 0.0534044 21
-1.6791 -0.309368 0.0876627 56
-0.649072 -0.00659675 -0.0322938 59
-1.6567 -0.304284 -0.0287965 58
-0.804158 -0.00756726 -0.0943145 58
-0.715536 -0.128778 -0.0604524 36
-0.810459 -0.00719737 -0.150468 53
-0.813963 -0.147719 -0.125677 49
-0.807702 -0.00663202 -0.20692 50
-0.805784 -0.147015 -0.180812 49
-7.20815 -1.33358 1.95218 35
-3.08953 -0.0111038 0.482707 4
-7.2084 -1.32067 1.41644 35
-3.08827 -0.0116266 0.267132 9
-7.06537 -1.28421 0.876212 1
-3.07697 -0.0110521 0.0530989 15
-1.67824 -0.300126 0.0875319 53
-0.646601 -0.00319117 -0.0321625 59
-1.66559 -0.297233 -0.0289274 49
-0.804186 -0.00335662 -0.0943145 59
-0.71375 -0.124585 -0.0602349 36
-0.808031 -0.00309005 -0.149992 55
-0.812296 -0.143013 -0.125285 49
-0.80531 -0.00254044 -0.206274 50
-0.808939 -0.143233 -0.181373 47
-7.20334 -1.31969 1.95025 35
-3.10683 -0.00573566 0.485439 2
-7.20851 -1.30639 1.41596 35
-3.06089 -0.00619355 0.264736 1
-7.06272 -1.271 0.875603 1
-3.07699 -0.00514476 0.0530989 1
-1.67385 -0.296312 0.0872702 39
-0.644109 -0.00206002 -0.0320313 59
-0.804191 -0.00195304 -0.0943145 59
-0.711515 -0.122899 -0.0600175 36
-0.805581 -0.00167891 -0.149516 55
-0.802899 -0.000995614 -0.205627 52
-0.804394 -0.140952 -0.18025 45
-7.208 -1.28027 1.9496 33
-3.04755 0.010836 0.476074 9
-7.20317 -1.2665 1.41358 35
-3.05341 0.0103388 0.264082 14
-7.06461 -1.23191 0.874995 1
-3.05447 0.010876 0.0527063 20
-1.67789 -0.28768 0.087401 18
-0.649104 0.00133346 -0.0322938 59
-0.80419 0.00239806 -0.0943145 61
-0.709695 -0.118745 -0.0598 36
-0.808033 0.00269213 -0.149992 55
-0.802893 0.00320835 -0.205627 52
-0.802745 -0.136176 -0.179689 49
-7.19833 -1.26559 1.94637 32
-3.04506 0.0156093 0.475683 9
-7.2102 -1.25477 1.41453 35
-3.05338 0.015668 0.264082 14
-7.05675 -1.21911 0.873778 1
-3.05195 0.0161926 0.0526626 23
-1.69064 -0.287169 0.0880552 14
-0.646604 0.00245154 -0.0321625 59
-0.799222 0.00363009 -0.093706 59
-0.704993 -0.11666 -0.0593651 38
-0.805572 0.0040857 -0.149516 53
-0.800471 0.00459153 -0.20498 52
-0.805358 -0.135332 -0.18025 47
-7.20702 -1.22954 1.94701 36
-3.04247 0.0315261 0.475293 9
-7.20678 -1.21662 1.41263 36
-3.05326 0.0311222 0.264082 14
-7.06304 -1.18215 0.873778 1
-3.04183 0.0315315 0.0524881 30
-0.649079 0.00586499 -0.0322938 59
-0.79423 0.00775757 -0.0930975 61
-0.703137 -0.112557 -0.0591477 38
-0.800633 0.00810475 -0.148564 53
-0.798023 0.00861266 -0.204334 52
-0.808458 -0.131519 -0.180812 49
-7.19963 -1.21535 1.94443 36
-3.05969 0.0370534 0.478025 8
-7.197 -1.20075 1.41024 35
-3.05819 0.0365129 0.264518 14
-7.0602 -1.169 0.87317 1
-3.04926 0.0374669 0.052619 23
-0.651564 0.00703008 -0.0324251 61
-0.796696 0.00917666 -0.0934018 61
-0.691047 -0.1093 -0.0580604 38
-0.805526 0.00956892 -0.149516 55
-0.803881 -0.129305 -0.179689 49
-7.2061 -1.17638 1.94443 36
-3.10389 0.0544063 0.485049 1
-7.21046 -1.16423 1.41167 35
-3.07786 0.0534133 0.266261 2
-7.06397 -1.13039 0.872865 1
-3.07402 0.0538815 0.0530553 3
-1.77295 -0.278819 0.0922421 14
-0.646526 0.0103509 -0.0321625 61
-0.794154 0.0134407 -0.0930975 62
-0.696528 -0.106466 -0.0584953 41
-0.800555 0.0138337 -0.148564 55
-0.809379 -0.125731 -0.180812 49
-7.19623 -1.16187 1.9412 35
-6.96531 -1.11201 1.36306 1
-3.08275 0.0588825 0.266697 11
-7.06083 -1.11852 0.872257 1
-3.07142 0.0591973 0.0530117 14
-1.79805 -0.279939 0.0935505 14
-0.646507 0.0114793 -0.0321625 67
-0.796613 0.0147384 -0.0934018 68
-0.805437 0.0153329 -0.149516 56
-0.805158 0.0158711 -0.206274 52
-0.804764 -0.12369 -0.179689 49
-7.20202 -1.12543 1.9412 36
-6.97085 -1.07674 1.36306 1
-7.06414 -1.08115 0.871953 1
-3.09107 0.0752379 0.0533607 14
-0.643945 0.0146891 -0.0320313 68
-0.805349 0.0194093 -0.149516 58
-0.813532 -0.119902 -0.124894 50
-0.802653 0.0198821 -0.205627 52
-0.810216 -0.120219 -0.180812 49
-7.15325 0.188403 1.64134 32
-7.18965 -1.11064 1.93732 35
-7.26271 0.191319 1.14258 36
-6.96302 -1.06308 1.36115 1
-7.06111 -1.06808 0.871344 1
-3.09343 0.080699 0.0534044 12
-0.64891 0.0159463 -0.0322938 68
-0.807767 0.0208826 -0.149992 58
-0.808857 -0.117742 -0.124111 49
-0.805031 0.0213512 -0.206274 52
-0.798383 -0.116966 -0.178004 49
-7.15456 0.22718 1.64191 33
-7.19059 -1.07226 1.93603 35
-7.25667 0.229187 1.1418 36
-6.95635 -1.02481 1.35877 1
-7.2737 0.22847 0.633622 26
-7.05924 -1.03001 0.870431 1
-3.08797 0.0967362 0.0533171 11
-0.648817 0.0193437 -0.0322938 74
-0.791413 0.0243084 -0.0927933 70
-0.807647 0.0251117 -0.149992 58
-0.809463 -0.113505 -0.124111 50
-0.804909 0.025566 -0.206274 52
-0.803805 -0.113494 -0.179127 45
-7.1542 0.238419 1.64191 33
-7.19484 -1.06006 1.93668 33
-7.2612 0.242018 1.14258 36
-6.95813 -1.01267 1.35877 1
-7.2708 0.241081 0.633404 27
-7.05612 -1.01698 0.869823 1
-3.09779 0.102461 0.0534916 9
-0.661258 0.0208965 -0.0329502 80
-0.796329 0.0258594 -0.0934018 71
-0.805149 0.0264365 -0.149516 58
-0.802328 -0.111033 -0.122936 50
-0.804863 0.0269708 -0.206274 52
-0.801591 -0.11174 -0.178566 45
-7.1455 0.276838 1.64022 33
-7.19073 -1.02101 1.93409 33
-7.2549 0.279842 1.1418 36
-6.96333 -0.976226 1.35877 1
-7.27442 0.27934 0.63384 29
-7.04414 -0.97762 0.867693 1
-3.1147 0.119357 0.053797 3
-0.658645 0.0242614 -0.0328189 85
-0.793703 0.0299307 -0.0930975 73
-0.671453 -0.0882169 -0.0561033 45
-0.807452 0.0307495 -0.149992 58
-0.800453 -0.106491 -0.122545 50
-0.80471 0.0311847 -0.206274 52
-0.80699 -0.108218 -0.179689 49
-7.14993 0.288259 1.64134 35
-7.1925 -1.00846 1.93409 32
-7.26427 0.292904 1.14336 36
-6.95044 -0.962042 1.35591 1
-7.27143 0.291935 0.633622 32
-7.04584 -0.965324 0.867693 1
-3.04767 -0.412651 0.159363 9
-0.653613 0.0252079 -0.0325564 85
-0.788691 0.0311116 -0.092489 74
-0.66667 -0.0863697 -0.0556684 47
-0.804945 0.0320568 -0.149516 56
-0.80553 -0.105765 -0.123328 50
-0.802242 0.0324872 -0.205627 53
-0.807178 -0.106809 -0.179689 49
-7.14583 0.326828 1.64078 35
-7.1905 -0.969813 1.93215 32
-7.26263 0.330935 1.14336 32
-6.95782 -0.925962 1.35639 1
-7.28224 0.330571 0.634712 32
-7.04587 -0.927768 0.867085 1
-3.04979 -0.396688 0.159363 9
-0.655966 0.0287444 -0.0326876 89
-0.788518 0.0352407 -0.092489 79
-0.662175 -0.0822285 -0.0552335 47
-0.802314 0.0361563 -0.14904 58
-0.803625 -0.101223 -0.122936 50
-0.804473 0.0368018 -0.206274 52
-0.800481 -0.101618 -0.178004 50
-7.14774 0.338168 1.64134 35
-7.18979 -0.956941 1.93151 32
-7.26698 0.343845 1.14414 35
-6.94969 -0.912532 1.35448 1
-7.27668 0.343045 0.634276 27
-7.03764 -0.914184 0.865868 1
-3.048 -0.391043 0.159232 9
-0.653421 0.0297704 -0.0325564 90
-0.788455 0.0366169 -0.092489 79
-0.667257 -0.0817134 -0.0556684 47
-0.80225 0.0375565 -0.14904 58
-0.806249 -0.100139 -0.123328 50
-0.801996 0.038087 -0.205627 52
-0.798242 -0.0999031 -0.177443 50
-7.14337 0.376707 1.64078 33
-7.18991 -0.918667 1.93021 32
-7.26015 0.38163 1.14336 36
-6.94707 -0.875206 1.35305 1
-7.2897 0.381926 0.635583 27
-7.05218 -0.878556 0.867085 1
-3.04753 -0.37477 0.159101 9
-0.660729 0.0337025 -0.0329502 90
-0.79073 0.0408772 -0.0927933 79
-0.660275 -0.0771811 -0.055016 47
-0.802042 0.0417565 -0.14904 58
-0.804312 -0.0956101 -0.122936 50
-0.796963 0.0420228 -0.204334 53
-0.798754 -0.0957222 -0.177443 50
-6.88243 0.374941 1.5807 1
-7.18671 -0.90551 1.92892 32
-7.2644 0.394569 1.14414 38
-6.9463 -0.861563 1.35257 1
-7.28157 0.394243 0.63493 27
-7.04878 -0.865638 0.866476 1
-3.05561 -0.370363 0.159494 11
-0.660669 0.0348556 -0.0329502 90
-0.790658 0.0422572 -0.0927933 80
-0.665353 -0.0766339 -0.0554509 50
-0.801968 0.0431563 -0.14904 58
-0.802027 -0.0939044 -0.122545 50
-0.79688 0.0435528 -0.204334 53
-0.79892 -0.094328 -0.177443 50
-7.14536 0.428106 1.64191 35
-7.18911 -0.866323 1.92827 32
-7.25476 0.433424 1.14297 38
-6.95315 -0.825472 1.35305 1
-7.27684 0.433485 0.634712 30
-7.27515 -0.85366 0.893858 33
-3.05261 -0.353243 0.159232 11
-0.653002 0.0378649 -0.0325564 90
-0.792894 0.0466846 -0.0930975 83
-0.663271 -0.0728593 -0.0552335 49
-0.804173 0.0476441 -0.149516 58
-0.80496 -0.0899927 -0.122936 50
-0.794231 0.047576 -0.203687 52
-0.801838 -0.0902912 -0.178004 49
-7.14224 0.43918 1.64134 33
-7.18821 -0.853487 1.92763 32
-7.25654 0.444971 1.14336 38
-6.9424 -0.811901 1.35067 1
-7.27607 0.446185 0.634712 32
-7.27155 -0.841657 0.893249 33
-3.05069 -0.348161 0.159101 11
-0.652935 0.0390046 -0.0325564 90
-0.79282 0.0479301 -0.0930975 82
-0.663397 -0.0717016 -0.0552335 49
-0.801639 0.0488939 -0.14904 58
-0.798967 0.0492679 -0.20498 53
-0.79714 -0.0884648 -0.176881 49
-7.14228 0.476733 1.64191 33
-7.18764 -0.816545 1.92634 32
-7.25165 0.482795 1.14297 38
-6.94642 -0.776752 1.35067 1
-7.26627 0.48251 0.634058 33
-7.26846 -0.80275 0.892337 33
-3.0475 -0.331635 0.15884 11
-0.655212 0.04259 -0.0326876 90
-0.795034 0.0522476 -0.0934018 86
-0.661288 -0.0679547 -0.055016 49
-0.806278 0.0532829 -0.149992 58
-0.796298 0.0531461 -0.204334 53
-0.795171 -0.0840191 -0.17632 52
-7.14143 0.489198 1.64191 33
-7.18425 -0.803459 1.92504 32
-7.25326 0.49562 1.14336 38
-6.94302 -0.762875 1.34971 1
-7.25796 0.494682 0.633404 33
-7.27231 -0.790333 0.892641 33
-3.05056 -0.326585 0.15897 11
-0.650156 0.0433904 -0.0324251 96
-0.789991 0.0532924 -0.0927933 86
-0.663882 -0.0670685 -0.0552335 50
-0.803736 0.0545197 -0.149516 58
-0.793441 -0.0816271 -0.120979 50
-0.796195 0.0546748 -0.204334 53
-0.790473 -0.0820982 -0.175197 50
-7.13868 0.527829 1.64191 33
-7.1861 -0.76432 1.9244 32
-7.25047 0.534856 1.14336 38
-6.94936 -0.726768 1.35019 1
-7.25021 0.533577 0.632969 33
-7.27155 -0.750462 0.892032 33
-3.04483 -0.309307 0.158578 11
-0.654899 0.0471632 -0.0326876 98
-0.792165 0.0577506 -0.0930975 88
-0.666701 -0.0638467 -0.0554509 50
-0.803429 0.0588675 -0.149516 59
-0.798783 -0.0778415 -0.121762 50
-0.793489 0.0586605 -0.203687 53
-0.795752 -0.0783269 -0.17632 52
-7.14756 0.539778 1.64415 35
-7.18742 -0.751777 1.9244 32
-7.25199 0.547697 1.14375 38
-6.94085 -0.713627 1.34828 1
-7.25175 0.546418 0.633186 35
-7.27531 -0.738021 0.892337 35
-3.04785 -0.304244 0.158709 11
-0.657305 0.048495 -0.0328189 101
-0.794537 0.0593222 -0.0934018 90
-0.661856 -0.0621813 -0.055016 49
-0.805772 0.0604575 -0.149992 58
-0.794005 -0.0759473 -0.120979 52
-0.793386 0.0600453 -0.203687 53
-0.793464 -0.0766888 -0.175758 50
-7.13968 0.578048 1.64303 35
-7.18164 -0.713172 1.92181 30
-7.24902 0.58566 1.14375 38
-6.94449 -0.677276 1.34828 1
-7.24382 0.583979 0.632751 35
-7.27167 -0.699201 0.891424 33
-3.05437 -0.288759 0.15897 11
-0.657042 0.051936 -0.0328189 104
-0.796689 0.0636836 -0.093706 90
-0.662172 -0.058715 -0.055016 50
-0.800552 0.0642743 -0.14904 58
-0.794379 -0.0719275 -0.120979 52
-0.797874 0.0645969 -0.20498 53
-0.798704 -0.0730061 -0.176881 52
-7.13876 0.589262 1.64303 36
-7.17807 -0.700165 1.92052 30
-7.24563 0.596843 1.14336 38
-6.94566 -0.665154 1.34828 1
-7.25024 0.597236 0.633404 33
-7.27029 -0.687542 0.89112 32
-3.05731 -0.284196 0.159101 11
-0.659439 0.053289 -0.0329502 109
-0.791642 0.0645231 -0.0930975 89
-0.659794 -0.0573257 -0.0547986 50
-0.797993 0.0654665 -0.148564 58
-0.796962 -0.0707742 -0.12137 50
-0.802573 0.0663961 -0.206274 52
-0.796392 -0.0715187 -0.17632 50
-7.14043 0.627059 1.64415 36
-7.1719 -0.662929 1.91794 29
-7.23994 0.634557 1.14297 38
-6.93672 -0.628874 1.3459 1
-7.24464 0.633707 0.633186 33
-7.27873 -0.649911 0.891728 33
-3.05875 -0.268184 0.159101 12
-0.654177 0.0563024 -0.0326876 110
-0.791294 0.0686672 -0.0930975 90
-0.662566 -0.0540908 -0.055016 52
-0.800096 0.069722 -0.14904 58
-0.792403 -0.0661597 -0.120587 52
-0.792605 0.0695953 -0.203687 53
-0.796756 -0.0673479 -0.17632 50
-7.17786 -0.65085 1.91923 32
-7.22407 0.645869 1.14063 30
-6.93791 -0.615556 1.3459 1
-7.24849 0.646795 0.633622 33
-7.27491 -0.63677 0.89112 33
-3.05424 -0.26241 0.15884 12
-0.664024 0.0583387 -0.0332127 115
-0.791173 0.0700482 -0.0930975 89
-0.66266 -0.0529343 -0.055016 52
-0.804862 0.0715615 -0.149992 58
-0.792517 -0.0647766 -0.120587 52
-0.794875 0.071337 -0.204334 53
-0.796872 -0.0659572 -0.17632 52
-7.17887 -0.611798 1.91858 30
-6.94349 -0.579426 1.34638 1
-7.27825 -0.5974 0.89112 35
-3.05313 -0.245677 0.158709 12
-0.658738 0.0613414 -0.0329502 121
-0.795722 0.0748009 -0.093706 90
-0.662928 -0.0494639 -0.055016 53
-0.799577 0.0754455 -0.14904 58
-0.795306 -0.0608293 -0.120979 52
-0.799298 0.0759634 -0.205627 53
-0.797217 -0.0616448 -0.17632 49
-2.85495 0.274992 0.653056 44
-7.17511 -0.598863 1.91729 30
-6.94204 -0.567105 1.3459 1
-7.27176 -0.585364 0.890207 33
-3.05351 -0.240881 0.158709 12
-0.661115 0.062732 -0.0330815 126
-0.795604 0.0760507 -0.093706 90
-0.663013 -0.0483068 -0.055016 53
-0.797002 0.0766019 -0.148564 58
-0.795411 -0.0594411 -0.120979 52
-0.794885 -0.0601936 -0.175758 50
-2.83893 0.288452 0.649687 47
-7.17083 -0.561967 1.91535 29
-6.93748 -0.531394 1.34447 1
-7.2772 -0.547469 0.890511 33
-3.04975 -0.224515 0.158447 12
-0.658294 0.0659387 -0.0329502 130
-0.790258 0.0797087 -0.0930975 90
-0.663257 -0.0448347 -0.055016 55
-0.799045 0.0808863 -0.14904 58
-0.795711 -0.0552755 -0.120979 52
-0.792761 -0.0558448 -0.175197 49
-2.84327 0.29391 0.65081 47
-7.17421 -0.549637 1.916 30
-6.93604 -0.517889 1.344 1
-7.27319 -0.5344 0.889903 35
-3.05263 -0.219375 0.158578 12
-0.653212 0.0665708 -0.0326876 134
-0.792586 0.0813455 -0.0934018 90
-0.663334 -0.043677 -0.055016 55
-0.798903 0.0822807 -0.14904 58
-0.793344 -0.053705 -0.120587 52
-0.792857 -0.0544611 -0.175197 50
-2.83921 0.309025 0.650249 49
-7.16503 -0.509948 1.91277 29
-6.93621 -0.481394 1.34352 1
-7.27103 -0.494701 0.889294 33
-3.05377 -0.202855 0.158578 12
-0.660299 0.0708042 -0.0330815 135
-0.789667 0.0853616 -0.0930975 90
-0.663554 -0.0402032 -0.055016 55
-0.798446 0.086602 -0.14904 56
-0.793615 -0.0495503 -0.120587 52
-0.795759 0.0868497 -0.20498 53
-0.788279 -0.0498332 -0.174073 50
-2.83872 0.313484 0.650249 49
-7.16109 -0.497104 1.91147 27
-6.93215 -0.468952 1.34257 1
-7.26932 -0.483113 0.88899 33
-3.05409 -0.198058 0.158578 14
-0.662656 0.0722322 -0.0332127 140
-0.791998 0.0868768 -0.0934018 90
-0.658653 -0.0387166 -0.0545811 55
-0.795854 0.0877223 -0.148564 58
-0.7937 -0.0481651 -0.120587 52
-0.798006 0.0885089 -0.205627 55
-0.793218 -0.0489246 -0.175197 52
-2.82736 0.327218 0.648003 50
-7.16111 -0.460695 1.91083 27
-2.84099 0.328312 0.446416 53
-6.93933 -0.43417 1.34352 1
-2.85516 0.329464 0.248394 56
-7.27423 -0.445197 0.889294 33
-3.05508 -0.182064 0.158578 14
-0.654843 0.0747205 -0.0328189 146
-0.791533 0.0910225 -0.0934018 90
-0.661326 -0.035534 -0.0547986 55
-0.790525 0.0911784 -0.147611 58
-0.796406 -0.0441603 -0.120979 53
-0.79515 0.0922642 -0.20498 55
-0.800757 -0.045227 -0.176881 52
-2.83652 0.332799 0.650249 52
-7.15467 -0.447739 1.90889 26
-2.85022 0.334425 0.447977 55
-6.93518 -0.421756 1.34257 1
-2.86448 0.33561 0.249265 61
-7.26756 -0.432054 0.888382 32
-3.05041 -0.176436 0.158316 14
-0.657191 0.0761559 -0.0329502 148
-0.78398 0.0915276 -0.092489 90
-0.661387 -0.0343797 -0.0547986 55
-0.795239 0.0931374 -0.148564 58
-0.794017 -0.0426229 -0.120587 50
-0.794987 0.0936519 -0.20498 53
-0.795972 -0.0435336 -0.175758 50
-2.82743 0.347247 0.648564 50
-7.16415 -0.410691 1.91083 26
-2.84353 0.348741 0.447197 56
-6.93729 -0.385438 1.34257 1
-2.86021 0.3503 0.249048 62
-7.2722 -0.394131 0.888686 33
-3.05877 -0.160867 0.158709 14
-0.651813 0.0790985 -0.0326876 146
-0.781027 0.0953262 -0.0921848 89
-0.661563 -0.0308008 -0.0547986 56
-0.792305 0.0969975 -0.148088 58
-0.791764 -0.0383305 -0.120196 50
-0.789693 0.0972145 -0.203687 53
-0.793756 -0.0392302 -0.175197 52
-2.83407 0.353088 0.650249 52
-6.9816 -0.387877 1.86172 1
-2.84292 0.353703 0.447197 55
-6.92086 -0.371187 1.33923 1
-2.85959 0.355292 0.249048 61
-7.2704 -0.381307 0.888382 32
-3.05157 -0.155136 0.158316 14
-0.656629 0.0808567 -0.0329502 142
-0.783322 0.0969985 -0.092489 89
-0.659129 -0.0295166 -0.0545811 55
-0.792134 0.0983802 -0.148088 58
-0.794295 -0.0370787 -0.120587 50
-0.789505 0.0987304 -0.203687 53
-2.82729 0.367786 0.649126 52
-6.97878 -0.349852 1.86042 1
-2.83606 0.368441 0.446416 56
-6.93252 -0.335426 1.34114 1
-2.84775 0.369472 0.248176 55
-7.26988 -0.341847 0.888077 33
-3.05984 -0.138974 0.158709 14
-0.651245 0.0836471 -0.0326876 134
-0.738965 -0.0296781 -0.0123039 11
-0.780325 0.100913 -0.0921848 88
-0.661762 -0.0261815 -0.0547986 56
-0.79159 0.102665 -0.148088 58
-0.792018 -0.0326638 -0.120196 50
-0.786583 0.102546 -0.203041 52
-2.82671 0.372227 0.649126 52
-6.97214 -0.337316 1.85848 1
-2.84521 0.374685 0.447977 55
-6.93064 -0.32321 1.34066 1
-2.84463 0.374115 0.247958 53
-7.27046 -0.329158 0.888077 33
-3.05509 -0.133408 0.158447 14
-0.656048 0.0854388 -0.0329502 125
-0.731524 -0.0280521 -0.0121731 11
-0.782608 0.102601 -0.092489 88
-0.661807 -0.0250265 -0.0547986 56
-0.793843 0.10437 -0.148564 58
-0.792073 -0.0312815 -0.120196 50
-0.788797 0.10424 -0.203687 52
-2.82224 0.387183 0.648564 52
-6.98587 -0.301334 1.86172 1
-2.83342 0.388231 0.446416 52
-6.93224 -0.286917 1.34066 1
-2.8451 0.389344 0.248176 52
-7.27457 -0.291186 0.888382 32
-3.05825 -0.11751 0.158578 15
-0.653119 0.0885321 -0.0328189 125
-0.731661 -0.0242215 -0.0121731 11
-0.78206 0.106698 -0.092489 90
-0.664418 -0.02166 -0.055016 56
-0.795716 0.108862 -0.14904 58
-0.792226 -0.0271338 -0.120196 50
-0.785848 0.108035 -0.203041 52
-0.796666 -0.0281059 -0.175758 50
-2.82645 0.392287 0.649687 50
-6.97915 -0.288836 1.85978 1
-2.83763 0.393857 0.447197 50
-6.92537 -0.27452 1.33923 1
-2.85182 0.395338 0.24883 50
-7.26763 -0.2782 0.887469 33
-3.05346 -0.111981 0.158316 15
-0.655436 0.0900167 -0.0329502 111
-0.786787 0.10875 -0.0930975 86
-0.659477 -0.0203109 -0.0545811 56
-0.797956 0.110592 -0.149516 56
-0.792272 -0.025751 -0.120196 52
-0.792832 0.110419 -0.20498 52
-0.791845 -0.0265225 -0.174635 50
-2.82188 0.407225 0.649126 50
-6.98057 -0.25229 1.85978 1
-2.83309 0.408356 0.446807 49
-7.17443 -0.246949 1.38737 36
-2.83985 0.40884 0.247958 50
-7.27146 -0.240226 0.887773 33
-3.04901 -0.0958271 0.158055 15
-0.652485 0.0930896 -0.0328189 106
-0.781296 0.112155 -0.092489 83
-0.657085 -0.0167759 -0.0543637 56
-0.797366 0.114768 -0.149516 58
-0.787457 -0.0215752 -0.119413 50
-0.789854 0.114219 -0.204334 52
-0.787104 -0.0222085 -0.173512 50
-2.81641 0.410951 0.648003 49
-6.97134 -0.239767 1.85719 1
-2.82756 0.412091 0.446026 47
-7.16749 -0.234182 1.38594 35
-2.83913 0.413796 0.247958 50
-7.27183 -0.228804 0.887773 33
-3.05415 -0.0911945 0.158316 15
-0.652321 0.0942282 -0.0328189 103
-0.781119 0.113382 -0.092489 79
-0.662092 -0.0157838 -0.0547986 56
-0.794736 0.115802 -0.14904 58
-0.787494 -0.0202008 -0.119413 52
-0.789653 0.115597 -0.204334 53
-0.789572 -0.0210521 -0.174073 50
-2.81422 0.425692 0.648003 49
-6.97247 -0.204479 1.85719 1
-2.82292 0.426521 0.445636 49
-7.17104 -0.19797 1.38641 35
-2.83454 0.427788 0.24774 49
-7.27293 -0.190726 0.887773 32
-3.0471 -0.0750058 0.157924 17
-0.641946 0.0961423 -0.0322938 100
-0.780514 0.11747 -0.092489 82
-0.657186 -0.0121882 -0.0543637 58
-0.79414 0.119823 -0.14904 58
-0.792525 -0.0162082 -0.120196 52
-0.791445 0.119958 -0.20498 53
-0.789672 -0.0169176 -0.174073 50
-2.81347 0.430603 0.648003 49
-6.96798 -0.192173 1.8559 1
-2.81973 0.431072 0.445246 49
-7.17141 -0.184203 1.38641 35
-2.82886 0.43198 0.247304 50
-7.27077 -0.17797 0.887469 32
-3.04972 -0.0697485 0.158055 15
-0.646712 0.0980212 -0.0325564 99
-0.780308 0.118832 -0.092489 77
-0.662186 -0.0111611 -0.0547986 58
-0.793929 0.121209 -0.14904 58
-0.787615 -0.0147026 -0.119413 50
-0.795986 0.122219 -0.206274 52
-0.792135 -0.0156022 -0.174635 50
-2.80389 0.444671 0.646318 49
-6.97134 -0.154525 1.85655 1
-2.81979 0.44671 0.445636 50
-7.17227 -0.146651 1.38641 35
-2.82648 0.44728 0.247304 52
-7.26915 -0.13858 0.887165 32
-3.04756 -0.0531995 0.157924 17
-0.64619 0.101406 -0.0325564 97
-0.779654 0.123052 -0.092489 77
-0.657255 -0.00759992 -0.0543637 56
-0.795686 0.12589 -0.149516 58
-0.792619 -0.010675 -0.120196 52
-0.790567 0.125619 -0.20498 52
-0.787337 -0.0112167 -0.173512 50
-2.80318 0.449075 0.646318 49
-6.9716 -0.142358 1.85655 1
-2.81421 0.450356 0.444856 50
-7.17497 -0.13418 1.38689 33
-2.83062 0.453002 0.24774 55
-7.24951 -0.126801 0.884731 29
-0.686269 0.108888 0.0115186 8
-3.05013 -0.0484559 0.158055 20
-0.646012 0.102534 -0.0325564 94
-0.781909 0.124672 -0.0927933 76
-0.652287 -0.00636759 -0.0539288 58
-0.795465 0.127279 -0.149516 58
-0.792636 -0.00929162 -0.120196 53
-0.790346 0.126998 -0.20498 52
-0.792225 -0.0100718 -0.174635 50
-2.79839 0.463347 0.645756 50
-7.00603 -0.107613 1.86559 1
-2.80694 0.464276 0.444075 50
-2.81846 0.465694 0.246869 55
-0.685709 0.11236 0.0115186 8
-3.04785 -0.0324543 0.157924 21
-0.645467 0.105915 -0.0325564 91
-0.783694 0.129172 -0.0930975 74
-0.657292 -0.00301126 -0.0543637 58
-0.789969 0.130495 -0.148564 55
-0.787736 -0.00507922 -0.119413 52
-0.787311 0.130598 -0.204334 52
-0.784959 -0.00582408 -0.17295 50
-2.79518 0.467827 0.645195 50
-2.80613 0.469175 0.444075 52
-2.82256 0.471435 0.247304 64
-0.687957 0.11409 0.0115622 8
-3.0454 -0.0271087 0.157793 23
-0.647743 0.107455 -0.0326876 90
-0.783467 0.13054 -0.0930975 73
-0.657297 -0.00186407 -0.0543637 58
-0.79216 0.132282 -0.14904 55
-0.787744 -0.00370436 -0.119413 52
-0.791821 0.132917 -0.205627 50
-0.78984 -0.00451188 -0.174073 52
-2.7926 0.482943 0.645195 50
-2.80598 0.484772 0.444465 53
-3.1072 -0.0173968 0.596696 9
-2.82242 0.487125 0.247522 82
-3.08677 -0.0129769 0.374216 8
-0.68735 0.11769 0.0115622 4
-3.048 -0.0106438 0.157924 23
-0.639792 0.109565 -0.0322938 90
-0.787639 0.135627 -0.093706 71
-0.657297 0.00157754 -0.0543637 58
-0.789015 0.136144 -0.148564 55
-0.790221 0.000544423 -0.119804 53
-0.795872 0.137894 -0.20692 50
-0.780109 -0.000175462 -0.171827 52
-2.78944 0.486909 0.644633 50
-2.8027 0.489243 0.444075 55
-3.10968 -0.011987 0.597172 2
-2.81911 0.491621 0.247304 90
-3.05949 -0.00747986 0.370869 3
-0.689606 0.119321 0.0116058 8
-3.05051 -0.00533227 0.158055 18
-0.642059 0.111112 -0.0324251 90
-0.784957 0.136572 -0.0934018 71
-0.657293 0.00272474 -0.0543637 56
-0.791193 0.137947 -0.14904 55
-0.790219 0.00192362 -0.119804 53
-0.793252 0.138862 -0.206274 52
-0.782544 0.0011746 -0.172389 50
-2.78916 0.502428 0.645195 52
-2.80253 0.504349 0.444465 56
-3.07043 0.00430215 0.589547 8
-2.82385 0.507701 0.247958 90
-3.0446 0.00852145 0.369043 11
-0.684052 0.122042 0.0115186 8
-3.0455 0.0106306 0.157793 18
-0.643925 0.114917 -0.0325564 90
-0.779347 0.139796 -0.0927933 70
-0.659761 0.00617148 -0.0545811 56
-0.797704 0.143403 -0.150468 56
-0.7902 0.00592324 -0.119804 53
-0.79489 0.143447 -0.20692 52
-0.777655 0.00526941 -0.171266 52
-2.78837 0.506808 0.645195 52
-2.80173 0.508751 0.444465 56
-3.06796 0.0096572 0.58907 4
-2.81071 0.510398 0.246869 77
-3.04458 0.0133039 0.369043 11
-0.686297 0.123684 0.0115622 8
-3.05048 0.0154319 0.158055 24
-0.646179 0.116488 -0.0326876 90
-0.781568 0.141466 -0.0930975 67
-0.654768 0.00730384 -0.0541462 56
-0.795039 0.144352 -0.149992 56
-0.787719 0.00729463 -0.119413 53
-0.794638 0.144834 -0.20692 52
-0.782518 0.00650114 -0.172389 52
-2.78329 0.520952 0.644633 52
-2.79661 0.522959 0.444075 50
-3.06051 0.0251365 0.587641 4
-2.81054 0.525076 0.247087 64
-3.04199 0.0292251 0.368739 11
-0.695489 0.128999 0.0117367 9
-3.04536 0.0313603 0.157793 24
-0.643107 0.119409 -0.0325564 90
-0.783255 0.146015 -0.0934018 62
-0.65223 0.0107095 -0.0539288 58
-0.789474 0.147465 -0.14904 55
-0.790139 0.0114397 -0.119804 53
-0.791522 0.148405 -0.206274 52
-0.784909 0.0106161 -0.17295 50
-2.77998 0.525355 0.644072 52
-2.79084 0.52692 0.443295 44
-3.06782 0.0310752 0.58907 4
-2.80472 0.529055 0.246651 58
-3.04938 0.0346071 0.369652 11
-0.692784 0.129869 0.0116931 11
-3.0478 0.0367015 0.157924 23
-0.640445 0.120066 -0.0324251 90
-0.782999 0.147382 -0.0934018 61
-0.654701 0.0118748 -0.0541462 58
-0.789216 0.148843 -0.14904 55
-0.795056 0.0128687 -0.120587 55
-0.793608 0.150378 -0.20692 52
-0.780017 0.0119418 -0.171827 52
-2.77709 0.540388 0.644072 52
-2.79037 0.542485 0.443685 39
-3.09461 0.04751 0.594313 3
-2.80182 0.544222 0.246651 56
-3.10125 0.0518965 0.376041 2
-0.692095 0.133494 0.0116931 12
-3.04256 0.0531118 0.157662 21
-0.642258 0.123896 -0.0325564 90
-0.779755 0.15114 -0.0930975 61
-0.65214 0.0152626 -0.0539288 58
-0.790807 0.153583 -0.149516 55
-0.792509 0.0169935 -0.120196 55
-0.78807 0.153599 -0.205627 52
-0.777505 0.0161267 -0.171266 52
-2.77624 0.54475 0.644072 50
-2.79194 0.547344 0.444075 50
-2.80086 0.549111 0.246651 58
-0.686956 0.133737 0.0116058 12
-3.04747 0.0579781 0.157924 23
-0.64204 0.125017 -0.0325564 90
-0.779517 0.152365 -0.0930975 61
-0.657092 0.0164895 -0.0543637 58
-0.785723 0.15401 -0.148564 55
-0.794947 0.0184189 -0.120587 55
-0.79017 0.155444 -0.206274 52
-0.779915 0.017387 -0.171827 52
-2.77096 0.558796 0.64351 49
-2.78177 0.560488 0.442904 52
-2.79317 0.562295 0.246215 58
-0.696071 0.139192 0.0117804 11
-3.04463 0.0738771 0.157793 23
-0.643846 0.12876 -0.0326876 88
-0.78114 0.156937 -0.0934018 61
-0.649531 0.0196443 -0.0537113 58
-0.784933 0.157985 -0.148564 53
-0.792371 0.0225258 -0.120196 55
-0.78464 0.158477 -0.20498 52
-0.774942 0.0213667 -0.170704 52
-2.77008 0.563148 0.64351 49
-7.15256 0.15222 1.90501 44
-2.78079 0.565342 0.442904 50
-7.1547 0.164703 1.38308 32
-2.7995 0.56866 0.246869 71
-7.25094 0.176947 0.885035 29
-0.700725 0.141405 0.0118676 9
-3.04948 0.0793129 0.158055 24
-0.643621 0.129883 -0.0326876 83
-0.785727 0.159295 -0.0940102 59
-0.651985 0.0208392 -0.0539288 59
-0.789465 0.16034 -0.149516 53
-0.789862 0.0238492 -0.119804 53
-0.793824 0.161792 -0.207567 52
-0.777339 0.0227753 -0.171266 52
-2.76213 0.57761 0.642387 50
-6.89572 0.184261 1.83651 1
-2.77527 0.579873 0.442514 52
-7.1537 0.203411 1.38308 30
-2.8037 0.585329 0.247522 90
-7.25484 0.21632 0.885643 30
-3.04652 0.0957364 0.157924 23
-0.642909 0.133363 -0.0326876 80
-0.784854 0.163543 -0.0940102 59
-0.646884 0.0242169 -0.0534938 59
-0.786184 0.164103 -0.14904 53
-0.794662 0.0281294 -0.120587 55
-0.788212 0.165086 -0.206274 50
-0.777204 0.0269808 -0.171266 53
-2.7636 0.582452 0.642949 50
-6.9316 0.197301 1.84621 1
-2.7816 0.585762 0.443685 56
-7.15579 0.215969 1.38355 30
-2.80267 0.590221 0.247522 97
-7.25945 0.227868 0.886252 30
-3.04387 0.100443 0.157793 23
-0.635347 0.132936 -0.0322938 74
-0.787023 0.16529 -0.0943145 59
-0.651819 0.0255041 -0.0539288 62
-0.788297 0.165985 -0.149516 55
-0.79708 0.029593 -0.120979 56
-0.787923 0.166462 -0.206274 52
-0.774726 0.0281284 -0.170704 52
-2.76051 0.596914 0.642949 50
-6.92327 0.232144 1.84427 1
-2.77609 0.599795 0.443295 56
-7.17177 0.252778 1.38689 33
-2.79965 0.604399 0.247522 98
-7.26807 0.266232 0.887469 33
-3.04579 0.116471 0.157924 24
-0.629763 0.135202 -0.0320313 67
-0.63395 0.0282483 -0.0104714 8
-0.778873 0.167828 -0.0934018 59
-0.651677 0.0289166 -0.0539288 64
-0.787447 0.169973 -0.149516 53
-0.796914 0.033766 -0.120979 56
-0.78707 0.170447 -0.206274 52
-0.777003 0.0322703 -0.171266 52
-2.75947 0.601731 0.642949 52
-6.91803 0.24406 1.84298 1
-2.77021 0.603586 0.442514 39
-7.16146 0.266189 1.38498 33
-2.79616 0.608754 0.247304 90
-7.25768 0.278543 0.886252 33
-3.04309 0.121691 0.157793 23
-0.634404 0.137368 -0.0322938 65
-0.633899 0.0293547 -0.0104714 8
-0.783426 0.17025 -0.0940102 59
-0.654114 0.0301505 -0.0541462 64
-0.787149 0.171347 -0.149516 55
-0.796854 0.0351569 -0.120979 56
-0.786741 0.171958 -0.206274 52
-0.776945 0.0336264 -0.171266 52
-2.74666 0.61452 0.640703 50
-6.93109 0.282066 1.84685 1
-2.76208 0.617485 0.441734 53
-7.16242 0.303784 1.38546 32
-2.7831 0.621697 0.246433 65
-7.25855 0.317913 0.886556 33
-3.04488 0.138263 0.157924 23
-0.633676 0.140688 -0.0322938 65
-0.628737 0.0325633 -0.0103842 8
-0.782494 0.174486 -0.0940102 58
-0.653947 0.033575 -0.0541462 68
-0.783816 0.175064 -0.14904 55
-0.799126 0.0394355 -0.12137 58
-0.783474 0.175543 -0.205627 52
-0.776752 0.0378296 -0.171266 52
-2.75282 0.620444 0.642387 50
-6.92093 0.29376 1.84427 1
-2.76352 0.622367 0.442124 52
-7.15453 0.315965 1.38403 30
-2.77958 0.626005 0.246215 58
-7.25804 0.329315 0.886556 33
-3.04466 0.143046 0.157924 24
-0.633429 0.141794 -0.0322938 62
-0.631176 0.0337753 -0.0104278 8
-0.782219 0.175715 -0.0940102 58
-0.653888 0.0347163 -0.0541462 73
-0.785903 0.176975 -0.149516 53
-0.796589 0.0407191 -0.120979 58
-0.785522 0.177446 -0.206274 52
-0.776692 0.0390497 -0.171266 52
-2.74716 0.6343 0.641826 50
-6.92418 0.329012 1.84556 1
-2.76022 0.636828 0.442124 52
-7.16019 0.35253 1.38546 33
-2.77638 0.640066 0.246215 58
-7.24382 0.366694 0.885035 33
-0.632678 0.145108 -0.0322938 61
-0.630997 0.0369695 -0.0104278 8
-0.786122 0.180929 -0.0946187 58
-0.65121 0.0380127 -0.0539288 74
-0.792169 0.182617 -0.150945 53
-0.791433 0.0446413 -0.120196 58
-0.782261 0.180872 -0.205627 52
-0.774043 0.042996 -0.170704 52
-2.74605 0.639094 0.641826 52
-6.92601 0.341213 1.84621 1
-2.76151 0.642205 0.442514 55
-7.1595 0.366276 1.38546 35
-2.78011 0.64604 0.246651 76
-7.25308 0.379849 0.886252 33
-0.632424 0.146212 -0.0322938 61
-0.628436 0.0379391 -0.0103842 8
-0.780973 0.181171 -0.0940102 58
-0.648655 0.039018 -0.0537113 77
-0.789459 0.18344 -0.150468 53
-0.798751 0.0464076 -0.12137 58
-0.786614 0.183479 -0.20692 52
-0.773967 0.0443469 -0.170704 53
-2.74018 0.653376 0.641264 52
-6.91683 0.378291 1.84427 1
-2.7556 0.656563 0.442124 49
-7.15258 0.403485 1.38451 35
-2.78142 0.662229 0.247087 90
-7.24844 0.418944 0.885948 33
-0.626793 0.148361 -0.0320313 61
-0.62323 0.0410483 -0.0102969 8
-0.782394 0.185972 -0.0943145 56
-0.648442 0.0424138 -0.0537113 79
-0.783682 0.186563 -0.149516 55
-0.793567 0.0503067 -0.120587 58
-0.785643 0.187595 -0.20692 50
-0.771284 0.0483965 -0.170143 52
-2.74389 0.658819 0.642387 52
-6.91616 0.390362 1.84427 1
-2.74976 0.659736 0.441344 45
-7.15677 0.416249 1.38546 35
-2.77057 0.664753 0.246215 126
-7.25025 0.430475 0.886252 32
-0.626533 0.149455 -0.0320313 59
-0.623158 0.042136 -0.0102969 8
-0.784514 0.187783 -0.0946187 58
-0.648367 0.0435454 -0.0537113 85
-0.783355 0.187931 -0.149516 53
-0.793478 0.0516916 -0.120587 58
-0.787661 0.189535 -0.207567 50
-0.776071 0.0498902 -0.171266 53
-2.73804 0.672595 0.641826 47
-6.90927 0.42507 1.84298 1
-2.74627 0.674125 0.441344 55
-7.15212 0.452314 1.38498 35
-2.76717 0.678768 0.246215 161
-7.2479 0.468431 0.886252 33
-0.625769 0.152624 -0.0320313 59
-0.622936 0.0452895 -0.0102969 8
-0.78352 0.191888 -0.0946187 56
-0.650624 0.0469877 -0.0539288 85
-0.787159 0.193071 -0.150468 53
-0.798124 0.0561625 -0.12137 58
-0.786692 0.193519 -0.207567 50
-0.775799 0.053953 -0.171266 53
-2.73698 0.676895 0.641826 44
-6.91334 0.43743 1.84427 1
-2.74748 0.679511 0.441734 56
-7.14887 0.464639 1.38451 35
-2.7684 0.684195 0.246433 198
-7.2446 0.480918 0.885948 33
-3.03851 0.206612 0.157793 18
-0.625502 0.153716 -0.0320313 59
-0.625351 0.0465432 -0.0103405 4
-0.780775 0.192656 -0.0943145 56
-0.650541 0.0481232 -0.0539288 90
-0.78444 0.193852 -0.149992 53
-0.798025 0.0575554 -0.12137 58
-0.78401 0.194307 -0.20692 50
-0.770841 0.0549908 -0.170143 52
-2.73328 0.691693 0.641826 41
-6.91095 0.473622 1.84427 1
-2.74868 0.695101 0.442514 56
-7.14389 0.501894 1.38403 35
-2.75995 0.697458 0.245997 188
-7.24445 0.519019 0.886252 33
-3.03738 0.222518 0.157793 20
-0.629528 0.158216 -0.0322938 59
-0.620112 0.0494577 -0.0102533 8
-0.784566 0.197964 -0.094923 56
-0.647796 0.0513502 -0.0537113 90
-0.785792 0.198562 -0.150468 53
-0.792787 0.0613817 -0.120587 58
-0.790002 0.200201 -0.20886 50
-0.775403 0.0593677 -0.171266 53
-2.73219 0.695986 0.641826 50
-6.91493 0.486018 1.84556 1
-2.74267 0.698676 0.441734 56
-7.15035 0.514885 1.38546 35
-2.75873 0.702274 0.245997 174
-7.24354 0.531663 0.886252 33
-2.82672 0.720144 0.0503066 1
-3.03948 0.228002 0.157924 18
-0.626832 0.158697 -0.0321625 59
-0.617532 0.050356 -0.0102097 4
-0.789027 0.200564 -0.0955314 55
-0.647705 0.0524808 -0.0537113 90
-0.787822 0.200542 -0.150945 52
-0.800067 0.0633052 -0.121762 58
-0.784973 0.200377 -0.207567 52
-0.772869 0.0605459 -0.170704 53
-2.73074 0.711374 0.642387 50
-6.90989 0.522038 1.84491 1
-2.74137 0.71365 0.442124 56
-7.14756 0.552317 1.38546 35
-2.75742 0.717337 0.246215 178
-7.24065 0.569582 0.886252 33
-2.81566 0.733042 0.0501757 1
-3.03576 0.243718 0.157793 20
-0.625993 0.161977 -0.0321625 59
-0.624735 0.0541796 -0.0103405 4
-0.785565 0.204065 -0.0952272 55
-0.647421 0.0558714 -0.0537113 90
-0.784387 0.204043 -0.150468 52
-0.797263 0.0673006 -0.12137 58
-0.788585 0.205711 -0.20886 52
-0.772541 0.0645918 -0.170704 53
-2.72726 0.715043 0.641826 36
-6.90656 0.533912 1.84427 1
-2.74489 0.719688 0.442904 56
-7.14903 0.564983 1.38594 35
-2.75376 0.721516 0.245997 150
-7.23718 0.582021 0.885948 33
-2.8047 0.735414 0.0500011 1
-3.0403 0.249416 0.158055 18
-0.628123 0.163704 -0.0322938 59
-0.619657 0.0548672 -0.0102533 4
-0.782809 0.204803 -0.094923 55
-0.642358 0.056601 -0.0532764 90
-0.788776 0.206663 -0.151421 52
-0.794683 0.0684948 -0.120979 58
-0.78122 0.205234 -0.20692 50
-0.769999 0.0657481 -0.170143 53
-2.72335 0.729788 0.641826 44
-6.90848 0.570462 1.84556 1
-2.7387 0.733411 0.442514 55
-7.14108 0.601998 1.38498 35
-2.75475 0.737215 0.246433 107
-7.23897 0.620327 0.886556 33
-2.7984 0.749442 0.0499575 9
-3.04144 0.265545 0.158185 18
-0.622406 0.165804 -0.0320313 59
-0.626832 0.0587541 -0.0103842 3
-0.784122 0.209544 -0.0952272 55
-0.639561 0.059862 -0.0530589 90
-0.782943 0.209514 -0.150468 52
-0.796773 0.0728648 -0.12137 58
-0.784798 0.210582 -0.208214 49
-0.774499 0.0701882 -0.171266 53
-2.72443 0.735176 0.642387 50
-6.9171 0.583323 1.84815 1
-2.73503 0.737545 0.442124 52
-7.14725 0.616334 1.38641 32
-2.75587 0.742671 0.246651 79
-7.23046 0.632317 0.885643 32
-2.77283 0.748289 0.0495212 11
-3.036 0.270418 0.157924 17
-0.626936 0.168195 -0.0322938 59
-0.621749 0.0594106 -0.0102969 3
-0.78136 0.210263 -0.094923 55
-0.646899 0.0616319 -0.0537113 90
-0.784945 0.211522 -0.150945 52
-0.796645 0.0742554 -0.12137 58
-0.784392 0.212088 -0.208214 49
-0.769521 0.071122 -0.170143 53
-2.71806 0.749258 0.641826 50
-2.73814 0.754303 0.443295 55
-2.74221 0.754922 0.245779 58
-2.7761 0.764792 0.0496521 14
-3.03449 0.28684 0.157924 17
-0.630859 0.172804 -0.0325564 58
-0.623907 0.0630059 -0.0103405 3
-0.782602 0.21515 -0.0952272 52
-0.644087 0.0647873 -0.0534938 90
-0.786154 0.216422 -0.151421 52
-0.791328 0.0779711 -0.120587 58
-0.785598 0.216839 -0.20886 47
-0.773977 0.0757286 -0.171266 53
-2.71453 0.752874 0.641264 50
-2.73458 0.757943 0.442904 56
-2.74328 0.760373 0.245997 55
-2.76994 0.768297 0.0495648 14
-0.625746 0.172567 -0.0322938 59
-0.621308 0.0638582 -0.0102969 3
-0.777482 0.215047 -0.0946187 50
-0.646452 0.0661466 -0.0537113 90
-0.785775 0.217793 -0.151421 50
-0.793649 0.0795836 -0.120979 58
-0.785218 0.21821 -0.20886 47
-0.771431 0.0767184 -0.170704 53
-2.70821 0.766412 0.640703 49
-2.84189 0.277556 0.754767 42
-2.72582 0.770904 0.442124 53
-2.86001 0.284279 0.551419 49
-2.737 0.77357 0.245779 58
-2.86632 0.288901 0.348964 49
-2.76842 0.782989 0.0496085 15
-0.622433 0.17516 -0.0321625 59
-0.628438 0.0677495 -0.0104278 3
-0.78112 0.220472 -0.0952272 50
-0.646097 0.0695305 -0.0537113 90
-0.787023 0.222439 -0.151897 50
-0.795678 0.0839824 -0.12137 58
-0.784104 0.222181 -0.20886 47
-0.768595 0.0805179 -0.170143 53
-2.70687 0.771138 0.640703 50
-2.8462 0.282985 0.756059 47
-2.72447 0.77566 0.442124 53
-2.85701 0.289526 0.550943 49
-2.75002 0.782442 0.247087 90
-2.86334 0.293654 0.348659 49
-2.75249 0.784186 0.0493467 21
-2.88539 0.297895 0.150204 49
-0.631728 0.178988 -0.0326876 58
-0.628319 0.0688462 -0.0104278 3
-0.780734 0.221835 -0.0952272 49
-0.64102 0.070153 -0.0532764 90
-0.80079 0.227867 -0.154754 50
-0.788161 0.084625 -0.120196 58
-0.781355 0.223019 -0.208214 47
-0.766029 0.0816165 -0.169581 53
-2.70499 0.786453 0.641264 50
-2.83983 0.297885 0.754767 47
-2.72023 0.79039 0.442124 52
-2.85546 0.304482 0.550943 49
-2.74096 0.795918 0.246651 175
-2.85924 0.308879 0.348355 49
-2.75075 0.799286 0.0493903 30
-2.87132 0.312173 0.14955 47
-0.625988 0.180897 -0.0324251 59
-0.630422 0.0725116 -0.0104714 4
-0.779522 0.226055 -0.0952272 47
-0.64312 0.0737739 -0.0534938 90
-0.799546 0.232196 -0.154754 49
-0.790147 0.0891501 -0.120587 58
-0.767999 0.0860158 -0.170143 52
-2.69908 0.789331 0.640141 50
-2.8345 0.302337 0.753475 47
-2.71648 0.794442 0.441734 50
-2.85492 0.309465 0.550943 50
-2.74435 0.8021 0.247087 110
-2.85623 0.313603 0.348051 53
-2.75175 0.804789 0.0494339 38
-2.87077 0.317184 0.14955 49
-0.625672 0.18199 -0.0324251 58
-0.635265 0.0741543 -0.0105587 3
-0.783888 0.228814 -0.0958357 47
-0.640514 0.0746264 -0.0532764 90
-0.792444 0.0907953 -0.120979 58
-0.767847 0.0873561 -0.170143 52
-2.69944 0.805318 0.641264 50
-2.83528 0.317439 0.754121 47
-2.71228 0.808654 0.441734 52
-2.85326 0.324409 0.550943 50
-2.72818 0.812897 0.245997 58
-2.85208 0.328274 0.347747 55
-2.7451 0.81847 0.0493903 47
-2.87403 0.332777 0.149812 52
-0.627102 0.185978 -0.0325564 58
-0.639834 0.0780481 -0.010646 3
-0.647538 0.0788274 -0.0539288 90
-0.789521 0.0945263 -0.120587 58
-0.772221 0.0919209 -0.171266 53
-2.69817 0.809558 0.641264 49
-2.83472 0.322387 0.754121 47
-2.71101 0.812914 0.441734 56
-2.84538 0.328556 0.549513 49
-2.72437 0.816941 0.245779 55
-2.8565 0.33332 0.348355 59
-2.87102 0.337004 0.149681 52
-0.626777 0.187072 -0.0325564 58
-0.64218 0.0794533 -0.0106896 3
-0.644925 0.0796704 -0.0537113 90
-0.789355 0.0959042 -0.120587 58
-0.772076 0.0931338 -0.171266 52
-2.69855 0.825101 0.642387 49
-2.83305 0.33673 0.754121 49
-2.70908 0.82782 0.442124 56
-2.84612 0.343243 0.54999 52
-2.72973 0.833634 0.246651 53
-2.85471 0.348272 0.348355 61
-2.86922 0.352032 0.149681 52
-0.628176 0.191083 -0.0326876 58
-0.644251 0.0830038 -0.0107332 3
-0.644499 0.0830461 -0.0537113 90
-0.786391 0.0997401 -0.120196 58
-0.771577 0.0971751 -0.171266 52
-2.70176 0.831245 0.64351 49
-2.83006 0.341389 0.753475 49
-2.70527 0.83182 0.441734 50
-2.83814 0.347824 0.54856 49
-2.71875 0.835466 0.245779 55
-2.85656 0.353555 0.348659 59
-2.85869 0.355823 0.149157 49
-0.630227 0.192915 -0.0328189 58
-0.641624 0.0838226 -0.0106896 3
-0.63941 0.0835621 -0.0532764 90
-0.788666 0.101413 -0.120587 58
-0.771407 0.0985216 -0.171266 52
-2.69723 0.84585 0.64351 49
-2.82578 0.356398 0.752828 49
-2.70073 0.846445 0.441734 49
-2.84115 0.363293 0.549513 50
-2.71181 0.849418 0.245561 97
-2.84722 0.368063 0.347747 55
-2.8592 0.371602 0.149288 49
-0.626826 0.195464 -0.0326876 58
-0.643641 0.0876118 -0.0107332 3
-0.641434 0.0872262 -0.0534938 90
-0.788125 0.105541 -0.120587 56
-0.768446 0.102387 -0.170704 52
-2.6959 0.850086 0.64351 52
-2.82515 0.36133 0.752828 50
-2.70175 0.85143 0.442124 47
-2.84051 0.368252 0.549513 50
-2.7127 0.854899 0.245779 102
-2.84418 0.372217 0.347442 50
-2.85861 0.376093 0.149288 49
-0.626484 0.196558 -0.0326876 58
-0.650923 0.0897047 -0.0108641 3
-0.64375 0.0886672 -0.0537113 90
-0.790388 0.107233 -0.120979 56
-0.765868 0.103284 -0.170143 52
-2.69605 0.865682 0.644633 53
-2.82089 0.37531 0.752182 50
-2.70196 0.867076 0.442904 47
-2.84105 0.382948 0.54999 50
-2.71071 0.86938 0.245997 55
-2.84219 0.387104 0.347442 49
-2.85413 0.390721 0.149157 47
-0.62307 0.19907 -0.0325564 58
-0.655414 0.0936697 -0.0109514 3
-0.640809 0.0917021 -0.0534938 90
-0.789816 0.11137 -0.120979 56
-2.68989 0.868886 0.64351 50
-2.82023 0.380233 0.752182 50
-2.70749 0.87407 0.444075 49
-2.84274 0.38873 0.550466 50
-2.83905 0.391729 0.347138 49
-2.85097 0.395363 0.149027 47
-0.625097 0.200926 -0.0326876 56
-0.660203 0.0954937 -0.0110386 3
-0.643116 0.0931592 -0.0537113 90
-0.792066 0.113083 -0.12137 58
-2.68053 0.881902 0.642387 49
-2.81813 0.395486 0.752182 49
-2.70037 0.887933 0.443685 50
-2.83337 0.402586 0.549036 49
-2.83935 0.407432 0.347442 49
-2.84632 0.41043 0.148896 45
-0.619294 0.202634 -0.0324251 56
-0.640153 0.0961735 -0.0534938 90
-0.788999 0.117019 -0.120979 58
-0.771766 0.113787 -0.171827 52
-2.67914 0.886112 0.642387 47
-2.81983 0.40074 0.752828 47
-2.70116 0.893421 0.444075 55
-2.83024 0.407185 0.54856 47
-2.83618 0.412035 0.347138 47
-0.623679 0.205286 -0.0326876 58
-0.639985 0.0972906 -0.0534938 90
-0.788793 0.118396 -0.120979 56
