# .PCD v0.7 - Point Cloud Data file format
VERSION 0.7
FIELDS x y z intensity
SIZE 4 4 4 4
TYPE F F F F
COUNT 1 1 1 1
WIDTH 1640
HEIGHT 1
VIEWPOINT 0 0 0 1 0 0 0
POINTS 1640
DATA ascii
3.47302 -1.09884 0.96543 61
3.44289 -1.81518 0.60953 61
3.4777 -1.10693 0.702023 62
3.44375 -1.81489 0.337511 61
3.47187 -1.11039 0.44267 61
2.96649 -0.951749 0.161456 49
2.21948 -1.17012 -0.130094 59
2.96974 -0.953923 -0.0538407 49
2.21658 -1.17006 -0.303023 59
2.81686 -0.904544 -0.255292 8
2.23129 -1.17883 -0.482832 73
3.49212 -1.11819 -0.575922 59
2.06509 -1.09273 -0.616235 14
2.25121 -0.720094 -0.53682 14
3.43905 -1.82082 0.888898 59
3.4757 -1.10636 0.966722 61
3.44626 -1.82466 0.610701 61
3.48044 -1.11449 0.702976 61
3.43838 -1.81973 0.337293 62
2.97195 -0.959215 0.161849 50
2.22405 -1.1775 -0.130488 80
2.96807 -0.959104 -0.0538407 50
2.22549 -1.17975 -0.304545 74
2.81765 -0.910221 -0.255509 8
2.22923 -1.18272 -0.482832 80
2.04826 -1.08839 -0.611708 15
2.24067 -0.721056 -0.534574 14
3.43559 -1.84286 0.890582 59
3.47216 -1.12528 0.967368 59
3.43883 -1.84385 0.611091 61
3.48389 -1.13573 0.704883 64
3.431 -1.83888 0.337511 62
2.96926 -0.975538 0.16198 53
2.22225 -1.19149 -0.130751 90
2.96063 -0.973855 -0.053797 52
2.22366 -1.19373 -0.305153 74
2.81995 -0.927284 -0.256162 8
2.223 -1.19438 -0.482832 44
2.03615 -1.09566 -0.609768 14
2.23223 -0.731271 -0.533451 14
3.43912 -1.85172 0.892267 59
3.47249 -1.13208 0.968015 61
3.4443 -1.85453 0.612652 61
3.48423 -1.14257 0.705359 64
3.41244 -1.8366 0.335985 47
2.98813 -0.98519 0.381517 33
2.96756 -0.980719 0.16198 47
2.22017 -1.19536 -0.130751 58
2.95418 -0.977457 -0.0537098 53
2.21065 -1.19172 -0.303632 36
2.82779 -0.935318 -0.257031 8
2.2058 -1.19009 -0.479499 30
2.01512 -1.08887 -0.603949 14
2.21938 -0.731377 -0.530643 14
3.43942 -1.87674 0.895074 61
3.47549 -1.15389 0.970599 61
3.44072 -1.87669 0.613823 61
3.47567 -1.16063 0.704883 64
3.41557 -1.8622 0.337293 47
2.93333 -0.984834 0.375128 12
2.97168 -0.999931 0.162503 53
2.19614 -1.19779 -0.1297 29
2.94885 -0.993426 -0.0537098 55
2.18675 -1.19414 -0.301198 26
2.82268 -0.950604 -0.257031 8
2.18211 -1.19258 -0.47569 29
1.9965 -1.09279 -0.600069 14
2.20845 -0.741064 -0.528959 14
3.43433 -1.88097 0.894513 59
3.47347 -1.15995 0.970599 61
3.43994 -1.88328 0.614213 58
3.48295 -1.16981 0.706789 64
3.42323 -1.87414 0.338382 55
2.91061 -0.982332 0.37239 15
2.96774 -1.0038 0.162372 53
2.18091 -1.19441 -0.128913 26
2.94948 -0.99937 -0.0537534 55
2.16747 -1.18802 -0.298764 26
2.81866 -0.954734 -0.256814 8
2.16927 -1.19048 -0.473309 27
2.19343 -0.739889 -0.52559 14
3.43082 -1.90247 0.896198 61
3.46984 -1.17829 0.971246 61
3.43651 -1.90486 0.615384 59
3.48163 -1.189 0.707742 62
3.43548 -1.90352 0.340561 62
2.89603 -0.99435 0.371173 18
2.15935 -1.19733 -0.127994 24
2.94438 -1.01429 -0.0537534 55
2.15471 -1.19574 -0.297851 26
2.81598 -0.970287 -0.257031 8
2.1482 -1.19309 -0.469976 27
2.1803 -0.74822 -0.523343 14
3.43814 -1.91439 0.899005 61
3.46778 -1.18434 0.971246 61
3.43965 -1.91446 0.616554 59
3.48399 -1.19727 0.708696 65
3.44303 -1.91557 0.341651 61
2.88725 -0.996984 0.37026 15
2.14417 -1.19381 -0.127206 24
2.93788 -1.01779 -0.0536661 55
2.13096 -1.18741 -0.294809 24
2.82134 -0.977635 -0.257684 8
2.12897 -1.18727 -0.466166 27
2.23768 -0.77472 -0.369984 14
2.16286 -0.746495 -0.519413 14
3.43197 -1.93536 0.900128 61
3.4636 -1.20388 0.971892 61
3.43569 -1.93668 0.617725 59
3.47767 -1.2155 0.708696 64
3.43913 -1.93784 0.342304 59
2.88416 -1.01341 0.370565 20
2.12702 -1.19888 -0.12655 24
2.93705 -1.03533 -0.0537534 53
2.12018 -1.19648 -0.2942 24
2.81619 -0.992394 -0.257684 8
2.10756 -1.19031 -0.462833 27
2.21961 -0.781534 -0.367635 12
2.14269 -0.75257 -0.515482 14
3.43741 -1.94555 0.902374 61
3.46378 -1.21072 0.972538 61
3.43694 -1.94451 0.618505 59
3.48018 -1.22318 0.709649 65
3.44441 -1.94875 0.343176 61
2.8732 -1.01465 0.369348 21
2.1119 -1.19521 -0.125762 24
2.94231 -1.04295 -0.0538843 53
2.09887 -1.18879 -0.291462 24
2.8074 -0.994823 -0.257031 8
2.08841 -1.18429 -0.459024 27
2.21359 -0.783768 -0.366852 12
2.12771 -0.751099 -0.512113 14
3.4314 -1.96594 0.903497 61
3.46216 -1.22984 0.97383 62
3.43528 -1.96739 0.620066 59
3.47857 -1.24243 0.710602 64
3.44098 -1.96987 0.343829 59
2.86551 -1.02884 0.369043 20
2.09478 -1.20004 -0.125106 24
2.93934 -1.05867 -0.0539279 53
2.07971 -1.19235 -0.289637 24
2.07175 -1.18873 -0.456643 29
2.20015 -0.792022 -0.365285 12
2.10768 -0.756503 -0.508182 14
3.42796 -1.97193 0.903497 59
3.46228 -1.23669 0.974477 59
3.43827 -1.97708 0.621237 59
3.47849 -1.24993 0.711078 64
3.44402 -1.9796 0.344483 61
2.8497 -1.02881 0.367218 15
1.83548 -1.05513 0.0363446 64
2.07538 -1.19372 -0.124055 24
2.93749 -1.0638 -0.0539279 53
2.06472 -1.18854 -0.287811 24
2.05904 -1.18622 -0.454262 29
2.19412 -0.794189 -0.364502 12
2.0926 -0.755248 -0.504813 14
3.42356 -1.99413 0.905182 61
3.45781 -1.25623 0.975123 61
3.43179 -1.99814 0.622017 58
3.4742 -1.26897 0.711555 62
3.43756 -2.00071 0.344919 61
2.8371 -1.04166 0.366305 27
1.82561 -1.06221 0.0362574 59
2.05831 -1.19829 -0.123399 24
2.93639 -1.0814 -0.0540152 55
2.0454 -1.19219 -0.285986 26
2.03776 -1.18867 -0.450929 29
2.18066 -0.802276 -0.362936 12
2.08391 -0.764891 -0.50369 15
3.43304 -2.00688 0.908551 61
3.46015 -1.26391 0.976415 61
3.43291 -2.00602 0.622798 59
3.47889 -1.27756 0.712985 65
3.44051 -2.01048 0.345573 59
2.83779 -1.04697 0.36661 18
1.82807 -1.06791 0.0363446 61
2.03467 -1.18927 -0.122086 26
2.93684 -1.08739 -0.0540588 53
2.03068 -1.18788 -0.28416 26
2.02298 -1.18478 -0.448072 29
2.16535 -0.80097 -0.360587 12
2.07584 -0.765649 -0.502005 15
3.42038 -2.02359 0.90799 59
3.46277 -1.28476 0.979 59
3.42448 -2.02522 0.623188 59
3.48389 -1.29942 0.715368 65
3.43458 -2.0304 0.346008 59
2.86482 -1.07396 0.370869 21
2.01338 -1.191 -0.121167 24
2.93598 -1.10399 -0.0541461 52
2.00736 -1.18837 -0.281727 26
2.00007 -1.18499 -0.444263 29
2.14725 -0.807113 -0.358238 12
2.06952 -0.775658 -0.501444 29
3.42732 -2.03578 0.910797 59
3.46052 -1.2908 0.979 61
3.43155 -2.0375 0.625139 59
3.47909 -1.30525 0.714891 64
3.44388 -2.04403 0.347316 61
2.86061 -1.07808 0.370565 26
2.00272 -1.18941 -0.120642 24
2.92937 -1.10735 -0.0540588 49
1.99888 -1.18806 -0.280814 26
1.99167 -1.18471 -0.442834 29
2.12503 -0.803048 -0.354715 12
2.07272 -0.780976 -0.502567 52
3.42043 -2.05681 0.91192 59
3.46479 -1.31377 0.982231 61
3.4226 -2.05731 0.625529 59
3.4722 -1.32345 0.714891 64
3.4349 -2.06391 0.347534 61
2.86865 -1.09885 0.37239 17
1.98791 -1.19473 -0.120117 26
2.93735 -1.12854 -0.0543206 49
1.97117 -1.18605 -0.277771 26
1.96632 -1.18406 -0.438549 30
2.13464 -0.819444 -0.357064 14
2.06619 -0.791313 -0.502005 33
3.42345 -2.06595 0.913605 59
3.46023 -1.31896 0.981585 61
3.43204 -2.07034 0.627871 58
3.4676 -1.32863 0.714415 64
3.43769 -2.07377 0.348187 61
1.973 -1.19045 -0.11933 26
2.9377 -1.13456 -0.0543642 45
1.96081 -1.18401 -0.276554 27
1.95795 -1.18368 -0.43712 32
2.11245 -0.815212 -0.35354 12
2.06495 -0.794558 -0.502005 15
3.41882 -2.08766 0.915289 61
3.46027 -1.33906 0.983523 61
3.42116 -2.08828 0.627871 59
3.47227 -1.3506 0.716798 62
3.42715 -2.09114 0.348187 61
1.95416 -1.19261 -0.118542 26
2.93192 -1.14942 -0.0543642 39
1.94612 -1.18908 -0.275337 27
1.9331 -1.18204 -0.432835 32
2.11966 -0.830742 -0.355498 12
1.93064 -1.18237 -0.596836 50
2.06303 -0.80624 -0.502567 15
3.43007 -2.10195 0.91922 61
3.45793 -1.3451 0.983523 59
3.43014 -2.102 0.630212 62
3.46991 -1.35666 0.716798 64
3.43623 -2.10493 0.349495 65
3.47156 -1.36285 0.453014 64
2.45752 -1.50553 0.0496957 18
1.94357 -1.19079 -0.118017 27
1.94193 -1.19118 -0.275033 27
2.132 -0.839841 -0.357847 14
1.92035 -1.18067 -0.594249 44
2.05027 -0.805411 -0.499759 17
3.41865 -2.12047 0.91922 62
3.45983 -1.36672 0.986108 59
3.42538 -2.12384 0.631383 67
3.47188 -1.37842 0.718704 62
3.42517 -2.12289 0.349495 67
3.46668 -1.38192 0.453318 61
2.45173 -1.51969 0.0497394 15
2.39879 -0.959742 0.133588 3
1.92225 -1.19207 -0.117098 26
1.9188 -1.19085 -0.272599 27
2.22381 -0.891017 -0.206147 17
2.12987 -0.851905 -0.358238 14
1.90185 -1.18305 -0.59037 38
2.04829 -0.817033 -0.500321 18
3.43148 -2.13674 0.923712 71
3.45968 -1.37365 0.986754 61
3.43005 -2.13503 0.632944 70
3.46695 -1.38417 0.718227 64
3.43837 -2.1394 0.351238 79
3.46657 -1.38889 0.453622 64
2.38784 -0.960219 0.133064 3
1.91381 -1.19146 -0.116704 27
2.21634 -0.892516 -0.0411004 35
1.90619 -1.18763 -0.271078 26
2.22456 -0.895823 -0.206364 47
2.13755 -0.859285 -0.359804 35
2.04007 -0.817902 -0.498636 20
3.41987 -2.15528 0.923712 64
3.45892 -1.39505 0.988693 59
3.41636 -2.15224 0.632553 42
3.46648 -1.40506 0.719657 64
3.41832 -2.15266 0.350366 41
3.4613 -1.40856 0.453926 64
2.39417 -0.977822 0.133718 3
1.89699 -1.19481 -0.116048 26
2.21611 -0.906378 -0.0411877 47
1.88505 -1.18866 -0.268948 27
2.22446 -0.909334 -0.206799 47
2.12845 -0.86861 -0.359021 38
2.04917 -0.834411 -0.502005 20
3.3959 -2.14762 0.918097 24
3.45648 -1.40108 0.988693 59
3.38167 -2.1378 0.6267 24
3.4663 -1.41203 0.720134 61
3.3893 -2.14264 0.347751 23
3.46368 -1.41587 0.454535 64
2.38339 -0.977809 0.133195 3
2.21684 -0.91119 -0.0412313 47
2.22517 -0.914157 -0.207017 49
2.12236 -0.870459 -0.358238 15
2.0456 -0.836711 -0.501444 21
3.36204 -2.15092 0.91192 18
3.45828 -1.42222 0.991278 59
3.36211 -2.15016 0.625139 20
3.46592 -1.43236 0.721564 62
3.36372 -2.15037 0.346226 21
3.45851 -1.43493 0.454839 62
2.38285 -0.992185 0.133457 2
2.21682 -0.924314 -0.0413186 47
2.22266 -0.926749 -0.207234 47
2.04794 -0.850198 -0.503128 35
3.34598 -2.14888 0.908551 18
3.4558 -1.42826 0.991278 59
3.33966 -2.14401 0.621627 20
3.46769 -1.44089 0.722517 62
3.3432 -2.14547 0.344483 20
3.46058 -1.44287 0.455448 62
2.3765 -0.994424 0.133195 2
2.21751 -0.929143 -0.0413622 45
2.22104 -0.930627 -0.207234 47
3.31185 -2.15234 0.902374 39
3.4547 -1.44973 0.993217 59
3.31766 -2.15532 0.619676 45
3.46236 -1.45998 0.722993 64
3.3211 -2.15675 0.343394 35
3.4573 -1.4635 0.456056 62
2.38029 -1.01115 0.133718 2
2.20554 -0.938205 -0.0412313 36
2.22301 -0.945153 -0.207887 47
3.30846 -2.15754 0.902374 8
3.45217 -1.45576 0.993217 56
3.3263 -2.1692 0.622017 2
3.46433 -1.46793 0.723947 64
3.32151 -2.16526 0.343829 9
3.45474 -1.46953 0.456056 59
2.2131 -0.945965 -0.0414058 29
2.07178 -1.35252 -0.299068 47
2.22595 -0.950979 -0.208322 47
3.12722 -2.04395 -0.718058 12
3.29712 -2.17484 0.902374 2
3.45809 -1.47889 0.997094 58
3.3194 -2.18873 0.622798 4
3.46363 -1.48834 0.725376 65
3.31674 -2.18616 0.344483 11
3.45866 -1.4919 0.457577 64
2.07154 -1.36635 -0.12865 47
2.21058 -0.958144 -0.0414495 44
2.07319 -1.36847 -0.300285 47
2.22094 -0.962621 -0.208322 45
3.1066 -2.05298 -0.715677 12
3.29535 -2.18193 0.902936 2
3.45328 -1.48397 0.996448 58
3.30116 -2.18497 0.620066 3
3.46753 -1.4979 0.726806 64
3.31292 -2.19194 0.344483 3
3.4606 -1.4999 0.458186 61
2.07332 -1.37272 -0.128913 47
2.21808 -0.965974 -0.041624 45
2.077 -1.3762 -0.301198 47
2.22382 -0.968476 -0.208756 45
3.11119 -2.06383 -0.717582 12
2.22831 -0.968606 -0.379772 47
3.27742 -2.19566 0.901251 9
3.45406 -1.50649 0.999032 58
3.28724 -2.20143 0.619676 9
3.46413 -1.518 0.727759 67
3.30515 -2.21261 0.344919 8
3.45698 -1.52059 0.458794 64
2.07232 -1.38773 -0.129306 47
2.21511 -0.978967 -0.0416676 45
2.07159 -1.3888 -0.301502 47
2.22328 -0.98211 -0.209191 45
3.10405 -2.08337 -0.718534 12
2.22774 -0.982243 -0.380555 47
2.22817 -0.98016 -0.553104 45
3.30429 -2.2212 0.909674 2
3.45585 -1.51444 1.00032 58
3.30222 -2.21899 0.623188 3
3.46148 -1.52405 0.727759 61
3.33848 -2.24339 0.348841 1
3.45686 -1.52702 0.459099 64
2.07197 -1.39274 -0.129438 47
2.21797 -0.984852 -0.0417549 45
2.07969 -1.39898 -0.303023 45
2.22384 -0.986995 -0.209409 47
3.10652 -2.0929 -0.719963 12
2.22828 -0.987125 -0.380946 47
2.2244 -0.982679 -0.552543 45
3.32686 -2.26177 0.91922 2
3.45477 -1.53485 1.00226 58
3.31914 -2.25569 0.628651 2
3.46269 -1.54554 0.729666 61
3.31679 -2.25326 0.347751 3
3.45788 -1.54915 0.460316 64
2.0729 -1.40918 -0.129963 47
2.21524 -0.997087 -0.0417985 45
2.07644 -1.41264 -0.303632 45
2.22319 -1.00066 -0.209844 47
3.10602 -2.11551 -0.722344 14
2.22759 -1.00079 -0.381729 47
2.2259 -0.997287 -0.554227 47
3.31486 -2.26208 0.916974 15
3.45429 -1.54186 1.00291 59
3.32132 -2.26566 0.629822 15
3.4642 -1.55418 0.730619 64
3.38485 -2.30818 0.355378 23
3.45744 -1.5562 0.46062 65
2.07663 -1.41703 -0.130357 45
2.22033 -1.00403 -0.0419294 45
2.07397 -1.41627 -0.303632 44
2.22371 -1.00556 -0.210061 47
3.08612 -2.10984 -0.718534 15
2.22584 -1.00468 -0.381729 47
2.2286 -1.00316 -0.55535 47
3.39276 -2.34229 0.942243 15
3.4503 -1.56251 1.0042 61
3.33543 -2.30184 0.634895 15
3.45154 -1.57027 0.729666 68
3.4133 -2.35476 0.359735 18
3.45574 -1.57796 0.461532 64
2.07329 -1.43072 -0.130619 45
2.21259 -1.01499 -0.0418858 45
2.07444 -1.43311 -0.304849 44
2.22068 -1.01822 -0.210279 47
3.06054 -2.11673 -0.715201 15
2.22504 -1.01837 -0.382512 45
2.28812 -1.58442 -0.735861 9
2.22314 -1.0152 -0.55535 47
3.39108 -2.34901 0.942804 12
3.45416 -1.57152 1.00614 67
3.31354 -2.29442 0.631383 12
3.45996 -1.58138 0.732049 64
3.37643 -2.33801 0.356249 12
3.44649 -1.5803 0.46062 50
2.07489 -1.43718 -0.130882 45
2.21536 -1.02093 -0.041973 45
2.08034 -1.44203 -0.306066 45
2.22569 -1.02521 -0.210931 45
3.05482 -2.12066 -0.714725 15
2.23 -1.02533 -0.383687 45
2.28138 -1.58565 -0.734567 8
2.22597 -1.02072 -0.556474 45
3.37475 -2.36393 0.941681 11
3.43958 -1.58596 1.0042 44
3.28126 -2.29756 0.627481 14
3.44746 -1.59682 0.731095 39
3.41963 -2.39365 0.362132 17
3.44492 -1.60145 0.461532 56
2.07347 -1.45232 -0.131276 45
2.21244 -1.03319 -0.0420167 45
2.07886 -1.45718 -0.306978 45
2.22256 -1.0379 -0.211148 45
3.032 -2.12764 -0.711868 15
2.22684 -1.03803 -0.384078 45
2.22502 -1.0344 -0.557597 45
3.38655 -2.38104 0.946174 11
3.44119 -1.59399 1.00549 50
3.26109 -2.29192 0.624359 27
3.45329 -1.60757 0.733002 52
3.45112 -1.61165 0.462749 61
1.68527 -1.18406 0.0353411 35
2.07501 -1.45881 -0.131538 45
2.21742 -1.04022 -0.0421476 45
2.08037 -1.46366 -0.307587 45
2.22751 -1.04494 -0.211801 45
3.02427 -2.1301 -0.710916 18
2.22726 -1.04296 -0.38447 47
2.22763 -1.04034 -0.55872 47
3.37958 -2.40356 0.947858 11
3.44783 -1.61975 1.01002 59
3.24864 -2.30953 0.624359 32
3.45371 -1.6298 0.734908 59
3.44908 -1.63347 0.463662 56
1.67294 -1.18852 0.0352102 35
2.07141 -1.47255 -0.131801 45
2.21628 -1.05434 -0.0422348 45
2.07444 -1.47634 -0.307891 47
2.22426 -1.05765 -0.212018 45
2.22623 -1.05672 -0.385253 47
2.22197 -1.05238 -0.55872 47
3.38769 -2.41736 0.951227 11
3.445 -1.62577 1.01002 58
3.38369 -2.41362 0.651284 11
3.45974 -1.64002 0.736815 58
3.44875 -1.63995 0.463966 50
1.66883 -1.18998 0.0351666 35
2.07493 -1.48052 -0.132195 45
2.21444 -1.0582 -0.0422348 45
2.07817 -1.48392 -0.308804 47
2.22241 -1.06153 -0.212018 45
2.22885 -1.06272 -0.386036 45
2.22031 -1.05587 -0.55872 45
3.37696 -2.43649 0.951789 11
3.44327 -1.6463 1.01196 58
3.371 -2.43131 0.651284 11
3.45139 -1.65751 0.736815 50
3.45354 -1.66444 0.465792 59
1.65468 -1.19256 0.0349921 35
2.06918 -1.49283 -0.132326 44
2.21581 -1.07265 -0.0423657 45
2.2258 -1.07748 -0.212888 45
2.2277 -1.07651 -0.386819 45
1.78535 -1.29158 -0.58067 36
2.21915 -1.06958 -0.559843 47
3.38257 -2.44953 0.954596 11
3.44257 -1.65335 1.0126 58
3.38875 -2.45312 0.655577 11
3.45926 -1.66945 0.739197 55
3.44393 -1.66722 0.464879 59
1.65441 -1.1972 0.0350357 33
2.07263 -1.50083 -0.13272 44
2.21168 -1.07543 -0.0423221 44
2.22391 -1.08136 -0.212888 45
2.22582 -1.0804 -0.386819 45
1.78092 -1.29359 -0.580024 35
2.21728 -1.07345 -0.559843 45
3.37909 -2.475 0.957404 11
3.44226 -1.67617 1.01519 58
3.38539 -2.47872 0.657528 11
3.45047 -1.68754 0.739197 59
3.45046 -1.69347 0.467009 58
1.64207 -1.20142 0.0349048 32
2.0728 -1.51757 -0.133245 44
2.21481 -1.09178 -0.0424966 45
2.22493 -1.09628 -0.21354 45
2.229 -1.09638 -0.388385 45
2.22019 -1.08971 -0.562089 45
3.3752 -2.4803 0.957404 11
3.44367 -1.68429 1.01648 56
3.38746 -2.48842 0.658698 11
3.45413 -1.6968 0.740627 59
3.44334 -1.6967 0.4664 58
1.64198 -1.20576 0.0349484 32
2.07015 -1.52118 -0.133245 44
2.21739 -1.09786 -0.0425839 44
2.22525 -1.10126 -0.213758 45
2.2293 -1.10136 -0.388776 45
2.22067 -1.09427 -0.56265 45
3.36607 -2.50085 0.958527 11
3.44376 -1.70598 1.01906 56
3.37835 -2.50907 0.659479 11
3.4521 -1.71753 0.742057 61
3.43885 -1.71691 0.467009 58
2.06616 -1.53498 -0.133507 44
2.21851 -1.11241 -0.0427148 44
2.22836 -1.11735 -0.214628 45
2.22793 -1.11522 -0.38956 45
1.71294 -1.27595 -0.562565 41
2.22582 -1.1113 -0.565458 47
3.37342 -2.51546 0.961896 11
3.44295 -1.71306 1.01971 56
3.38584 -2.52382 0.66182 11
3.45099 -1.72525 0.742534 61
3.44029 -1.72513 0.467617 58
3.45769 -1.73683 0.20097 53
2.07348 -1.54605 -0.134164 44
2.2121 -1.11404 -0.0426275 44
2.22418 -1.12012 -0.21441 44
2.23039 -1.12131 -0.390343 45
1.72016 -1.28648 -0.565798 49
2.22169 -1.1141 -0.564896 45
3.36559 -2.53808 0.963581 11
3.44226 -1.736 1.0223 58
3.37213 -2.5421 0.66182 11
3.45067 -1.74772 0.74444 61
3.43976 -1.74821 0.468834 58
3.44824 -1.75551 0.20097 53
2.06337 -1.55538 -0.134032 44
2.21272 -1.12939 -0.0427584 39
2.22717 -1.13626 -0.21528 45
1.66929 -1.26026 -0.399027 23
2.2289 -1.13521 -0.391126 45
1.70955 -1.29255 -0.564505 42
2.22433 -1.1305 -0.567143 47
3.36743 -2.54777 0.965265 11
3.44138 -1.74309 1.02294 58
3.37995 -2.55634 0.664162 11
3.4498 -1.75485 0.744917 59
1.57568 -1.19081 0.169736 44
3.44143 -1.75586 0.469443 58
3.43881 -1.75753 0.200578 44
2.06861 -1.56501 -0.134558 45
2.20852 -1.13212 -0.0427148 24
2.22297 -1.13901 -0.215063 45
1.66709 -1.26318 -0.399027 32
2.22911 -1.14022 -0.391517 45
1.70536 -1.29407 -0.563858 38
2.22038 -1.13289 -0.566581 45
3.36178 -2.57129 0.967512 11
3.43896 -1.76379 1.02488 58
3.37436 -2.58 0.665723 11
3.44524 -1.77453 0.74587 59
1.56766 -1.19725 0.169518 44
3.44322 -1.77954 0.470964 61
3.44509 -1.78352 0.201493 49
2.21387 -1.14902 -0.0429329 38
1.62011 -1.2396 -0.245826 18
2.22602 -1.15482 -0.215932 45
1.65093 -1.26413 -0.396646 29
2.22531 -1.15301 -0.391909 47
1.69305 -1.29827 -0.561918 36
2.22091 -1.14784 -0.568266 47
3.3674 -2.58399 0.970319 11
3.44447 -1.7742 1.02747 58
3.37181 -2.58739 0.666113 11
3.4465 -1.78279 0.746823 59
1.55569 -1.1924 0.168428 45
3.44892 -1.7901 0.472181 59
3.45305 -1.79528 0.202148 58
2.21408 -1.15403 -0.0429765 49
1.61007 -1.23638 -0.244609 17
2.22843 -1.161 -0.216367 49
1.64873 -1.26701 -0.396646 26
2.22548 -1.15802 -0.3923 47
1.69652 -1.30565 -0.563858 38
2.22756 -1.15619 -0.570512 50
3.35722 -2.60516 0.971442 11
3.43942 -1.79444 1.02876 58
3.37773 -2.62015 0.670015 11
3.44582 -1.80536 0.748729 59
1.54745 -1.19901 0.168211 47
3.4373 -1.80699 0.471877 58
3.44139 -1.81217 0.202017 58
2.21685 -1.17026 -0.0431511 53
1.59378 -1.23717 -0.243088 15
2.22673 -1.17496 -0.216802 55
1.63626 -1.2711 -0.395218 30
2.22595 -1.1731 -0.393475 56
1.68966 -1.31451 -0.563858 36
2.22796 -1.17123 -0.572196 58
3.3685 -2.6224 0.975934 11
3.4427 -1.80379 1.0307 56
3.37899 -2.6306 0.671186 11
3.44919 -1.81479 0.750159 59
1.53946 -1.19712 0.167557 45
3.44513 -1.81876 0.473398 59
2.22365 -1.17879 -0.0433256 76
1.58575 -1.23538 -0.242175 15
2.22908 -1.18117 -0.217237 67
1.63404 -1.27396 -0.395218 33
2.23045 -1.18044 -0.394649 61
1.68546 -1.31597 -0.563211 36
2.22806 -1.17624 -0.572758 64
3.36528 -2.65022 0.979304 11
3.43716 -1.82465 1.03199 56
3.36277 -2.64731 0.670796 11
3.44582 -1.83688 0.751589 59
1.53296 -1.20543 0.167557 47
3.43742 -1.83854 0.473702 58
2.21944 -1.19198 -0.0433692 86
1.57514 -1.24086 -0.241567 15
2.22705 -1.19556 -0.217672 59
1.62905 -1.2843 -0.395694 35
2.21988 -1.18977 -0.393866 50
1.68021 -1.32657 -0.563858 36
2.21307 -1.1837 -0.570512 42
3.36684 -2.66004 0.980988 11
3.44037 -1.83405 1.03393 56
3.44694 -1.8452 0.752542 59
1.5289 -1.20656 0.167339 47
3.44109 -1.84745 0.474615 59
1.47339 -1.16352 -0.0968814 11
2.21296 -1.19349 -0.043282 52
1.56347 -1.23564 -0.240046 15
2.2096 -1.1912 -0.21615 32
1.62873 -1.28867 -0.39617 36
2.20474 -1.18665 -0.391517 24
2.19831 -1.18029 -0.567143 23
3.36619 -2.68828 0.984919 11
3.43742 -1.85487 1.03587 56
3.44187 -1.86496 0.753495 59
1.51889 -1.21117 0.166903 47
3.43792 -1.86899 0.475528 59
3.44428 -1.87553 0.203718 59
1.47508 -1.17745 -0.0974065 8
2.18273 -1.19155 -0.042802 23
1.54729 -1.23605 -0.238524 15
2.18582 -1.19324 -0.21441 21
1.62601 -1.29996 -0.397122 29
2.17897 -1.18758 -0.387993 20
2.17496 -1.18251 -0.56265 21
3.3691 -2.70024 0.987165 11
3.44056 -1.86431 1.0378 56
3.44907 -1.87742 0.755878 59
1.51094 -1.20915 0.16625 47
3.44119 -1.87855 0.47644 58
3.44757 -1.88513 0.20411 59
2.16967 -1.18937 -0.0425839 20
1.53545 -1.23099 -0.237003 15
2.16843 -1.18871 -0.212888 20
2.15738 -1.18075 -0.38447 20
2.16219 -1.18049 -0.559843 21
3.35822 -2.7215 0.988288 11
3.43254 -1.88406 1.03845 55
3.44565 -1.899 0.757308 59
1.50244 -1.21574 0.166032 45
3.43532 -1.89954 0.477049 59
3.44607 -1.90858 0.204634 59
2.15008 -1.19384 -0.0423221 20
2.14474 -1.19041 -0.211148 20
2.14035 -1.18607 -0.382512 20
2.14297 -1.18512 -0.556474 21
3.36339 -2.73446 0.991096 11
3.43559 -1.89354 1.04039 56
3.44447 -1.90619 0.757785 58
1.49645 -1.21522 0.165596 41
3.44102 -1.90974 0.478266 58
3.44743 -1.91641 0.204895 59
2.12832 -1.18667 -0.0419294 20
2.12959 -1.1869 -0.209844 20
2.12964 -1.18502 -0.380946 20
2.12191 -1.17788 -0.55142 21
3.35467 -2.75668 0.99278 11
3.43441 -1.9156 1.04297 56
3.44335 -1.92839 0.759691 58
1.48836 -1.22119 0.165378 52
3.43963 -1.93258 0.479483 58
3.44388 -1.9381 0.205288 59
2.10486 -1.18764 -0.0415804 18
2.11053 -1.19035 -0.208539 20
2.10833 -1.1877 -0.378206 20
2.16272 -1.78225 -0.741034 9
2.10509 -1.18303 -0.548612 21
3.36161 -2.77124 0.996149 11
3.43949 -1.9263 1.04556 58
3.44426 -1.9368 0.760644 58
1.48238 -1.22062 0.164942 52
3.44058 -1.94101 0.480091 58
3.45137 -1.95024 0.205942 58
2.06894 -1.70553 -0.139152 41
2.09407 -1.1864 -0.0414058 20
2.09326 -1.18547 -0.207017 20
2.09119 -1.1829 -0.375465 20
2.15961 -1.78602 -0.741034 9
2.09027 -1.17954 -0.545243 21
3.35592 -2.79719 0.998957 11
3.43146 -1.94547 1.04621 56
1.6171 -1.34646 0.327008 15
3.44261 -1.95965 0.762551 58
1.47597 -1.22836 0.164942 44
3.43684 -1.96268 0.481004 58
3.44762 -1.97199 0.206335 58
2.06544 -1.7215 -0.139546 41
2.0748 -1.18991 -0.041144 20
2.076 -1.19061 -0.20593 20
2.07639 -1.18894 -0.373899 21
2.15579 -1.80195 -0.742973 9
2.06501 -1.17964 -0.540189 21
3.37719 -2.82494 1.00682 9
3.43226 -1.95384 1.0475 58
1.61096 -1.34611 0.326227 15
3.44311 -1.96869 0.763504 58
1.46809 -1.22615 0.164289 49
3.43987 -1.97237 0.481917 58
3.45067 -1.98173 0.206727 58
2.06626 -1.7283 -0.139809 42
2.05538 -1.18358 -0.040795 20
2.06312 -1.18803 -0.204842 21
2.28817 -1.91681 -0.572351 35
2.05931 -1.18398 -0.371158 21
2.15417 -1.80764 -0.74362 9
2.05449 -1.17841 -0.537943 21
3.42583 -1.97479 1.04879 56
1.59612 -1.34842 0.324667 15
3.43913 -1.99037 0.764934 58
1.45954 -1.23246 0.164071 49
3.43129 -1.9922 0.482221 56
2.06099 -1.74232 -0.140071 42
2.03813 -1.18841 -0.0405768 21
2.04394 -1.19132 -0.203538 21
2.27027 -1.92282 -0.570447 36
2.03813 -1.18608 -0.368418 21
2.14836 -1.82202 -0.744913 9
2.03121 -1.17975 -0.533451 21
3.43074 -1.98559 1.05138 56
1.58646 -1.34454 0.323106 14
3.44202 -2.00006 0.766363 58
1.45358 -1.23178 0.163635 49
3.43889 -2.00382 0.483742 56
3.19508 -1.86512 0.192073 36
2.0231 -1.18442 -0.0403151 21
2.02679 -1.18611 -0.202015 21
2.2557 -1.91724 -0.56759 36
2.02325 -1.18219 -0.366068 21
2.13415 -1.81637 -0.741034 9
2.01671 -1.17561 -0.530082 21
2.48826 -2.1331 0.747393 1
3.42899 -2.0078 1.05396 56
1.57753 -1.35122 0.322715 15
3.4382 -2.02118 0.767793 58
1.44544 -1.23751 0.163417 49
3.43263 -2.02432 0.484351 56
1.45612 -1.2471 0.0328542 29
3.4305 -2.02627 0.206989 58
2.00631 -1.1883 -0.0400969 21
2.00983 -1.19039 -0.200928 21
2.2348 -1.91903 -0.564733 35
2.00426 -1.18525 -0.363719 21
2.12859 -1.8303 -0.742327 11
2.00002 -1.17998 -0.527274 23
2.47161 -2.12631 0.743462 1
3.43382 -2.01867 1.05654 56
1.56955 -1.34914 0.321545 20
3.43855 -2.03027 0.768746 58
1.44139 -1.2384 0.163199 47
3.4355 -2.03409 0.485263 58
1.44046 -1.23847 0.0325487 33
3.37968 -2.0043 0.20411 58
1.98917 -1.18288 -0.0397915 21
1.99703 -1.18755 -0.199841 21
2.22215 -1.91491 -0.562352 36
1.98731 -1.17995 -0.360979 21
2.12872 -1.83754 -0.74362 11
1.98747 -1.17729 -0.524467 23
2.44721 -2.12846 0.739531 3
3.427 -2.03968 1.05784 56
1.55478 -1.35113 0.319984 26
3.43209 -2.05075 0.7697 58
1.43091 -1.24291 0.162763 49
3.43296 -2.05774 0.48648 58
1.42641 -1.23944 0.0323742 33
3.43948 -2.06487 0.208428 58
1.97631 -1.18977 -0.0396606 21
1.29564 -1.12722 -0.206275 4
1.97797 -1.19031 -0.198536 23
2.20066 -1.91723 -0.559495 36
1.97051 -1.18401 -0.359021 23
2.11543 -1.84548 -0.742327 9
1.96642 -1.17928 -0.520536 24
2.4457 -2.1339 0.740093 9
3.42758 -2.04813 1.05913 56
1.55266 -1.35357 0.319984 24
3.43693 -2.06178 0.771606 59
1.42686 -1.24377 0.162545 47
3.43398 -2.06568 0.487089 58
1.42236 -1.24028 0.0323306 33
3.44051 -2.07285 0.20869 58
1.95924 -1.1842 -0.0393552 21
1.28079 -1.11782 -0.204145 4
1.95881 -1.18349 -0.196796 23
2.18808 -1.91299 -0.557114 35
1.95574 -1.17982 -0.356672 23
2.11766 -1.85395 -0.744267 11
1.95203 -1.17486 -0.517167 24
2.4217 -2.13539 0.736162 9
3.42338 -2.0692 1.06107 56
1.53814 -1.35514 0.318423 30
3.43275 -2.08296 0.773036 56
1.41681 -1.24768 0.16211 47
3.4316 -2.08878 0.488306 59
1.40857 -1.24085 0.0321561 35
3.43814 -2.09602 0.209213 61
1.94254 -1.18761 -0.039137 23
1.2712 -1.12123 -0.203537 3
1.94408 -1.18855 -0.195927 23
2.17285 -1.91916 -0.555686 36
1.94109 -1.18491 -0.355106 23
2.10463 -1.86144 -0.742973 11
1.93335 -1.17749 -0.513797 24
2.43986 -2.159 0.742901 9
3.42803 -2.08017 1.06365 56
1.53392 -1.35619 0.318033 33
3.43713 -2.09465 0.774942 59
1.41277 -1.2485 0.161892 44
3.43643 -2.09994 0.489523 61
1.40057 -1.23858 0.0320252 35
3.443 -2.10722 0.209736 65
1.9298 -1.18448 -0.0389189 23
1.26924 -1.12344 -0.203537 3
1.93137 -1.18545 -0.194839 23
2.16399 -1.91806 -0.554257 36
1.92216 -1.17801 -0.351974 23
2.11188 -1.8751 -0.746853 11
1.92089 -1.17453 -0.51099 26
2.35917 -2.11042 0.721563 2
3.42702 -2.10499 1.06688 56
1.52656 -1.36447 0.318033 30
3.43239 -2.11647 0.776372 61
1.40414 -1.25447 0.161674 44
3.42924 -2.1211 0.490131 67
1.39034 -1.24256 0.0319379 36
3.44005 -2.13107 0.21026 77
1.91061 -1.18702 -0.0386571 23
1.27793 -1.14354 -0.205971 3
1.91455 -1.189 -0.193752 24
2.14079 -1.91827 -0.550924 36
1.90966 -1.18417 -0.350799 23
2.09665 -1.88129 -0.744913 12
1.90206 -1.17724 -0.507621 26
3.42745 -2.1135 1.06818 58
1.52258 -1.36521 0.317643 30
3.43913 -2.12891 0.778755 71
1.39824 -1.25359 0.161238 45
3.43434 -2.13171 0.491348 77
1.38445 -1.24165 0.0318506 38
3.44306 -2.14042 0.210652 74
1.89792 -1.18376 -0.0384389 23
1.32042 -1.18537 -0.213272 4
2.1265 -1.91215 -0.548067 36
1.8908 -1.1771 -0.347667 20
2.09336 -1.88495 -0.744913 12
1.88985 -1.17382 -0.504813 27
3.42696 -2.1372 1.07141 65
1.51724 -1.37483 0.318033 32
3.43455 -2.15018 0.780185 73
1.39188 -1.26065 0.161238 50
3.41893 -2.14703 0.49074 45
1.37075 -1.24192 0.0316761 38
3.41489 -2.1478 0.209606 35
1.8792 -1.18537 -0.0381771 24
1.31419 -1.19226 -0.213272 4
2.11134 -1.91794 -0.546638 36
2.08379 -1.89552 -0.744913 12
3.35318 -3.05247 1.03714 12
3.42937 -2.14701 1.07335 62
1.51666 -1.37914 0.318423 32
3.41794 -2.14895 0.777325 33
1.38599 -1.25972 0.160802 52
3.38577 -2.1345 0.48648 23
1.37021 -1.24623 0.0317197 39
3.38789 -2.13912 0.208166 20
1.87501 -1.18732 -0.0381335 35
1.33594 -1.21629 -0.217228 12
2.10255 -1.91666 -0.54521 36
2.07302 -1.893 -0.742327 12
3.35454 -3.08707 1.04276 12
3.40138 -2.15522 1.06818 29
3.37971 -2.14973 0.771129 20
1.37916 -1.2672 0.160802 52
3.35951 -2.14347 0.484351 18
1.36182 -1.25169 0.0316761 42
3.36153 -2.14803 0.20725 18
1.32752 -1.22182 -0.216923 14
2.08313 -1.91969 -0.542829 38
3.35506 -3.09729 1.04444 12
3.37314 -2.14563 1.06042 18
3.36353 -2.14771 0.76827 18
1.37511 -1.26792 0.160584 52
3.33067 -2.1333 0.4807 20
1.35596 -1.25068 0.0315889 44
3.33254 -2.13775 0.20568 26
1.32721 -1.22582 -0.217228 15
2.06897 -1.91332 -0.539972 38
3.3477 -3.12313 1.04725 12
3.34191 -2.14963 1.05396 17
3.32785 -2.14877 0.762551 23
1.37232 -1.27826 0.16102 49
3.3115 -2.14474 0.479483 36
1.34779 -1.25582 0.0315452 47
3.31958 -2.15323 0.205549 15
1.32824 -1.2393 -0.218445 21
2.04672 -1.91203 -0.536639 38
3.35469 -3.14062 1.05118 11
3.31581 -2.14108 1.04685 29
3.31754 -2.15115 0.761121 23
1.36645 -1.27725 0.160584 49
3.3244 -2.16132 0.481917 2
1.34355 -1.2567 0.0315016 49
3.31582 -2.15902 0.205549 12
1.31883 -1.23483 -0.217228 29
2.08129 -1.35835 -0.213975 41
2.03443 -1.9072 -0.534258 38
3.34118 -3.16208 1.0523 11
3.30418 -2.15899 1.04685 14
3.33704 -2.18865 0.76827 1
1.36133 -1.28634 0.160802 45
3.31927 -2.18278 0.482829 8
1.33695 -1.26371 0.0315016 50
3.31452 -2.18379 0.206204 3
1.30514 -1.23489 -0.216011 32
2.08247 -1.3747 -0.214845 42
2.01874 -1.91311 -0.53283 38
2.08227 -1.37252 -0.389951 41
2.67367 -1.75675 -0.729424 9
3.34151 -3.17236 1.05399 11
3.32062 -2.17797 1.05331 1
3.3658 -3.19434 0.727768 11
3.31065 -2.17965 0.763027 3
1.3575 -1.28676 0.160584 45
3.29887 -2.17765 0.480395 3
1.33112 -1.2626 0.0314143 50
3.29858 -2.18074 0.205419 12
1.30119 -1.23545 -0.215706 32
2.08239 -1.37934 -0.215063 42
2.07987 -1.37615 -0.389951 41
2.66042 -1.75472 -0.726616 11
3.34474 -3.20778 1.06016 11
3.31799 -2.1995 1.0559 2
3.34603 -3.20791 0.726988 11
3.302 -2.19716 0.763504 3
1.35636 -1.29878 0.161238 44
3.294 -2.19845 0.481308 8
1.32674 -1.27082 0.031458 50
3.28542 -2.19603 0.205288 17
2.07015 -1.38689 -0.0428893 41
1.29492 -1.24202 -0.215706 32
2.07721 -1.39161 -0.21528 41
2.07494 -1.38803 -0.390343 41
1.59893 -1.53726 -0.58455 33
2.65962 -1.77356 -0.728862 9
3.34265 -3.217 1.06129 11
3.29403 -2.19193 1.04944 4
3.34932 -3.22231 0.728939 11
3.29982 -2.20486 0.76398 4
1.3505 -1.2977 0.160802 44
3.29429 -2.20695 0.481917 2
1.3261 -1.2751 0.0315016 49
3.26706 -2.19204 0.204372 15
1.29911 -1.24955 -0.0929431 49
2.06981 -1.39189 -0.0429329 41
1.29454 -1.246 -0.216011 30
2.08306 -1.40077 -0.21615 42
2.07867 -1.39577 -0.391517 41
1.58729 -1.53193 -0.581317 36
2.6626 -1.78225 -0.730547 9
3.33741 -3.24693 1.06522 11
3.29616 -2.21915 1.05396 3
3.34423 -3.25244 0.73167 11
3.33707 -2.25502 0.775419 1
1.34882 -1.31019 0.161456 42
3.3008 -2.23725 0.484655 9
1.31224 -1.27505 0.0313271 49
1.28897 -1.25285 -0.0926806 49
2.06431 -1.40447 -0.0429765 41
1.29133 -1.25645 -0.216619 27
2.07569 -1.41166 -0.21615 41
2.07313 -1.40838 -0.391909 39
2.65292 -1.79663 -0.730547 9
3.34974 -3.26919 1.07083 11
3.30429 -2.233 1.05784 1
3.34561 -3.26517 0.733231 11
3.32703 -2.25672 0.773989 11
1.34653 -1.31255 0.161456 42
3.32564 -2.26251 0.488914 14
1.30822 -1.2756 0.0312834 47
1.285 -1.25335 -0.0925493 49
2.06393 -1.40947 -0.0430202 39
1.28026 -1.25003 -0.215098 29
2.08146 -1.42088 -0.21702 41
2.0768 -1.41616 -0.393083 39
2.65381 -1.80399 -0.73167 9
3.34067 -3.29582 1.07364 11
3.30852 -2.26115 1.06301 12
3.34604 -3.29999 0.737134 11
3.36986 -2.31152 0.786857 15
1.33787 -1.31783 0.161238 41
3.36899 -2.3178 0.497129 4
1.30152 -1.28243 0.0312834 47
1.71505 -1.18452 0.10742 27
1.27841 -1.26006 -0.0925493 49
2.06682 -1.42734 -0.0432383 39
1.27194 -1.25497 -0.214794 32
2.0781 -1.43459 -0.217455 41
1.58244 -1.56289 -0.42474 30
2.07546 -1.4312 -0.394258 41
1.53414 -1.51722 -0.568384 39
2.63629 -1.81235 -0.729424 9
3.34415 -3.30963 1.07645 11
3.36038 -2.3051 1.0811 20
3.35607 -3.32146 0.740646 11
3.40021 -2.34102 0.794959 15
1.33379 -1.31841 0.16102 39
3.34655 -2.31101 0.49439 11
1.29573 -1.28118 0.0311962 49
1.70476 -1.18185 0.106896 33
1.27621 -1.26229 -0.0925493 49
2.06843 -1.43379 -0.0433256 41
1.27327 -1.26069 -0.215402 30
2.08174 -1.44245 -0.218107 42
1.57274 -1.55874 -0.422835 29
2.07499 -1.43623 -0.394649 41
1.52978 -1.5182 -0.567738 41
2.63714 -1.81971 -0.730547 9
3.33996 -3.34147 1.08094 11
3.38798 -2.35015 1.09402 12
3.34562 -3.34598 0.742207 11
3.40201 -2.36859 0.798295 11
1.33215 -1.33066 0.161674 39
3.33847 -2.33134 0.494999 11
1.29077 -1.28971 0.0312398 47
1.26782 -1.26719 -0.092418 49
2.06705 -1.44889 -0.0434565 41
1.2649 -1.26558 -0.215098 33
2.0762 -1.45476 -0.218324 42
1.56282 -1.56521 -0.422359 29
2.07149 -1.4499 -0.395432 41
1.52521 -1.52961 -0.569031 42
2.62358 -1.83071 -0.729424 9
3.34159 -3.35361 1.08319 11
3.39578 -2.36432 1.0979 9
3.35545 -3.36756 0.745718 11
3.39586 -2.37312 0.797819 11
1.33159 -1.33475 0.161892 38
3.371 -2.36275 0.500475 14
1.28852 -1.29197 0.0312398 47
2.06656 -1.45393 -0.0435001 41
1.26618 -1.2713 -0.215706 32
2.07366 -1.45838 -0.218324 42
1.5549 -1.56272 -0.420931 33
1.52254 -1.53227 -0.569031 44
2.61638 -1.8325 -0.728301 9
3.33536 -3.38379 1.08712 11
3.38928 -2.38624 1.09984 11
3.34644 -3.39387 0.74767 11
3.39342 -2.39794 0.800202 11
1.32983 -1.34702 0.162545 38
3.38493 -2.399 0.50443 11
1.27998 -1.29691 0.0311962 45
1.65555 -1.17806 0.104672 32
2.05892 -1.46473 -0.0435001 41
1.25951 -1.27792 -0.215706 33
2.0759 -1.47678 -0.219412 42
1.54498 -1.56909 -0.420454 33
1.50942 -1.53505 -0.567091 42
2.60675 -1.84617 -0.728301 11
3.3414 -3.40178 1.09105 11
3.39103 -2.39632 1.10178 11
3.34916 -3.40852 0.749621 11
3.38881 -2.40445 0.800202 11
1.32747 -1.34934 0.162545 39
3.39288 -2.41352 0.506256 11
1.64536 -1.17516 0.104149 36
2.06247 -1.47267 -0.043631 41
1.2538 -1.27657 -0.215098 33
2.07535 -1.48184 -0.219629 39
1.54395 -1.57353 -0.420931 32
1.50647 -1.53795 -0.567091 39
3.33822 -3.43554 1.0961 11
3.38588 -2.42024 1.10436 11
3.33756 -3.43367 0.751182 11
3.39214 -2.43359 0.804014 11
1.32189 -1.35829 0.162763 38
3.38783 -2.43763 0.507473 11
1.63695 -1.18259 0.104018 41
2.06056 -1.48819 -0.0437619 41
1.25033 -1.2869 -0.215706 35
2.07363 -1.49705 -0.220282 41
1.53029 -1.57658 -0.419502 33
3.3379 -3.44603 1.09779 11
3.38754 -2.43037 1.1063 11
3.34762 -3.45488 0.754694 11
3.39785 -2.44666 0.806397 11
1.32471 -1.36596 0.163417 38
3.39608 -2.45164 0.509298 11
1.63104 -1.18224 0.103756 41
2.06202 -1.49471 -0.0438492 39
1.25004 -1.29064 -0.216011 32
2.07505 -1.50358 -0.220716 39
1.52754 -1.57925 -0.419502 32
1.74205 -1.2587 -0.487406 21
3.33329 -3.47753 1.10228 11
3.38303 -2.45314 1.10889 11
3.33973 -3.48306 0.757035 11
3.38344 -2.46239 0.805921 11
1.31951 -1.37445 0.163635 38
1.61877 -1.18635 0.103364 42
2.06048 -1.50955 -0.0439801 39
1.23983 -1.29358 -0.215402 32
2.07117 -1.51736 -0.221151 41
1.52122 -1.58873 -0.419978 32
1.70941 -1.25158 -0.33044 15
1.71573 -1.25348 -0.48179 20
3.33226 -3.48863 1.10396 11
3.38069 -2.46046 1.10953 11
3.349 -3.50495 0.760547 11
3.39457 -2.48044 0.809733 11
1.32055 -1.38035 0.164071 39
1.61267 -1.18622 0.103102 44
2.06188 -1.51609 -0.0440673 39
1.241 -1.29934 -0.216011 32
2.07455 -1.52539 -0.221804 38
1.52014 -1.59316 -0.420454 32
1.69128 -1.2429 -0.327308 21
1.71354 -1.25647 -0.48179 20
3.33174 -3.52609 1.11014 11
3.37123 -2.48158 1.11083 11
3.34186 -3.53559 0.763279 11
3.39142 -2.50546 0.812116 11
1.31306 -1.38747 0.164071 39
1.72715 -1.2826 0.259517 23
1.60021 -1.19048 0.102709 44
2.05766 -1.5302 -0.0441546 39
1.23735 -1.30964 -0.216619 30
2.06854 -1.53771 -0.222021 38
1.5115 -1.60136 -0.420454 32
1.68453 -1.25203 -0.327308 21
1.69692 -1.25849 -0.478983 23
3.33788 -3.54374 1.11407 11
3.37661 -2.49462 1.11406 11
3.34922 -3.5558 0.7664 11
3.39098 -2.5143 0.81307 11
1.72292 -1.28413 0.259213 35
1.59813 -1.19327 0.102709 44
2.06301 -1.53976 -0.0443291 39
1.23167 -1.30818 -0.216011 32
2.07385 -1.54726 -0.222891 39
1.51038 -1.60579 -0.420931 27
1.6764 -1.25055 -0.326134 24
1.69276 -1.26 -0.478421 24
3.32696 -3.57066 1.11688 11
3.37706 -2.52237 1.11858 11
3.34234 -3.58593 0.769132 11
3.3876 -2.53937 0.815453 11
1.7122 -1.29016 0.258604 35
1.58787 -1.19862 0.102448 44
2.05692 -1.55204 -0.0443727 39
1.23494 -1.32552 -0.217836 29
2.07368 -1.56409 -0.223761 41
1.66215 -1.25309 -0.324568 20
1.68029 -1.26446 -0.476737 26
3.33461 -3.59016 1.12137 11
3.37652 -2.53115 1.11987 11
3.3451 -3.60023 0.771083 11
3.38905 -2.5497 0.816882 11
1.70621 -1.28986 0.257996 49
1.58199 -1.19811 0.102186 44
2.06418 -1.56315 -0.0445909 39
1.23286 -1.32745 -0.217836 30
2.07492 -1.5707 -0.224196 39
1.65798 -1.25451 -0.324176 18
1.67246 -1.26271 -0.475052 24
3.32895 -3.62193 1.12586 11
3.37715 -2.5584 1.1244 11
3.33623 -3.6286 0.773424 11
3.38001 -2.56978 0.817836 11
1.57371 -1.20486 0.102055 45
2.06221 -1.57813 -0.0447218 39
1.22924 -1.33755 -0.218445 32
2.07091 -1.5842 -0.224631 38
1.64353 -1.25719 -0.32261 18
1.6697 -1.2744 -0.476175 24
3.33642 -3.64152 1.13035 11
3.3746 -2.56575 1.12504 11
3.34657 -3.65263 0.777327 11
3.38919 -2.58608 0.821172 11
1.57359 -1.20912 0.102186 45
2.06144 -1.58324 -0.0447654 38
1.22691 -1.33969 -0.218445 30
1.63153 -1.25256 -0.320653 15
1.66554 -1.27583 -0.475614 26
3.33238 -3.67816 1.13597 11
3.36451 -2.58691 1.12633 11
3.33339 -3.678 0.778888 11
3.38293 -2.61037 0.823078 9
1.03622 -1.14153 0.131823 36
1.03134 -1.13654 0.0261786 12
1.5611 -1.21304 0.101793 42
1.0232 -1.12795 -0.0782403 12
2.05877 -1.59896 -0.0448963 39
1.22297 -1.34999 -0.219053 29
1.62104 -1.25807 -0.319869 15
1.65475 -1.28185 -0.474491 26
3.33476 -3.69243 1.13878 11
3.37721 -2.60604 1.13215 11
3.33754 -3.69423 0.781229 11
1.03255 -1.14149 0.131605 49
1.03103 -1.14019 0.0262222 12
1.55722 -1.21396 0.101663 39
1.01789 -1.12603 -0.0779777 12
2.0619 -1.60715 -0.0450272 39
1.22085 -1.35191 -0.219053 30
1.61103 -1.25484 -0.318303 15
1.65081 -1.28296 -0.473929 24
3.32998 -3.72619 1.14383 11
3.36588 -2.62458 1.1328 11
3.33789 -3.73375 0.785912 11
1.02178 -1.14113 0.130951 49
1.53264 -1.20612 0.234873 38
1.02524 -1.1454 0.0262222 15
1.55281 -1.22364 0.101793 38
1.0155 -1.13489 -0.0782403 8
2.05964 -1.6222 -0.0451581 39
1.21871 -1.36384 -0.219966 30
1.6025 -1.26174 -0.317912 15
1.64599 -1.29309 -0.474491 24
3.33061 -3.7387 1.14608 11
3.37272 -2.63937 1.13667 11
3.34286 -3.75248 0.788643 11
1.68949 -1.32992 0.410824 8
1.01814 -1.14105 0.130734 9
1.52663 -1.20572 0.234265 39
1.01992 -1.14345 0.026135 12
1.55459 -1.22943 0.102055 38
1.01518 -1.13853 -0.0783715 4
2.06466 -1.63198 -0.0453326 39
1.22292 -1.37338 -0.221183 30
1.60223 -1.26606 -0.318303 18
3.31999 -3.76763 1.14945 11
3.37212 -2.66746 1.1412 11
3.33296 -3.78105 0.790985 11
1.67096 -1.32961 0.407965 9
1.00556 -1.13889 0.129862 18
1.52224 -1.21524 0.234569 41
1.00565 -1.1394 0.0259168 11
1.54813 -1.23755 0.102055 35
1.01065 -1.14588 -0.0785028 4
2.06782 -1.6521 -0.0455944 41
1.2108 -1.37418 -0.22027 35
1.44073 -1.15295 -0.15809 9
1.59172 -1.27136 -0.31752 18
3.32948 -3.79173 1.15506 11
3.37125 -2.67634 1.14249 11
3.33939 -3.80171 0.794106 11
1.65687 -1.32365 0.405105 9
1.00357 -1.14064 0.129862 15
1.51042 -1.21016 0.233048 44
1.00841 -1.14696 0.0260477 11
1.53622 -1.23247 0.101401 29
1.0103 -1.14952 -0.0786341 9
2.06884 -1.65883 -0.0456817 41
1.21821 -1.38748 -0.222095 32
1.44261 -1.15858 -0.158524 11
1.57984 -1.26644 -0.315563 17
3.32009 -3.82257 1.15899 11
3.36803 -2.7036 1.14637 11
3.33173 -3.83464 0.797228 11
1.63844 -1.32308 0.402245 11
0.995752 -1.14418 0.129644 15
1.50578 -1.21988 0.233352 42
0.997476 -1.14657 0.0259168 11
1.53147 -1.24233 0.101532 24
1.00263 -1.1529 -0.0785028 8
2.06372 -1.67314 -0.0457689 39
1.21719 -1.40155 -0.223312 23
1.57704 -1.27779 -0.316346 15
3.33481 -3.85173 1.16629 11
3.37083 -2.71553 1.14895 11
3.34025 -3.85667 0.80074 9
1.62467 -1.31669 0.399386 9
0.998643 -1.15156 0.130298 14
1.5 -1.21912 0.232744 42
1.00202 -1.15587 0.0260913 11
1.51787 -1.23531 0.100747 23
1.00551 -1.16032 -0.0788966 8
2.06663 -1.68146 -0.0458998 41
1.21823 -1.40722 -0.223921 23
1.57096 -1.27743 -0.315563 15
3.32568 -3.88209 1.17022 11
3.37017 -2.74321 1.15348 11
3.3425 -3.90036 0.806203 9
1.61418 -1.3218 0.398433 8
0.989561 -1.15282 0.129862 15
1.48976 -1.22382 0.232135 42
0.999404 -1.16472 0.0261786 9
1.50559 -1.23849 0.100354 29
0.999424 -1.16557 -0.0788966 8
2.06002 -1.69349 -0.0459435 41
1.22052 -1.42489 -0.225746 23
1.46496 -1.2061 -0.162656 12
3.33313 -3.90457 1.17528 9
3.37286 -2.75519 1.15606 11
3.3437 -3.91558 0.808154 9
1.60974 -1.32334 0.397956 8
0.989164 -1.15644 0.13008 14
1.48378 -1.22327 0.231527 42
1.00528 -1.17614 0.0263968 8
1.49571 -1.23478 0.0998308 33
1.00063 -1.17111 -0.0791592 8
2.06093 -1.70025 -0.0460307 39
1.21804 -1.42702 -0.225746 20
1.47632 -1.21972 -0.164178 15
2.3192 -1.90588 -0.68394 30
3.32453 -3.93744 1.17977 9
3.36536 -2.77954 1.15864 11
3.33999 -3.95437 0.812447 9
1.60279 -1.33175 0.397956 8
0.987713 -1.16748 0.130734 9
1.47523 -1.22969 0.231223 41
0.992657 -1.17375 0.0262222 8
1.48132 -1.23647 0.0993075 35
0.996093 -1.17824 -0.0792905 8
1.2135 -1.43738 -0.226355 20
1.46225 -1.22107 -0.163308 20
2.29759 -1.90908 -0.680571 29
3.33245 -3.95943 1.18482 9
3.37167 -2.79465 1.16252 11
3.34172 -3.96906 0.814398 8
1.60235 -1.33611 0.398433 8
0.985674 -1.1692 0.130734 8
1.47139 -1.23042 0.230918 41
0.997043 -1.18313 0.0263968 8
1.47363 -1.23401 0.098915 36
0.992428 -1.17806 -0.0791592 4
1.21124 -1.43929 -0.226355 18
1.45629 -1.22043 -0.162874 23
2.2871 -1.90645 -0.678325 30
3.32414 -3.99181 1.18931 11
3.3649 -2.81787 1.16511 11
3.33511 -4.00358 0.81791 8
1.58993 -1.33948 0.397003 4
0.979744 -1.17418 0.130734 4
1.46303 -1.23651 0.230614 41
0.986244 -1.1824 0.0262659 4
1.46142 -1.23688 0.0985224 36
0.984649 -1.18133 -0.0790279 4
1.21479 -1.45897 -0.228484 23
1.44988 -1.22804 -0.162874 17
2.26402 -1.90744 -0.674394 30
3.32495 -4.00698 1.19212 9
3.33443 -4.017 0.819471 8
1.58923 -1.34411 0.39748 4
0.974512 -1.17205 0.130298 4
1.45707 -1.23586 0.230006 42
0.99195 -1.19391 0.026484 4
1.45544 -1.23621 0.0982608 38
0.982586 -1.18304 -0.0790279 4
1.21541 -1.46491 -0.229093 21
1.43632 -1.22092 -0.161569 15
2.25324 -1.90511 -0.672148 30
3.32021 -4.04563 1.1983 9
3.33301 -4.0598 0.824544 8
1.5803 -1.35082 0.397003 4
0.971317 -1.18116 0.130734 4
1.45037 -1.24373 0.230006 42
0.9841 -1.19716 0.0264404 4
1.44114 -1.23758 0.0977374 41
0.979545 -1.19203 -0.0792905 4
1.21375 -1.47914 -0.23031 20
1.42423 -1.22357 -0.160916 20
2.23548 -1.91095 -0.669902 30
3.32927 -4.0697 1.20391 9
2.49723 -2.13098 0.869145 1
3.34539 -4.08797 0.829226 8
1.57794 -1.35357 0.397003 4
0.969254 -1.18285 0.130734 3
1.44652 -1.24439 0.229701 42
0.985173 -1.20274 0.0265277 4
1.43919 -1.23984 0.0977374 44
0.975883 -1.19181 -0.0791592 4
1.43648 -1.23881 -0.0325051 17
1.22242 -1.4945 -0.23244 15
1.41075 -1.21632 -0.159612 21
1.05957 -1.29648 -0.318079 11
1.31152 -1.12966 -0.268972 4
2.22137 -1.90496 -0.666533 30
3.32171 -4.10412 1.20897 9
2.48824 -2.14517 0.869791 2
1.5655 -1.35674 0.395573 3
0.964821 -1.18968 0.130951 4
1.43811 -1.25032 0.229397 42
0.974356 -1.20189 0.0263968 4
1.42702 -1.24245 0.0973449 42
0.971199 -1.19884 -0.0792905 4
1.41886 -1.23624 -0.0322433 26
1.22237 -1.51053 -0.233961 12
1.40248 -1.22206 -0.159394 21
1.04837 -1.2961 -0.31665 11
1.29999 -1.13167 -0.267798 8
1.5222 -1.88557 -0.639513 4
2.19846 -1.90542 -0.662602 32
2.48084 -2.14635 0.868499 2
1.56845 -1.36456 0.397003 3
0.965871 -1.19524 0.131387 3
1.43968 -1.25609 0.230006 44
0.976752 -1.20959 0.0265277 8
1.42108 -1.24167 0.0970832 44
0.973804 -1.20637 -0.0796843 4
1.41104 -1.2338 -0.0321124 26
1.03687 -1.28646 -0.313793 9
1.30547 -1.14041 -0.269364 9
1.51101 -1.87907 -0.63628 8
2.18592 -1.90128 -0.659795 30
2.47283 -2.16292 0.869791 4
0.960943 -1.20239 0.131605 4
1.42913 -1.26058 0.229397 45
0.971964 -1.21664 0.0265713 4
1.40872 -1.24439 0.0966907 44
0.965918 -1.2095 -0.079553 4
1.39496 -1.23316 -0.0318943 35
1.02225 -1.28245 -0.311412 9
1.50416 -1.89074 -0.637573 11
2.16828 -1.90665 -0.657548 30
2.46905 -2.16723 0.869791 8
0.958843 -1.20407 0.131605 4
1.43087 -1.26611 0.230006 45
0.974504 -1.22421 0.0267022 3
1.40676 -1.2466 0.0966907 45
0.968464 -1.21705 -0.0799469 4
1.38906 -1.23228 -0.031807 35
1.00782 -1.26884 -0.307603 8
1.50685 -1.90094 -0.64016 11
2.15613 -1.90201 -0.654741 32
2.449 -2.1717 0.86656 9
0.957355 -1.21478 0.132259 3
1.42237 -1.27193 0.229701 44
0.971386 -1.23306 0.0267894 3
1.39462 -1.24897 0.0962982 47
0.96692 -1.22782 -0.0803407 4
1.37161 -1.22932 -0.0315452 38
1.49721 -1.90854 -0.64016 11
2.13704 -1.90519 -0.651933 32
2.45785 -2.18719 0.871084 2
0.95677 -1.21841 0.132477 3
1.42015 -1.27441 0.229701 42
0.972315 -1.23869 0.0268767 3
1.38872 -1.24807 0.0960365 47
0.964776 -1.22951 -0.0803407 3
1.3676 -1.23004 -0.0315016 42
1.48942 -1.90544 -0.63822 11
2.12643 -1.90243 -0.649687 32
0.950378 -1.2234 0.132477 3
1.41345 -1.28183 0.229701 39
0.962754 -1.23981 0.0267894 4
1.38402 -1.257 0.0961673 49
0.962913 -1.24046 -0.0807345 3
1.35558 -1.23216 -0.0313707 42
2.1092 -1.90701 -0.647441 32
0.949763 -1.22703 0.132695 3
1.41122 -1.2843 0.229701 39
0.963644 -1.24544 0.0268767 3
1.37627 -1.25438 0.0957748 49
0.960746 -1.24214 -0.0807345 3
1.34972 -1.23116 -0.0312834 45
2.09322 -1.89926 -0.64351 32
1.63219 -2.13558 0.611503 2
3.35241 -3.056 1.20453 12
0.943111 -1.23215 0.132695 3
1.40791 -1.29526 0.23031 38
0.956892 -1.25064 0.0268767 4
1.36946 -1.26181 0.0957748 49
0.957041 -1.25129 -0.0809971 3
1.33936 -1.23507 -0.0311962 45
2.07932 -1.90727 -0.642387 32
1.63031 -2.14008 0.612065 9
3.36847 -3.08139 1.21228 11
0.948501 -1.2437 0.133784 3
1.4077 -1.29915 0.230614 36
0.960762 -1.26026 0.0270512 4
1.36564 -1.26227 0.095644 49
0.954856 -1.25296 -0.0809971 4
1.33168 -1.23233 -0.0310653 45
2.06735 -1.9023 -0.63958 32
1.62787 -2.16027 0.615434 9
3.35283 -3.0984 1.21228 11
0.940696 -1.2465 0.133566 3
1.40088 -1.3065 0.230614 35
0.954371 -1.26511 0.0270512 4
1.35901 -1.2694 0.095644 49
0.955788 -1.26791 -0.0816534 4
1.32543 -1.23905 -0.0310653 47
2.04664 -1.90316 -0.63621 32
1.63433 -2.17675 0.619365 2
3.36337 -3.119 1.2181 11
0.941509 -1.25212 0.134002 3
1.40223 -1.31233 0.231223 33
0.95644 -1.27294 0.0271821 3
1.35315 -1.26837 0.0953823 49
0.953573 -1.26958 -0.0816534 4
1.32326 -1.24136 -0.0310653 47
1.30395 -1.22336 -0.153088 42
2.03796 -1.90175 -0.634526 33
3.35174 -3.14211 1.22003 11
0.934721 -1.2572 0.134002 3
1.39872 -1.3233 0.231831 32
0.951251 -1.27994 0.0272258 3
1.34626 -1.27567 0.0953823 49
0.9484 -1.27656 -0.0817847 4
1.30925 -1.24164 -0.0308908 49
1.29753 -1.23017 -0.153088 49
3.35682 -3.15787 1.22391 11
3.37132 -3.18251 0.893614 11
0.938448 -1.26684 0.134874 3
1.39483 -1.32379 0.231527 30
0.951987 -1.28562 0.027313 3
1.34607 -1.2795 0.0955131 49
0.943203 -1.2742 -0.0815222 4
1.30527 -1.24221 -0.0308471 49
1.29176 -1.22901 -0.152653 50
3.28835 -4.49551 1.27579 14
3.3478 -3.18147 1.2265 11
3.2958 -4.50407 0.876444 14
3.36761 -3.21137 0.89695 11
0.934965 -1.27559 0.135309 3
1.39147 -1.3345 0.232135 27
0.945468 -1.29042 0.027313 3
1.33574 -1.28308 0.0952514 49
0.937992 -1.28113 -0.0816534 4
1.29716 -1.24707 -0.0308035 49
1.28531 -1.23575 -0.152653 50
3.29771 -4.52487 1.28253 14
3.35099 -3.19563 1.22973 11
3.30102 -4.52778 0.879956 14
3.36854 -3.22461 0.898857 11
0.935671 -1.28124 0.135745 4
1.39452 -1.34208 0.233048 26
0.947404 -1.29829 0.0274439 3
1.3335 -1.28541 0.0952514 49
0.935754 -1.28277 -0.0816534 4
1.29137 -1.24587 -0.0307162 49
1.28135 -1.23627 -0.152436 52
1.1858 -1.14303 -0.255661 3
3.28599 -4.56044 1.28758 14
3.35279 -3.23213 1.23684 11
3.29236 -4.56761 0.884248 14
3.36397 -3.25414 0.902193 11
0.936006 -1.29639 0.136835 4
1.39259 -1.35478 0.233961 24
0.93621 -1.29715 0.027313 3
1.32832 -1.29434 0.0953823 49
0.937779 -1.29981 -0.0824411 4
1.28461 -1.25284 -0.0307162 49
1.27307 -1.24123 -0.152218 52
1.17074 -1.14084 -0.253703 4
3.29019 -4.58143 1.29207 14
3.35757 -3.24804 1.24071 11
3.30022 -4.59542 0.888541 14
3.36181 -3.26342 0.903146 11
0.936647 -1.30207 0.13727 3
1.392 -1.35894 0.234265 23
0.936859 -1.30284 0.0274003 3
1.32427 -1.29492 0.0952514 49
0.931143 -1.29536 -0.0820473 3
1.28243 -1.25508 -0.0307162 49
1.27091 -1.24345 -0.152218 52
1.17405 -1.14804 -0.254878 4
1.5707 -1.53048 -0.497513 18
3.27945 -4.61903 1.29769 14
3.36299 -3.2875 1.24911 11
3.28755 -4.62875 0.891662 14
3.36222 -3.29815 0.907912 11
0.937027 -1.31711 0.13836 3
1.39195 -1.37316 0.235482 21
0.931472 -1.30977 0.0274439 3
1.32103 -1.30534 0.0955131 47
0.931571 -1.31039 -0.0827036 3
1.27762 -1.26353 -0.0307599 49
1.26438 -1.25009 -0.152218 50
1.16823 -1.15397 -0.254878 4
1.55918 -1.53527 -0.49639 23
3.28907 -4.64805 1.30443 14
3.36415 -3.30012 1.2517 11
3.30737 -4.67221 0.899077 14
3.36171 -3.30917 0.909342 11
0.934726 -1.31874 0.13836 3
1.39156 -1.37709 0.235786 21
0.937845 -1.32364 0.0277057 3
