# .PCD v0.7 - Point Cloud Data file format
VERSION 0.7
FIELDS x y z intensity
SIZE 4 4 4 4
TYPE F F F F
COUNT 1 1 1 1
WIDTH 1525
HEIGHT 1
VIEWPOINT 0 0 0 1 0 0 0
POINTS 1525
DATA ascii
-3.18551 -2.0709 0.197307 1
-0.684442 -0.29161 -0.0372823 49
-3.23197 -2.09959 -0.0666682 2
-0.842882 -0.358252 -0.108005 45
-0.868371 -0.560151 -0.0871993 52
-0.840897 -0.357072 -0.170467 44
-0.858845 -0.554546 -0.156607 47
-0.839298 -0.355725 -0.234725 44
-0.847223 -0.548176 -0.224611 42
-7.25654 -3.06383 1.80756 33
-7.24818 -3.06029 1.23779 33
-7.35758 -3.10795 0.695721 35
-3.15353 -2.04222 0.195082 1
-0.68495 -0.290415 -0.0372823 49
-3.1916 -2.06537 -0.0657519 2
-0.841219 -0.355817 -0.107701 45
-0.865169 -0.555922 -0.0867644 52
-0.839257 -0.354652 -0.169991 45
-0.8536 -0.54901 -0.155432 47
-0.837691 -0.353325 -0.234079 44
-0.848179 -0.546696 -0.224611 44
-7.26401 -3.02078 1.80531 33
-7.24587 -3.01471 1.23467 35
-7.35996 -3.06365 0.694413 35
-3.17048 -2.02973 0.195475 4
-0.684156 -0.285867 -0.037151 50
-3.20026 -2.04728 -0.0657083 15
-0.847654 -0.35331 -0.10831 45
-0.868068 -0.551385 -0.0867644 50
-0.843369 -0.351193 -0.170467 45
-0.854386 -0.543198 -0.155041 45
-0.841761 -0.349857 -0.234725 42
-0.846933 -0.53961 -0.223488 44
-7.25299 -3.00285 1.80138 33
-7.24199 -2.99828 1.23311 35
-7.35149 -3.04508 0.693106 33
-3.1635 -2.01746 0.194821 9
-0.684654 -0.284672 -0.037151 49
-3.14696 -2.00535 -0.0645303 12
-0.841389 -0.348988 -0.107397 45
-0.864832 -0.547186 -0.0863295 52
-0.837175 -0.346912 -0.169039 44
-0.851173 -0.539044 -0.154258 47
-0.837904 -0.346548 -0.233432 42
-0.843773 -0.5355 -0.222365 42
-7.26462 -2.96172 1.80026 33
-7.24616 -2.95566 1.23116 35
-7.35349 -3.0009 0.691799 33
-0.681511 -0.279199 -0.0368885 49
-3.16587 -1.99418 -0.0647048 32
-0.845503 -0.345513 -0.107701 45
-0.86558 -0.54132 -0.086112 52
-0.836706 -0.3416 -0.168563 44
-0.853984 -0.53458 -0.154258 47
-0.835232 -0.340341 -0.232139 42
-0.84245 -0.528466 -0.221242 42
-7.25797 -2.94573 1.79745 33
-7.24673 -2.94115 1.23038 35
-7.34949 -2.98432 0.690927 33
-0.686625 -0.279886 -0.037151 49
-3.16088 -1.98333 -0.0645303 30
-0.841505 -0.342175 -0.107093 45
-0.860201 -0.535828 -0.0854597 52
-0.841851 -0.34198 -0.169515 44
-0.854915 -0.533089 -0.154258 47
-0.840303 -0.34069 -0.233432 42
-0.841312 -0.525693 -0.22068 42
-7.26702 -2.90371 1.79576 33
-7.24827 -2.89767 1.22804 35
-7.34651 -2.9384 0.689184 33
-7.40834 -4.61281 1.06575 42
-7.27223 -4.52093 0.446949 1
-0.685762 -0.275361 -0.0370197 49
-3.16486 -1.96279 -0.0643994 29
-0.847894 -0.339602 -0.107701 45
-0.858765 -0.528685 -0.0850248 52
-0.841351 -0.336659 -0.169039 45
-0.849312 -0.523383 -0.152692 44
-0.833099 -0.332717 -0.230846 42
-0.841986 -0.519991 -0.220119 42
-7.25346 -2.88509 1.79127 32
-7.24414 -2.88137 1.22647 35
-7.31015 -4.54801 1.66522 44
-7.34469 -2.92281 0.68853 33
-7.41217 -4.59725 1.06515 41
-7.26313 -4.4977 0.445902 1
-0.683922 -0.273242 -0.0368885 49
-3.16403 -1.95463 -0.0643121 29
-0.846179 -0.337207 -0.107397 45
-0.86392 -0.52981 -0.0854597 52
-0.841937 -0.33519 -0.169039 45
-0.84393 -0.517994 -0.151517 44
-0.835924 -0.332151 -0.231492 42
-0.836687 -0.514661 -0.218434 42
-7.26216 -2.84314 1.78959 32
-7.32685 -4.52294 2.29467 38
-7.24303 -2.8371 1.22374 29
-7.31714 -4.49938 1.66141 38
-7.3483 -2.87978 0.687441 32
-7.42556 -4.55189 1.06362 39
-7.31213 -4.47527 0.447472 1
-0.68074 -0.267719 -0.0366259 50
-3.16356 -1.93151 -0.064094 29
-0.843311 -0.330966 -0.106788 45
-0.860402 -0.521226 -0.0848073 52
-0.841394 -0.329885 -0.168563 45
-0.85084 -0.51615 -0.1523 44
-0.837652 -0.32777 -0.231492 44
-0.841445 -0.511548 -0.218996 42
-7.31417 -4.49748 2.28821 36
-7.31112 -4.47634 1.65807 36
-7.40174 -4.51951 1.05906 36
-7.30075 -4.45079 0.446295 1
-0.683533 -0.267435 -0.0367572 50
-3.16479 -1.92469 -0.0640503 29
-0.839262 -0.327695 -0.10618 45
-0.854932 -0.515833 -0.084155 52
-0.839681 -0.327527 -0.168087 45
-0.849633 -0.513377 -0.151909 45
-0.836028 -0.325289 -0.230846 42
-0.842337 -0.510079 -0.218996 42
-7.32189 -4.4478 2.28304 36
-7.31347 -4.42528 1.65331 35
-7.40909 -4.46913 1.05663 33
-7.30762 -4.40091 0.445248 1
-0.677929 -0.261174 -0.0363633 50
-3.16017 -1.8985 -0.0637449 29
-0.845658 -0.324923 -0.106788 45
-0.857621 -0.511349 -0.084155 52
-0.843733 -0.323855 -0.168563 45
-0.845968 -0.505093 -0.150734 44
-0.833207 -0.319186 -0.229552 42
-0.840916 -0.502992 -0.217873 41
-7.32138 -4.43001 2.28046 36
-7.29807 -4.39856 1.64806 39
-3.08975 -1.18011 0.286307 11
-7.39059 -4.44214 1.05298 33
-7.30596 -4.38428 0.444725 1
-0.680717 -0.260879 -0.0364946 50
-3.15705 -1.88913 -0.063614 30
-0.841529 -0.321828 -0.10618 45
-0.854242 -0.507288 -0.0837201 50
-0.842003 -0.32151 -0.168087 45
-0.846848 -0.503616 -0.150734 44
-0.831504 -0.316875 -0.228906 42
-0.841705 -0.501671 -0.217873 42
-7.3147 -4.37553 2.27141 35
-7.21275 -4.29744 1.62376 24
-3.13299 -1.17847 0.289793 11
-7.40095 -4.39577 1.05115 33
-7.3052 -4.33195 0.443286 1
-0.679736 -0.256434 -0.0363633 50
-3.16012 -1.8693 -0.0634831 30
-0.845526 -0.318288 -0.106484 45
-0.852602 -0.500267 -0.0832851 53
-0.841321 -0.316384 -0.16761 45
-0.845228 -0.496652 -0.149951 44
-0.839884 -0.315197 -0.230846 42
-0.838041 -0.493517 -0.216188 42
-7.30781 -4.35409 2.26689 33
-7.21888 -4.28233 1.62328 21
-3.11871 -1.1669 0.288268 3
-7.39367 -4.37399 1.04902 35
-7.31061 -4.31792 0.443155 1
-0.682522 -0.25612 -0.0364946 50
-3.15477 -1.85869 -0.0633086 30
-0.843755 -0.315946 -0.10618 45
-0.853474 -0.498778 -0.0832851 52
-0.837272 -0.313203 -0.166658 44
-0.848218 -0.496434 -0.150343 47
-0.833696 -0.311063 -0.228906 42
-0.836806 -0.49081 -0.215626 42
-7.3167 -4.30591 2.26236 30
-7.2412 -4.24448 1.62328 17
-3.12966 -1.15172 0.288703 3
-7.39581 -4.32139 1.04598 35
-7.31446 -4.26697 0.441977 1
-0.68151 -0.251683 -0.0363633 50
-3.15831 -1.83782 -0.0631777 30
-0.843122 -0.310522 -0.105876 45
-0.847471 -0.489279 -0.0824153 50
-0.838954 -0.308668 -0.166658 45
-0.844412 -0.488246 -0.149168 44
-0.828509 -0.304207 -0.226966 42
-0.841551 -0.487507 -0.216188 42
-7.24012 -4.22688 1.62137 15
-3.13166 -1.14626 0.288703 2
-7.3983 -4.30727 1.04537 35
-7.31252 -4.25045 0.441454 1
-0.677258 -0.24878 -0.0361008 50
-3.15503 -1.82853 -0.0630468 32
-0.838947 -0.307496 -0.105267 45
-0.850477 -0.489051 -0.0826328 52
-0.837186 -0.306364 -0.166182 45
-0.847396 -0.488014 -0.14956 44
-0.826769 -0.301936 -0.226319 42
-0.844419 -0.487413 -0.21675 42
-7.25292 -4.18527 1.61947 15
-3.12571 -1.12618 0.287614 2
-7.4014 -4.25733 1.04263 35
-1.70479 -0.614563 0.0310216 50
-7.32602 -4.20713 0.44093 1
-0.676159 -0.244505 -0.0359695 50
-3.15774 -1.8088 -0.0629159 32
-0.835874 -0.301423 -0.104659 47
-0.852941 -0.48474 -0.0826328 52
-0.834105 -0.300466 -0.16523 44
-0.8478 -0.482339 -0.149168 47
-0.826013 -0.296934 -0.225673 42
-0.84063 -0.479333 -0.215065 42
-5.80587 -3.34907 1.78417 9
-7.23469 -4.15791 1.61375 14
-3.14877 -1.12827 0.289575 2
-7.39159 -4.23453 1.0402 35
-1.70822 -0.612429 0.0310653 50
-7.32468 -4.18937 0.440407 1
-0.676585 -0.243324 -0.0359695 50
-3.14787 -1.79584 -0.0626541 32
-0.836399 -0.299964 -0.104659 47
-0.842979 -0.477064 -0.0815455 52
-0.83694 -0.299834 -0.165706 45
-0.852925 -0.483315 -0.149951 47
-0.828805 -0.296301 -0.226319 44
-0.839353 -0.476652 -0.214503 42
-5.81913 -3.31623 1.78288 9
-7.2457 -4.11391 1.61136 12
-3.08886 -1.08862 0.283474 2
-7.39423 -4.18476 1.03746 35
-1.70904 -0.602647 0.0310216 50
-7.34869 -4.15219 0.440538 1
-0.680247 -0.240488 -0.0361008 50
-3.15941 -1.78056 -0.0626978 33
-0.835616 -0.294759 -0.104354 45
-0.852052 -0.476173 -0.0821979 50
-0.83155 -0.293012 -0.164277 44
-0.848998 -0.475192 -0.148777 47
-0.830345 -0.291957 -0.226319 42
-0.839718 -0.471048 -0.213942 42
-5.8333 -3.31084 1.78546 9
-7.23863 -4.09153 1.60803 12
-3.11191 -1.09063 0.285435 3
-7.39072 -4.16575 1.03594 36
-1.70548 -0.597715 0.0309344 50
-7.35593 -4.13936 0.440538 1
-0.683022 -0.240123 -0.0362321 50
-3.15162 -1.76892 -0.0624796 32
-0.838473 -0.294117 -0.104659 45
-0.846371 -0.47102 -0.0815455 52
-0.83206 -0.29156 -0.164277 45
-0.847675 -0.472497 -0.148385 47
-0.826342 -0.288777 -0.225026 42
-0.84266 -0.47078 -0.214503 44
-7.25353 -4.04998 1.6066 12
-7.38931 -4.11241 1.03259 33
-1.70385 -0.587151 0.0308471 49
-7.38476 -4.10314 0.44093 17
-0.681909 -0.235733 -0.0361008 50
-3.15241 -1.74698 -0.0623051 32
-0.835357 -0.287967 -0.10405 45
-0.851002 -0.467792 -0.081763 52
-0.835947 -0.287849 -0.164753 45
-0.84798 -0.46685 -0.147993 49
-0.825557 -0.283665 -0.224379 44
-0.836686 -0.461465 -0.212257 42
-7.24129 -4.02657 1.60231 12
-7.38275 -4.09357 1.03077 35
-1.70251 -0.583368 0.0308035 50
-7.38901 -4.09033 0.4408 15
-0.679957 -0.233735 -0.0359695 50
-3.15108 -1.73905 -0.0622178 33
-0.831112 -0.285051 -0.103442 47
-0.849639 -0.4651 -0.0815455 53
-0.834125 -0.285598 -0.164277 45
-0.846635 -0.464172 -0.147602 47
-0.828338 -0.283001 -0.225026 44
-0.841668 -0.462518 -0.21338 42
-7.29384 -4.02415 2.21971 35
-7.25298 -3.98513 1.6004 12
-7.3845 -4.04412 1.02803 35
-1.69833 -0.572354 0.0306726 50
-7.39281 -4.04199 0.439753 15
-0.681172 -0.230172 -0.0359695 50
-3.15765 -1.72188 -0.0621742 33
-0.832593 -0.280696 -0.103442 47
-0.854247 -0.46184 -0.081763 53
-0.833233 -0.280593 -0.163801 45
-0.840392 -0.454986 -0.146036 45
-0.829759 -0.278805 -0.225026 44
-0.839808 -0.455759 -0.212257 42
-7.29451 -4.00792 2.21777 35
-7.24339 -3.96177 1.59659 12
-7.38283 -4.02647 1.02681 35
-1.69943 -0.569093 0.0306726 50
-7.39109 -4.0243 0.439229 14
-0.679204 -0.228192 -0.0358382 50
-3.14748 -1.7092 -0.0619124 33
-0.835435 -0.280027 -0.103746 47
-0.848491 -0.456774 -0.0811106 52
-0.833721 -0.279139 -0.163801 45
-0.839017 -0.452336 -0.145644 45
-0.825709 -0.275689 -0.223733 44
-0.840602 -0.454293 -0.212257 42
-7.29698 -3.95802 2.21196 35
-7.24893 -3.91562 1.59325 12
-7.39359 -3.98058 1.02529 35
-1.70001 -0.559407 0.030629 52
-7.39736 -3.97597 0.438314 12
-0.68039 -0.224633 -0.0358382 52
-3.15448 -1.69096 -0.0618688 33
-0.83458 -0.274731 -0.103442 47
-0.850871 -0.452325 -0.0811106 53
-0.830554 -0.273098 -0.162849 45
-0.837027 -0.445594 -0.144861 45
-0.827142 -0.271362 -0.223733 44
-0.836617 -0.446265 -0.210573 42
-7.29326 -3.93953 2.20873 35
-7.24711 -3.8983 1.59135 12
-7.38234 -3.95956 1.02286 35
-1.69861 -0.555664 0.0305853 52
-7.3948 -3.95963 0.43779 12
-0.680781 -0.223445 -0.0358382 52
-3.14861 -1.68073 -0.0616943 33
-0.832651 -0.272651 -0.103137 47
-0.849464 -0.449663 -0.0808931 53
-0.838032 -0.273924 -0.164277 47
-0.839979 -0.4453 -0.145253 45
-0.832208 -0.271408 -0.225026 45
-0.837317 -0.44495 -0.210573 42
-7.29607 -3.89346 2.20356 35
-7.25375 -3.85465 1.58849 12
-7.33202 -2.3541 0.670663 17
-7.38763 -3.91272 1.02073 35
-1.7014 -0.54706 0.0305853 52
-7.4044 -3.91501 0.437136 9
-0.677186 -0.218354 -0.0355757 52
-3.15045 -1.66126 -0.0615634 33
-0.826977 -0.266019 -0.102225 47
-0.854008 -0.446374 -0.0811106 52
-0.834732 -0.268185 -0.163325 47
-0.840117 -0.43974 -0.144861 45
-0.826669 -0.264992 -0.223086 44
-0.839635 -0.44056 -0.210573 42
-7.29646 -3.87732 2.20162 35
-6.94988 -2.21678 1.14726 1
-7.24595 -3.83268 1.58515 12
-7.32188 -2.33676 0.669356 15
-7.38347 -3.89402 1.0192 35
-1.69292 -0.540757 0.0304108 52
-7.39355 -3.89277 0.436089 8
-0.679945 -0.217929 -0.035707 52
-3.15334 -1.65576 -0.0615634 33
-0.82744 -0.264576 -0.102225 47
-0.850379 -0.442561 -0.0806757 53
-0.823503 -0.263013 -0.160944 47
-0.845251 -0.440578 -0.145644 45
-0.829478 -0.264133 -0.223733 45
-0.840403 -0.439094 -0.210573 42
-7.29381 -3.82543 2.19451 35
-7.23987 -2.26614 1.19331 30
-7.2507 -3.78673 1.58182 12
-7.32967 -2.29562 0.66892 20
-7.38463 -3.8437 1.01647 35
-1.69573 -0.531886 0.0304108 53
-7.40122 -3.8458 0.435304 11
-0.673928 -0.212131 -0.0353131 52
-3.15117 -1.63291 -0.0613452 33
-0.828859 -0.260095 -0.102225 47
-0.850475 -0.436953 -0.0804582 52
-0.831943 -0.260745 -0.162373 47
-0.843243 -0.433717 -0.144861 44
-0.828544 -0.25907 -0.223086 45
-0.840607 -0.433413 -0.210011 41
-7.23748 -2.25154 1.73905 38
-7.29191 -3.80822 2.19193 35
-7.23203 -2.24984 1.19135 33
-7.25077 -3.77067 1.58039 12
-7.3075 -2.27469 0.666524 15
-7.38032 -3.82509 1.01495 35
-1.68949 -0.526699 0.0302799 53
-7.3924 -3.82483 0.434388 11
-0.669529 -0.209473 -0.0350506 52
-3.15179 -1.62626 -0.0613016 35
-0.826942 -0.257913 -0.10192 49
-0.853448 -0.436614 -0.0806757 53
-0.830053 -0.258566 -0.161896 47
-0.839614 -0.429971 -0.144078 44
-0.822073 -0.255484 -0.221146 44
-0.8392 -0.430822 -0.20945 42
-7.23752 -2.21006 1.73624 33
-7.29393 -3.7624 2.18676 35
-7.23624 -2.21104 1.19018 26
-7.26321 -3.73055 1.57896 12
-7.31654 -2.23694 0.666306 15
-7.3775 -3.77636 1.0119 35
-1.69453 -0.518871 0.0303236 53
-7.39611 -3.77941 0.433473 9
-0.680169 -0.208878 -0.0355757 50
-3.14663 -1.60346 -0.0610398 35
-0.830611 -0.254447 -0.102225 49
-0.851287 -0.429871 -0.0802408 53
-0.833699 -0.255076 -0.162373 47
-0.835187 -0.422339 -0.142904 45
-0.832599 -0.254125 -0.223733 45
-0.837036 -0.424343 -0.208327 42
-7.22738 -2.19319 1.73287 32
-7.28545 -3.74193 2.18223 35
-7.23299 -2.19625 1.18901 26
-7.25944 -3.71101 1.57657 12
-7.30614 -2.21983 0.664998 15
-7.37524 -3.75897 1.01069 35
-1.69313 -0.514892 0.0302799 52
-7.3849 -3.75742 0.432426 9
-0.675754 -0.206242 -0.0353131 50
-3.14942 -1.59797 -0.0610398 35
-0.826303 -0.251559 -0.101616 49
-0.852036 -0.428385 -0.0802408 52
-0.827095 -0.25149 -0.160944 49
-0.840322 -0.423125 -0.143687 45
-0.826149 -0.250436 -0.221793 45
-0.839944 -0.42399 -0.208888 42
-7.23681 -2.15336 1.73231 33
-7.29267 -3.6959 2.17836 35
-7.2424 -2.15638 1.18862 26
-7.26563 -3.6663 1.57371 11
-7.31565 -2.17956 0.66478 15
-7.37774 -3.71008 1.00825 35
-1.69101 -0.504594 0.0301927 53
-7.3962 -3.71293 0.431902 8
-0.672038 -0.201278 -0.0350506 50
-0.827652 -0.247085 -0.101616 49
-0.852042 -0.4228 -0.0800233 52
-0.826091 -0.246314 -0.160468 50
-0.833704 -0.414278 -0.142121 45
-0.827448 -0.246107 -0.221793 47
-0.833526 -0.415051 -0.206642 42
-7.23084 -2.13922 1.73007 33
-7.29049 -3.67881 2.17577 35
-7.23868 -2.1429 1.18745 26
-7.26763 -3.65141 1.57276 11
-7.30989 -2.16396 0.663909 14
-7.37247 -3.69292 1.00673 35
-1.6847 -0.499515 0.0300618 53
-7.39309 -3.69683 0.431379 8
-0.674783 -0.200812 -0.0351819 49
-0.82328 -0.24438 -0.101008 49
-0.852779 -0.421312 -0.0800233 52
-0.831228 -0.246258 -0.16142 49
-0.836633 -0.413929 -0.142512 45
-0.82556 -0.243982 -0.221146 47
-0.840707 -0.417022 -0.208327 42
-7.23492 -2.0993 1.72838 33
-7.28524 -3.63 2.16866 33
-7.24506 -2.1036 1.18667 26
-7.27283 -3.60803 1.5699 11
-7.31358 -2.12485 0.663255 12
-7.37169 -3.64436 1.00399 35
-1.6872 -0.490982 0.0300618 55
-7.3922 -3.64812 0.430202 8
-0.675791 -0.197394 -0.0351819 50
-0.826931 -0.240756 -0.101312 49
-0.845969 -0.412578 -0.0791535 53
-0.832463 -0.242048 -0.16142 49
-0.83215 -0.406258 -0.141338 45
-0.826784 -0.2398 -0.221146 47
-0.836332 -0.409367 -0.206642 42
-7.22416 -2.08388 1.72501 33
-7.28724 -3.61513 2.16737 35
-7.24397 -2.08958 1.18589 26
-7.27472 -3.59315 1.56895 11
-7.31727 -2.11208 0.663255 12
-7.36914 -3.6271 1.00278 35
-1.68566 -0.487344 0.0300181 55
-7.38736 -3.6297 0.429547 8
-0.671336 -0.194832 -0.0349193 49
-0.824965 -0.238626 -0.101008 49
-0.851157 -0.413299 -0.0795884 52
-0.823449 -0.237885 -0.159516 47
-0.835072 -0.405896 -0.141729 45
-0.822558 -0.237027 -0.219853 45
-0.839229 -0.408986 -0.207204 44
-7.23533 -2.04477 1.72501 33
-7.28439 -3.56629 2.16091 35
-7.25244 -2.05095 1.1855 27
-7.28241 -3.54963 1.56656 11
-7.33063 -2.07442 0.663473 12
-7.36571 -3.57761 0.999734 35
-1.68818 -0.478511 0.0300181 53
-7.39279 -3.58443 0.428762 4
-0.672381 -0.191197 -0.0349193 49
-0.828592 -0.234977 -0.101312 49
-0.846658 -0.405427 -0.078936 53
-0.831771 -0.235565 -0.160944 47
-0.826082 -0.396121 -0.139772 45
-0.823788 -0.232717 -0.219853 47
-0.830409 -0.39925 -0.204396 42
-7.21778 -2.02621 1.71996 33
-7.28192 -3.54933 2.15832 36
-7.25363 -2.03762 1.18511 27
-7.28038 -3.53135 1.56466 11
-7.36748 -3.56259 0.999125 35
-1.67947 -0.472569 0.0298436 53
-7.38779 -3.56609 0.428108 4
-0.670309 -0.18935 -0.034788 50
-0.821832 -0.231523 -0.100399 49
-0.85185 -0.406115 -0.079371 52
-0.827453 -0.232792 -0.159992 49
-0.831218 -0.39683 -0.140555 47
-0.821907 -0.230487 -0.219206 45
-0.83768 -0.40099 -0.206081 42
-7.21454 -1.98326 1.71659 32
-7.28361 -3.5015 2.15315 35
-7.25978 -1.99704 1.18433 27
-7.28106 -3.4847 1.56085 11
-7.37321 -3.51626 0.9973 36
-1.68675 -0.465094 0.0299309 53
-7.40022 -3.52284 0.427716 4
-0.673699 -0.186499 -0.0349193 50
-0.827859 -0.228386 -0.101008 49
-0.849468 -0.399506 -0.078936 52
-0.831068 -0.228959 -0.160468 50
-0.833284 -0.392472 -0.140555 45
-0.830091 -0.228088 -0.221146 47
-0.833245 -0.393298 -0.204396 41
-7.2106 -1.97 1.7149 35
-7.27882 -3.48356 2.14992 35
-7.25815 -1.98433 1.18355 26
-7.28714 -3.47199 1.56085 9
-7.36752 -3.49934 0.995778 35
-1.68273 -0.460833 0.0298436 53
-0.671615 -0.184665 -0.034788 50
-0.821034 -0.225128 -0.100095 50
-0.852414 -0.39909 -0.0791535 52
-0.819625 -0.224289 -0.158087 49
-0.836198 -0.392077 -0.140946 45
-0.821165 -0.224111 -0.21856 47
-0.83826 -0.394084 -0.205519 44
-7.21375 -1.93033 1.71322 33
-7.27453 -3.43635 2.14346 35
-7.27082 -1.94694 1.18394 29
-7.29129 -3.42878 1.55799 11
-7.35879 -3.44807 0.992128 35
-1.68504 -0.45231 0.0298436 55
-0.677396 -0.182435 -0.0350506 52
-0.824599 -0.221466 -0.100399 49
-0.840958 -0.388287 -0.0778488 53
-0.827864 -0.222034 -0.159516 50
-0.827061 -0.382453 -0.138989 47
-0.824623 -0.220572 -0.219206 45
-0.835903 -0.387617 -0.204396 42
-7.21476 -1.91711 1.71266 33
-7.27615 -3.42159 2.14217 35
-7.26228 -1.93107 1.18199 29
-7.2912 -3.41165 1.55656 11
-7.35355 -3.42997 0.990606 33
-1.68591 -0.449074 0.0298436 55
-0.820187 -0.218755 -0.0997908 49
-0.848407 -0.389974 -0.0785011 53
-0.823505 -0.219333 -0.158563 47
-0.83444 -0.384141 -0.140163 45
-0.820375 -0.217757 -0.217913 45
-0.838785 -0.38719 -0.204957 42
-7.22031 -1.87682 1.71154 33
-7.27484 -3.37302 2.13635 33
-7.2774 -1.893 1.18277 30
-7.29559 -3.36725 1.5537 11
-7.36073 -3.38494 0.989085 33
-1.69066 -0.440869 0.0298872 56
-0.828565 -0.216182 -0.100704 50
-0.841385 -0.381367 -0.0776313 53
-0.829432 -0.216104 -0.159516 50
-0.829711 -0.376669 -0.138989 47
-0.82618 -0.214666 -0.219206 47
-0.829807 -0.377543 -0.20215 44
-7.20909 -1.86183 1.70817 33
-7.26975 -3.35525 2.13312 35
-7.27319 -1.87971 1.1816 30
-7.30592 -3.35657 1.55465 12
-7.35927 -3.37027 0.988172 35
-1.68174 -0.435419 0.0297127 55
-0.674128 -0.17527 -0.034788 53
-0.819291 -0.212405 -0.0994866 49
-0.848844 -0.383006 -0.0782837 53
-0.820299 -0.212213 -0.157611 49
-0.832612 -0.376249 -0.13938 49
-0.821875 -0.212025 -0.217913 47
-0.834826 -0.378273 -0.203273 44
-7.21166 -1.82227 1.70648 33
-7.27566 -3.3134 2.12989 35
-7.28772 -1.84281 1.18238 30
-7.29823 -3.30838 1.54941 14
-7.36326 -3.32556 0.986347 33
-1.68877 -0.428126 0.0298 55
-0.675036 -0.171738 -0.034788 53
-2.06143 -0.924666 -0.0388316 4
-0.822799 -0.208719 -0.0997908 50
-0.844027 -0.375484 -0.0776313 52
-0.828503 -0.209854 -0.159039 50
-0.832321 -0.370868 -0.138989 49
-0.822937 -0.207862 -0.217913 47
-0.832358 -0.371886 -0.20215 44
-7.20774 -1.8079 1.7048 33
-7.27043 -3.2957 2.12666 35
-7.28374 -1.82829 1.18121 30
-7.28892 -3.28729 1.54607 14
-7.31889 -1.83845 0.657154 12
-7.35321 -3.30557 0.984217 33
-1.68474 -0.423668 0.0297127 56
-0.675335 -0.17056 -0.034788 53
-2.07445 -0.926186 -0.0390498 4
-0.825569 -0.207884 -0.100095 50
-0.844681 -0.37401 -0.0776313 53
-0.824106 -0.207219 -0.158087 50
-0.828463 -0.367389 -0.138206 47
-0.825678 -0.206865 -0.21856 47
-0.824123 -0.366426 -0.199904 42
-7.21505 -1.7683 1.70424 33
-7.27273 -3.24941 2.12214 35
-7.28873 -1.78768 1.18043 30
-7.28361 -3.2391 1.54131 20
-7.29729 -1.79111 0.654322 14
-7.36191 -3.26171 0.983 33
-1.68693 -0.414841 0.0297127 56
-0.676219 -0.167021 -0.034788 53
-2.08628 -0.917983 -0.0391806 4
-0.821861 -0.202237 -0.0994866 50
-0.844351 -0.368574 -0.0774139 53
-0.827599 -0.203339 -0.158563 50
-0.828118 -0.362045 -0.137814 47
-0.829097 -0.203109 -0.219206 47
-0.823867 -0.360972 -0.199342 42
-7.21072 -1.75523 1.70255 33
-7.26736 -3.2318 2.11891 35
-7.29153 -1.77623 1.18043 30
-7.27579 -3.22041 1.53845 35
-7.3004 -1.77837 0.654322 18
-7.35114 -3.24312 0.980871 33
-1.68523 -0.411305 0.0296691 55
-0.674083 -0.165251 -0.0346568 55
-2.09475 -0.917363 -0.0393115 4
-0.817355 -0.199775 -0.0988781 50
-0.844993 -0.3671 -0.0774139 53
-0.823182 -0.200739 -0.157611 50
-0.828749 -0.360599 -0.137814 47
-0.831798 -0.202229 -0.219853 50
-0.826661 -0.360663 -0.199904 42
-7.21744 -1.71689 1.70199 35
-7.27699 -3.19206 2.11697 35
-7.29352 -1.73631 1.17926 32
-7.26951 -3.17371 1.53368 35
-7.29719 -1.73852 0.653232 20
-7.35437 -3.19864 0.979045 33
-1.68486 -0.402192 0.0296255 56
-3.14742 -1.36332 0.177942 3
-0.67251 -0.161143 -0.0345255 53
-2.09936 -0.906749 -0.0393115 4
-0.828047 -0.197783 -0.100095 52
-0.842335 -0.360686 -0.076979 53
-0.824188 -0.19657 -0.157611 50
-0.828362 -0.355269 -0.137423 47
-0.82811 -0.196907 -0.21856 47
-0.824073 -0.354381 -0.198781 42
-7.21094 -1.70206 1.69974 33
-7.26042 -3.16968 2.1105 35
-7.29414 -1.72301 1.17887 32
-7.25984 -3.1529 1.53034 35
-7.29779 -1.7252 0.653014 20
-7.35311 -3.18284 0.978132 33
-1.68806 -0.39953 0.0296691 56
-3.14063 -1.35386 0.177419 3
-0.677651 -0.161114 -0.034788 53
-0.825976 -0.195769 -0.0997908 50
-0.842963 -0.359215 -0.076979 53
-0.826919 -0.195692 -0.158087 50
-0.82898 -0.353823 -0.137423 49
-0.826135 -0.194766 -0.217913 47
-0.822456 -0.351971 -0.198219 42
-7.21767 -1.66247 1.69918 33
-7.27303 -3.12844 2.10921 33
-7.30095 -1.68297 1.17848 33
-7.26723 -3.11097 1.52844 35
-7.29246 -1.68234 0.651707 18
-7.35882 -3.13813 0.976611 33
-1.69013 -0.390686 0.0296691 56
-3.13872 -1.33293 0.176896 3
-0.671186 -0.155884 -0.0343942 53
-0.827023 -0.191297 -0.0997908 53
-0.84025 -0.352844 -0.076544 53
-0.823181 -0.190119 -0.157135 50
-0.828551 -0.348508 -0.137031 47
-0.827143 -0.190438 -0.217913 47
-0.824348 -0.347516 -0.198219 44
-7.21315 -1.6495 1.6975 33
-7.26516 -3.11003 2.10533 33
-7.29636 -1.66984 1.17731 33
-7.25233 -3.08962 1.52415 35
-7.2881 -1.66794 0.651053 17
-7.34547 -3.1188 0.974177 32
-1.68593 -0.386622 0.0295818 58
-0.673891 -0.155268 -0.0345255 55
-0.829742 -0.190549 -0.100095 52
-0.838571 -0.350405 -0.0763266 53
-0.825905 -0.189226 -0.157611 50
-0.829158 -0.347061 -0.137031 47
-0.825119 -0.18846 -0.217266 47
-0.820411 -0.344311 -0.197096 44
-7.21217 -1.60959 1.69525 33
-7.26969 -3.06852 2.1021 33
-7.30019 -1.63054 1.17653 33
-7.25883 -3.04906 1.52224 33
-7.29888 -1.63158 0.651271 15
-7.34797 -3.07454 0.972352 33
-1.68787 -0.378084 0.0295818 58
-0.674668 -0.151855 -0.0345255 53
-0.821039 -0.184047 -0.0988781 50
-0.840334 -0.346156 -0.0763266 53
-0.826852 -0.185043 -0.157611 50
-0.826409 -0.340808 -0.136248 47
-0.818989 -0.182716 -0.215327 47
-0.822202 -0.340011 -0.197096 45
-7.21231 -1.59773 1.69469 35
-7.2639 -3.05114 2.09887 33
-7.30061 -1.61726 1.17614 33
-7.25735 -3.03355 1.52081 33
-7.29199 -1.61668 0.6504 15
-7.34187 -3.05694 0.970831 33
-1.68852 -0.375138 0.0295818 56
-0.670057 -0.149599 -0.0342629 53
-0.823782 -0.183148 -0.0991823 50
-0.840937 -0.344688 -0.0763266 53
-0.82238 -0.182544 -0.156659 50
-0.827002 -0.339365 -0.136248 47
-0.821665 -0.181804 -0.215973 47
-0.818299 -0.336697 -0.195973 44
-7.2018 -1.55458 1.6902 33
-7.26193 -3.00566 2.0937 33
-7.30173 -1.57745 1.17497 33
-7.25271 -2.98708 1.51652 33
-7.29792 -1.57795 0.650182 15
-7.3486 -3.01468 0.969614 32
-1.68558 -0.365237 0.0294946 56
-0.675738 -0.147023 -0.0345255 53
-0.838181 -0.338245 -0.0758917 53
-0.828124 -0.179266 -0.157611 52
-0.826483 -0.334092 -0.135856 47
-0.820245 -0.176994 -0.215327 47
-0.817798 -0.33148 -0.195412 42
-7.19736 -1.54048 1.68851 33
-7.2627 -2.99114 2.09241 35
-7.30206 -1.56419 1.17457 35
-7.25162 -2.97036 1.51509 33
-7.29092 -1.56312 0.64931 15
-7.34006 -2.99622 0.967788 32
-1.68872 -0.362523 0.0295382 58
-0.673552 -0.145322 -0.0343942 53
-0.841076 -0.337722 -0.0761091 53
-0.826035 -0.17731 -0.157135 50
-0.827065 -0.332649 -0.135856 47
-0.820583 -0.175419 -0.215327 47
-0.820629 -0.330976 -0.195973 44
-7.2032 -1.50102 1.68795 33
-7.26759 -2.94726 2.08918 35
-7.30075 -1.52264 1.17301 35
-7.25797 -2.92867 1.51319 35
-7.30171 -1.52416 0.649528 17
-7.35387 -2.95553 0.967484 32
-1.67836 -0.351126 0.02932 58
-0.669415 -0.140776 -0.0341317 53
-0.842833 -0.333313 -0.0761091 55
-0.822176 -0.171842 -0.156182 50
-0.826505 -0.327393 -0.135465 47
-0.823855 -0.171608 -0.215973 49
-0.820149 -0.325619 -0.195412 42
-7.19124 -1.48675 1.68458 33
-7.26601 -2.93186 2.08724 35
-7.29588 -1.50967 1.17184 35
-7.25852 -2.91416 1.51223 36
-7.29217 -1.5089 0.648439 18
-7.34468 -2.93844 0.965659 33
-1.67652 -0.347691 0.0292764 55
-0.667215 -0.139103 -0.0340004 53
-0.823829 -0.171128 -0.0988781 50
-0.845726 -0.332766 -0.0763266 53
-0.815262 -0.168925 -0.154754 50
-0.83166 -0.327785 -0.136248 47
-0.817056 -0.168717 -0.214033 47
-0.825181 -0.326146 -0.196535 41
-7.20609 -1.45051 1.68627 35
-7.26505 -2.88879 2.08272 35
-7.0495 -1.42029 1.13087 1
-7.25721 -2.87106 1.5089 35
-7.29483 -1.47098 0.648003 26
-7.34612 -2.89448 0.963833 29
-1.68071 -0.339694 0.02932 56
-0.672829 -0.136591 -0.0342629 53
-0.824713 -0.166812 -0.0988781 53
-0.838186 -0.324685 -0.0754568 53
-0.825733 -0.166723 -0.156659 50
-0.828771 -0.321615 -0.135465 47
-0.827372 -0.166469 -0.21662 49
-0.817816 -0.318237 -0.194288 41
-7.19905 -1.43603 1.68402 36
-7.26559 -2.87432 2.08143 33
-7.03986 -1.40557 1.12892 1
-7.28273 -1.45532 0.646696 33
-1.67646 -0.335489 0.0292328 58
-0.663273 -0.133466 -0.0337378 53
-0.820136 -0.164405 -0.0982696 50
-0.84339 -0.325038 -0.0758917 53
-0.818801 -0.163849 -0.15523 50
-0.836226 -0.322873 -0.136639 47
-0.822952 -0.163945 -0.215327 50
-0.820637 -0.317701 -0.19485 39
-7.19954 -1.39567 1.68234 33
-7.05221 -1.3684 1.1297 1
-7.04601 -1.36846 0.624907 1
-1.68065 -0.327183 0.0292764 58
-1.69953 -0.650327 0.0935505 26
-0.668864 -0.130941 -0.0340004 53
-0.828322 -0.161377 -0.0991823 53
-0.842757 -0.319722 -0.0756742 53
-0.824495 -0.160345 -0.156182 52
-0.826389 -0.314041 -0.134682 47
-0.826171 -0.160089 -0.215973 50
-0.8178 -0.311497 -0.193727 42
-7.19933 -1.3839 1.68177 35
-7.0301 -1.35266 1.1258 1
-3.16146 -1.21535 0.651028 9
-7.02393 -1.35146 0.622728 1
-3.09116 -1.18392 0.401597 11
-1.67876 -0.323778 0.0292328 58
-1.71454 -0.653025 0.0943356 47
-0.664188 -0.128832 -0.0337378 53
-1.70759 -0.649341 -0.0312834 39
-0.8237 -0.159142 -0.0985738 53
-0.840988 -0.317358 -0.0754568 53
-0.817542 -0.157525 -0.154754 50
-0.829241 -0.313484 -0.135073 49
-0.814587 -0.15639 -0.21274 47
-0.818288 -0.310212 -0.193727 42
-7.20169 -1.34529 1.68065 36
-7.03708 -1.31583 1.1258 1
-3.14692 -1.19148 0.646738 2
-7.03068 -1.3159 0.622728 1
-3.12052 -1.1765 0.40464 11
-1.68038 -0.315276 0.0292328 58
-0.66974 -0.126385 -0.0340004 53
-1.70384 -0.638041 -0.0311525 53
-0.824522 -0.154827 -0.0985738 53
-0.840253 -0.312218 -0.0752393 53
-0.825567 -0.15473 -0.156182 52
-0.826252 -0.307391 -0.13429 47
-0.822492 -0.153583 -0.21468 50
-0.826734 -0.308516 -0.195412 44
-7.19181 -1.33176 1.67784 36
-7.02966 -1.30175 1.12424 1
-3.12834 -1.17818 0.642449 2
-7.02317 -1.30181 0.621856 1
-3.12025 -1.17018 0.404335 2
-1.67355 -0.310979 0.0291019 58
-0.667505 -0.124762 -0.0338691 53
-0.819911 -0.152489 -0.0979654 53
-0.843129 -0.311627 -0.0754568 53
-0.816181 -0.151513 -0.154278 52
-0.829098 -0.306818 -0.134682 47
-0.818008 -0.151277 -0.213387 47
-0.824993 -0.306213 -0.19485 44
-7.20851 -1.29455 1.68009 36
-7.03395 -1.26449 1.12385 1
-3.14596 -1.16606 0.644832 2
-7.02499 -1.26414 0.62142 1
-3.12633 -1.15383 0.404335 3
-1.67516 -0.302212 0.0291019 59
-1.70131 -0.624234 0.093158 47
-0.66817 -0.121149 -0.0338691 55
-0.828026 -0.149504 -0.0988781 53
-0.84013 -0.305334 -0.0750219 53
-0.824211 -0.148531 -0.155706 52
-0.826062 -0.300758 -0.133899 47
-0.818789 -0.146992 -0.213387 47
-0.81745 -0.298495 -0.192604 42
-7.20116 -1.28026 1.67784 36
-7.02885 -1.25092 1.12268 1
-3.12748 -1.15235 0.640543 2
-7.02473 -1.25144 0.621203 1
-3.12369 -1.14665 0.403727 11
-1.66835 -0.297684 0.028971 65
-1.70709 -0.622988 0.0934197 47
-0.665922 -0.119546 -0.0337378 53
-1.7023 -0.620561 -0.0310216 50
-0.820955 -0.146761 -0.0979654 50
-0.840662 -0.303867 -0.0750219 53
-0.83122 -0.301022 -0.134682 47
-0.816691 -0.145002 -0.21274 47
-0.82254 -0.298757 -0.193727 42
-7.20318 -1.24046 1.67672 36
-7.03308 -1.21245 1.12228 1
-3.145 -1.14016 0.642926 2
-7.02894 -1.21299 0.620985 1
-3.12984 -1.12973 0.403727 2
-1.67235 -0.289369 0.0290146 44
-1.70339 -0.611195 0.0930272 47
-0.666539 -0.116058 -0.0337378 55
-1.69858 -0.608793 -0.0308908 52
-0.821737 -0.142317 -0.0979654 50
-0.837557 -0.297768 -0.074587 53
-0.82582 -0.294142 -0.133507 47
-0.824581 -0.14194 -0.21468 50
-0.814986 -0.290974 -0.191481 44
-7.19071 -1.22669 1.67335 35
-7.03011 -1.20057 1.1215 1
-3.13776 -1.13133 0.641019 2
-7.04087 -1.20239 0.621856 1
-3.11994 -1.12061 0.402206 2
-1.68024 -0.28771 0.0291455 14
-1.70435 -0.608518 0.0930272 47
-0.661818 -0.114057 -0.0334753 53
-1.70435 -0.607519 -0.030978 52
-0.824406 -0.141442 -0.0982696 50
-0.842762 -0.297991 -0.0750219 53
-0.826332 -0.2927 -0.133507 47
-0.817684 -0.139296 -0.21274 47
-0.820024 -0.29135 -0.192604 45
-7.19704 -1.18902 1.67335 35
-7.02899 -1.16254 1.12033 1
-3.13882 -1.11378 0.640066 2
-7.04932 -1.16715 0.622074 1
-3.12343 -1.10342 0.401901 2
-1.71127 -0.28409 0.0296691 12
-1.6981 -0.596253 0.0925038 49
-0.667333 -0.111402 -0.0337378 55
-1.69798 -0.59555 -0.0308035 52
-0.820239 -0.136318 -0.0976611 53
-0.841963 -0.292744 -0.0748044 53
-0.826205 -0.137009 -0.155706 52
-0.825526 -0.287545 -0.133116 49
-0.820762 -0.135545 -0.213387 47
-0.807766 -0.282154 -0.189235 42
-6.94424 -1.13486 1.61383 1
-7.30396 -1.19487 1.16404 39
-7.03906 -1.15283 0.620985 1
-3.10663 -1.09136 0.399467 2
-1.70149 -0.594117 0.0926346 50
-0.66999 -0.110639 -0.0338691 55
-1.70137 -0.593415 -0.0308471 52
-0.820475 -0.134886 -0.0976611 53
-0.837774 -0.289621 -0.0743695 53
-0.821598 -0.13478 -0.154754 50
-0.823698 -0.285283 -0.132724 47
-0.825788 -0.134739 -0.21468 50
-0.812851 -0.282369 -0.190358 44
-7.20295 -1.13711 1.67279 36
-7.02493 -1.11028 1.11838 1
-7.28627 -1.15283 0.642338 36
-3.1078 -1.07291 0.398859 2
-1.69996 -0.58327 0.092373 49
-0.67056 -0.107129 -0.0338691 55
-1.70219 -0.583385 -0.0308035 52
-0.823644 -0.13083 -0.0979654 53
-0.836925 -0.284416 -0.074152 53
-0.81989 -0.129953 -0.154278 50
-0.825181 -0.280966 -0.132724 47
-0.82171 -0.129669 -0.213387 49
-0.818969 -0.279567 -0.191481 45
-7.1951 -1.12429 1.67054 35
-7.02179 -1.09849 1.1176 1
-7.28827 -1.14011 0.642338 32
-3.11183 -1.06884 0.399163 3
-1.69851 -0.579786 0.0922421 49
-0.673213 -0.106343 -0.0340004 56
-1.69848 -0.578788 -0.0307162 53
-0.823849 -0.129536 -0.0979654 53
-0.835065 -0.282145 -0.0739346 53
-0.820116 -0.128522 -0.154278 50
-0.823335 -0.27872 -0.132333 47
-0.819549 -0.127866 -0.21274 49
-0.814802 -0.276687 -0.190358 45
-7.21775 -1.08914 1.67447 27
-7.3058 -1.1037 1.16209 41
-7.28164 -1.10135 0.641248 29
-3.14088 -1.0605 0.402206 3
-1.69916 -0.570084 0.0921113 49
-0.661399 -0.101074 -0.033344 56
-1.69902 -0.569383 -0.0306726 53
-0.819608 -0.124483 -0.0973569 53
-0.834124 -0.277117 -0.0737171 53
-0.823183 -0.124733 -0.154754 50
-0.827122 -0.275198 -0.132724 47
-0.822574 -0.124073 -0.213387 49
-0.818546 -0.273201 -0.190919 45
-7.13753 -1.06559 1.65538 14
-7.29794 -1.08949 1.16053 39
-7.02245 -1.04966 0.618152 1
-1.69779 -0.566321 0.0919804 49
-0.656636 -0.0991843 -0.0330815 58
-1.69527 -0.564824 -0.0305853 53
-0.822279 -0.123417 -0.0976611 53
-0.832245 -0.274866 -0.0734997 53
-0.818544 -0.122577 -0.153802 52
-0.822921 -0.272177 -0.131941 47
-0.8204 -0.122285 -0.21274 50
-0.812099 -0.269432 -0.189235 44
-7.07085 -1.01657 1.63854 26
-7.02491 -1.01121 1.11604 1
-7.00813 -1.01004 0.616409 1
-1.69599 -0.555856 0.0917188 49
-1.69109 -0.553588 -0.0304544 52
-0.822913 -0.11911 -0.0976611 53
-0.836085 -0.271141 -0.0737171 53
-0.816745 -0.117943 -0.153325 52
-0.824335 -0.267865 -0.131941 47
-0.818638 -0.117648 -0.212093 50
-0.818122 -0.266712 -0.190358 45
-7.07503 -1.00457 1.6391 26
-7.02422 -0.998604 1.11565 1
-7.00988 -0.997805 0.616409 1
-1.69696 -0.552895 0.0917188 49
-1.6873 -0.549076 -0.0303672 53
-0.818206 -0.116979 -0.0970526 53
-0.831825 -0.268127 -0.0732822 53
-0.81938 -0.11686 -0.153802 52
-0.822456 -0.265654 -0.13155 47
-0.814079 -0.115407 -0.2108 49
-0.81396 -0.263756 -0.189235 45
-7.06588 -0.964302 1.63573 26
-7.02218 -0.959584 1.11448 1
-7.00531 -0.958515 0.615537 1
-7.03216 -2.27035 0.901768 1
-1.69517 -0.542172 0.0914571 49
-0.66771 -0.0923883 -0.0336066 53
-1.69501 -0.541472 -0.0304544 53
-0.835587 -0.264533 -0.0734997 53
-0.82 -0.112425 -0.153802 50
-0.826231 -0.261959 -0.131941 47
-0.817066 -0.111465 -0.211447 49
-0.815375 -0.259348 -0.189235 45
-7.06738 -0.953202 1.63573 26
-7.01895 -0.946667 1.1137 1
-6.94672 -2.23998 1.41072 1
-7.00697 -0.946287 0.615537 1
-7.05265 -2.26339 0.903898 1
-3.11368 -0.420725 0.0542333 35
-1.69611 -0.539213 0.0914571 50
-0.66787 -0.0912228 -0.0336066 53
-1.69119 -0.536988 -0.0303672 53
-0.833676 -0.262313 -0.0732822 53
-0.820195 -0.110993 -0.153802 50
-0.824336 -0.259762 -0.13155 49
-0.817259 -0.110039 -0.211447 47
-0.818145 -0.258672 -0.189796 45
-7.0602 -0.914622 1.63292 26
-6.97267 -2.22281 1.94895 1
-7.0114 -0.909543 1.11175 1
-7.24099 -2.29468 1.46839 42
-7.00673 -0.910169 0.615102 1
-7.09004 -2.23589 0.907244 1
-3.11329 -0.404638 0.0541897 30
-1.70358 -0.532122 0.0917188 50
-0.658434 -0.0864453 -0.0330815 55
-1.68912 -0.526919 -0.0302799 53
-0.824496 -0.107609 -0.0976611 55
-0.832663 -0.257197 -0.0730648 53
-0.818312 -0.106528 -0.153325 50
-0.82564 -0.255586 -0.13155 49
-0.820201 -0.106207 -0.212093 49
-0.810154 -0.251584 -0.18755 44
-7.06903 -0.903223 1.63461 26
-7.24354 -2.29544 2.02391 41
-7.01543 -0.897617 1.11214 1
-7.23836 -2.27856 1.46696 38
-7.00831 -0.897938 0.615102 1
-7.3283 -2.29714 0.937364 33
-3.10911 -0.398028 0.0541025 18
-1.69975 -0.527655 0.0914571 50
-0.663537 -0.085927 -0.033344 55
-1.69242 -0.524717 -0.0303236 53
-0.819759 -0.105544 -0.0970526 55
-0.830734 -0.254999 -0.0728473 53
-0.818497 -0.105099 -0.153325 52
-0.821373 -0.252666 -0.130767 49
-0.818007 -0.10433 -0.211447 50
-0.812916 -0.250902 -0.188112 47
-7.06898 -0.864373 1.63348 26
-7.24893 -2.25406 2.02197 36
-7.02018 -0.859647 1.11214 1
-7.23378 -2.23555 1.46362 32
-7.0007 -0.858494 0.614012 1
-7.3264 -2.25307 0.935539 32
-3.10619 -0.381137 0.0540152 24
-1.6978 -0.516983 0.0911954 50
-0.6615 -0.082149 -0.0332127 55
-1.69045 -0.514085 -0.0302363 53
-0.820319 -0.101107 -0.0970526 55
-0.827296 -0.249183 -0.0724124 53
-0.82149 -0.100965 -0.153802 52
-0.825045 -0.249089 -0.131158 49
-0.818542 -0.100046 -0.211447 49
-0.818917 -0.247938 -0.189235 45
-7.06791 -0.852976 1.63292 27
-7.23902 -2.23711 2.0181 33
-7.02152 -0.848619 1.11214 1
-7.22829 -2.22003 1.46171 32
-7.00961 -0.847169 0.614666 1
-7.32044 -2.23865 0.934322 32
-3.10933 -0.376014 0.0540588 29
-1.69623 -0.513586 0.0910646 50
-0.656685 -0.080398 -0.0329502 56
-1.69135 -0.511134 -0.0302363 53
-0.82294 -0.100114 -0.0973569 55
-0.830112 -0.248466 -0.0726299 53
-0.814354 -0.0986576 -0.152373 52
-0.823117 -0.246926 -0.130767 49
-0.823512 -0.0991865 -0.21274 50
-0.812319 -0.244505 -0.18755 47
-7.06502 -0.815121 1.63124 27
-7.23869 -2.19693 2.01487 33
-7.02342 -0.81156 1.11175 1
-7.23238 -2.18129 1.46028 32
-7.00638 -0.810822 0.614012 1
-7.32018 -2.19672 0.932801 32
-3.11119 -0.360271 0.0540588 30
-1.6965 -0.50398 0.0909337 49
-0.657097 -0.0769585 -0.0329502 56
-1.68912 -0.501132 -0.030149 53
-0.816057 -0.0949559 -0.0964442 55
-0.82663 -0.242686 -0.0721949 53
-0.817281 -0.0948132 -0.152849 52
-0.824399 -0.242612 -0.130767 49
-0.816805 -0.0941995 -0.2108 50
-0.813588 -0.240248 -0.18755 45
-7.06643 -0.802789 1.63124 26
-7.23558 -2.1822 2.01293 33
-7.01992 -0.798743 1.11097 1
-7.22011 -2.16246 1.45695 30
-7.00036 -0.797748 0.613359 1
-7.31211 -2.18038 0.931279 32
-3.10939 -0.354016 0.0540152 29
-1.69738 -0.501018 0.0909337 50
-0.652269 -0.0752498 -0.0326876 56
-1.69 -0.498183 -0.030149 56
-0.821153 -0.0940881 -0.0970526 55
-0.822278 -0.239822 -0.07176 52
-0.817445 -0.0933867 -0.152849 52
-0.820089 -0.239761 -0.129984 49
-0.816984 -0.0926312 -0.2108 50
-0.814006 -0.238828 -0.18755 47
-7.06098 -0.763499 1.62899 26
-7.23571 -2.13958 2.0097 33
-7.01923 -0.760219 1.11019 1
-7.23368 -2.12532 1.45742 33
-7.00953 -0.760397 0.613794 1
-7.31904 -2.13939 0.930671 32
-3.10872 -0.337462 0.0539716 26
-1.69527 -0.490427 0.090672 50
-0.655136 -0.0721014 -0.0328189 56
-1.69027 -0.488332 -0.0301054 56
-0.82165 -0.0896438 -0.0970526 55
-0.816351 -0.233419 -0.0711077 52
-0.815498 -0.0887013 -0.152373 52
-0.823703 -0.236157 -0.130375 49
-0.81986 -0.0886075 -0.211447 50
-0.815286 -0.23442 -0.18755 47
-6.85384 -0.730253 1.5807 1
-7.2348 -2.12559 2.0084 33
-7.0155 -0.74867 1.10941 1
-7.22796 -2.10993 1.45552 33
-7.28078 -0.776914 0.637544 36
-7.31524 -2.12581 0.929758 32
-3.10433 -0.331507 0.0538843 21
-1.69364 -0.487067 0.0905412 50
-0.657744 -0.0712214 -0.0329502 56
-1.69112 -0.485381 -0.0301054 56
-0.819322 -0.088092 -0.0967484 55
-0.819149 -0.232687 -0.0713251 52
-0.818093 -0.0875348 -0.152849 52
-0.821743 -0.23403 -0.129984 49
-0.820013 -0.0871765 -0.211447 50
-0.810977 -0.231774 -0.186427 47
-6.85272 -0.693866 1.57958 1
-7.2385 -2.08693 2.00647 33
-7.00213 -0.710186 1.10668 1
-7.22911 -2.07061 1.45361 33
-7.27223 -0.738797 0.636455 36
-7.31434 -2.08407 0.928237 32
-3.101 -0.315287 0.053797 17
-1.69617 -0.478192 0.0905412 52
-0.658096 -0.0678914 -0.0329502 56
-1.69355 -0.476815 -0.0301054 59
-0.820316 -0.228538 -0.0713251 52
-0.813641 -0.0829038 -0.151897 53
-0.820582 -0.229047 -0.129592 49
-0.818041 -0.0827859 -0.2108 50
-0.809837 -0.226854 -0.185866 44
-6.84895 -0.682619 1.57845 1
-7.23053 -2.07096 2.00323 33
-7.00336 -0.697963 1.10668 1
-7.22799 -2.05665 1.45266 33
-7.28342 -0.727091 0.637326 32
-7.30842 -2.0686 0.92702 32
-3.10403 -0.310121 0.0538407 14
-1.6946 -0.474551 0.0904104 50
-0.658213 -0.0667427 -0.0329502 58
-1.69438 -0.473858 -0.0301054 74
-0.818317 -0.226429 -0.0711077 52
-0.813785 -0.0814836 -0.151897 52
-0.823357 -0.228287 -0.129984 49
-0.822991 -0.0818277 -0.212093 52
-0.814918 -0.226773 -0.186989 47
-6.8477 -0.645097 1.57733 1
-7.24592 -2.03438 2.00453 33
-6.99708 -0.660359 1.10512 1
-7.23866 -2.01877 1.45266 35
-7.27225 -0.687541 0.636019 36
-7.32393 -2.03163 0.927629 35
-3.09566 -0.292927 0.0536661 12
-1.69947 -0.466339 0.0905412 50
-0.658565 -0.0631804 -0.0329502 58
-1.69684 -0.46498 -0.0301054 90
-0.810455 -0.077152 -0.0955314 55
-0.826731 -0.223992 -0.07176 52
-0.8142 -0.0772215 -0.151897 52
-0.822161 -0.223312 -0.129592 49
-0.816194 -0.0768507 -0.210153 50
-0.813748 -0.221849 -0.186427 45
-6.92886 -0.640528 1.59586 1
-7.2355 -2.01783 2.00065 33
-7.00314 -0.6486 1.1059 1
-7.22834 -2.00093 1.4498 33
-7.28088 -0.675537 0.636673 36
-7.31551 -2.01554 0.926107 33
-3.09621 -0.286983 0.0536661 11
-1.69546 -0.462047 0.0902795 52
-0.658674 -0.0620309 -0.0329502 56
-1.69524 -0.461355 -0.0300618 90
-0.81553 -0.0761906 -0.0961399 55
-0.819916 -0.220567 -0.0711077 50
-0.816778 -0.0760236 -0.152373 52
-0.82017 -0.221221 -0.129201 49
-0.818745 -0.0755012 -0.2108 52
-0.809438 -0.219128 -0.185304 47
-7.09484 -0.617142 1.63348 1
-7.237 -1.9761 1.99806 33
-7.00163 -0.610272 1.10512 1
-7.23398 -1.96177 1.44885 35
-7.28195 -0.635918 0.636455 36
-7.31673 -1.97334 0.92489 33
-3.0902 -0.270118 0.0535353 11
-1.69312 -0.451567 0.0900178 52
-0.65899 -0.0585813 -0.0329502 58
-1.69771 -0.452176 -0.0300618 85
-0.810986 -0.0713506 -0.0955314 56
-0.813846 -0.214327 -0.0704553 52
-0.814732 -0.0713933 -0.151897 52
-0.8237 -0.217567 -0.129592 49
-0.819129 -0.0712133 -0.2108 50
-0.810612 -0.214745 -0.185304 44
-7.07395 -0.604136 1.62843 1
-7.23578 -1.9622 1.99677 33
-7.00012 -0.599063 1.10472 1
-7.22791 -1.94658 1.44694 35
-7.27064 -0.622148 0.635365 36
-7.31023 -1.95927 0.923673 33
-3.09814 -0.265361 0.0536661 11
-1.69382 -0.448906 0.0900178 52
-0.661578 -0.0576425 -0.0330815 58
-1.6985 -0.449212 -0.0300618 80
-0.81357 -0.070286 -0.0958357 55
-0.814218 -0.212906 -0.0704553 50
-0.81241 -0.0697654 -0.151421 53
-0.819309 -0.214849 -0.128809 50
-0.816846 -0.0695827 -0.210153 50
-0.808596 -0.212838 -0.184742 47
-7.06002 -0.56573 1.6245 1
-7.23628 -1.92307 1.99419 33
-7.00069 -0.562205 1.10433 1
-7.23293 -1.90872 1.44599 35
-7.27618 -0.585539 0.635583 36
-7.31559 -1.9197 0.923065 33
-3.09446 -0.249277 0.0535789 11
-1.68891 -0.438131 0.0896253 52
-0.659383 -0.0539793 -0.0329502 58
-1.69108 -0.438076 -0.0298872 70
-0.811453 -0.0658288 -0.0955314 56
-0.815322 -0.20864 -0.0704553 50
-0.812752 -0.0656525 -0.151421 53
-0.820423 -0.210557 -0.128809 49
-0.817187 -0.0654474 -0.210153 52
-0.812055 -0.209222 -0.185304 47
-7.078 -0.554736 1.62843 1
-7.22562 -1.90673 1.99031 32
-6.9992 -0.549793 1.10394 1
-7.22709 -1.89234 1.44408 35
-7.27719 -0.572839 0.635583 35
-7.31413 -1.90568 0.922457 33
-3.09992 -0.243725 0.0536661 11
-1.68967 -0.435183 0.0896253 52
-0.654498 -0.0524401 -0.0326876 58
-1.68458 -0.433236 -0.0297564 70
-0.811567 -0.0644124 -0.0955314 56
-0.808454 -0.205336 -0.069803 50
-0.812866 -0.0642339 -0.151421 53
-0.8184 -0.208501 -0.128418 49
-0.810088 -0.0633263 -0.208214 52
-0.812419 -0.207805 -0.185304 49
-7.06632 -0.515372 1.62506 1
-7.22881 -1.86579 1.98837 33
-6.99715 -0.511557 1.10316 1
-7.22263 -1.85081 1.44122 35
-7.27025 -0.532731 0.634712 33
-7.31952 -1.86485 0.921848 33
-3.11112 -0.228218 0.0538407 8
-1.68958 -0.425418 0.0894945 52
-0.654763 -0.0490124 -0.0326876 56
-1.67237 -0.420419 -0.0294946 15
-0.809428 -0.0598418 -0.0952272 56
-0.809518 -0.2011 -0.069803 50
-0.815649 -0.0600109 -0.151897 52
-0.819481 -0.204213 -0.128418 49
-0.812817 -0.0592553 -0.20886 52
-0.813531 -0.203406 -0.185304 47
-7.07441 -0.50479 1.62674 1
-7.22036 -1.85017 1.98514 32
-6.99056 -0.500038 1.10199 1
-7.21872 -1.83638 1.43979 35
-7.2811 -0.52075 0.635583 35
-7.31523 -1.85152 0.920935 33
-3.14144 -0.224917 0.0543642 3
-1.68783 -0.422151 0.0893636 52
-0.654848 -0.0478696 -0.0326876 58
-0.811997 -0.0587451 -0.0955314 56
-0.807453 -0.199077 -0.0695855 49
-0.815753 -0.0585872 -0.151897 53
-0.819836 -0.202783 -0.128418 49
-0.815328 -0.0580038 -0.209507 50
-0.811489 -0.201527 -0.184742 47
-7.08425 -0.468223 1.62843 1
-7.22027 -1.81124 1.98256 32
-6.99308 -0.463429 1.10199 1
-7.22554 -1.79922 1.43931 35
-7.28116 -0.483726 0.635365 35
-7.3176 -1.8114 0.920023 33
-3.21985 -0.214122 0.0557168 2
-1.68517 -0.412108 0.089102 53
-0.660072 -0.0447676 -0.0329502 58
-0.817245 -0.0548164 -0.0961399 56
-0.808484 -0.194846 -0.0695855 49
-0.81359 -0.0542983 -0.151421 53
-0.816093 -0.197299 -0.127635 49
-0.813202 -0.0537213 -0.20886 50
-0.812533 -0.197275 -0.184742 47
-7.08505 -0.455858 1.62843 1
-7.22107 -1.79805 1.98191 33
-6.99634 -0.451381 1.10238 1
-7.22183 -1.78358 1.43788 35
-7.27702 -0.470697 0.63493 33
-7.31111 -1.79625 0.918806 33
-1.68588 -0.409167 0.089102 53
-0.660149 -0.0436155 -0.0329502 58
-0.809911 -0.0529174 -0.0952272 56
-0.799148 -0.191062 -0.0687157 49
-0.811234 -0.0527233 -0.150945 53
-0.814038 -0.195285 -0.127243 50
-0.813303 -0.05216 -0.20886 50
-0.808146 -0.194688 -0.183619 47
-6.97068 -0.410664 1.60148 1
-7.226 -1.75781 1.98062 33
-7.27477 -0.429779 1.14609 38
-7.21199 -1.74112 1.43407 33
-7.28195 -0.431465 0.635147 33
-7.3159 -1.7555 0.918197 33
-1.68807 -0.400039 0.089102 52
-0.650399 -0.0395731 -0.0324251 58
-1.56139 -0.36908 -0.0274003 18
-0.810185 -0.0485346 -0.0952272 56
-0.800137 -0.186875 -0.0687157 47
-0.809057 -0.0481917 -0.150468 53
-0.81745 -0.191597 -0.127635 49
-0.813565 -0.0479008 -0.20886 52
-0.813924 -0.191456 -0.184742 47
-6.86431 -0.3936 1.57677 1
-7.22202 -1.74349 1.97868 33
-7.2853 -0.418916 1.14765 38
-7.20786 -1.72681 1.43264 33
-7.27772 -0.41847 0.634712 33
-7.29692 -1.73882 0.915459 32
-1.68384 -0.39623 0.0888403 53
-0.65296 -0.0385798 -0.0325564 58
-1.5596 -0.365776 -0.0273566 21
-0.807783 -0.0471216 -0.094923 56
-0.800462 -0.185478 -0.0687157 45
-0.80914 -0.0467795 -0.150468 53
-0.815382 -0.189597 -0.127243 50
-0.811236 -0.0463473 -0.208214 52
-0.809486 -0.189042 -0.183619 49
-6.8687 -0.357779 1.57733 1
-7.22135 -1.70469 1.97609 35
-7.27506 -0.380123 1.1457 38
-7.20934 -1.68862 1.43121 35
-7.27974 -0.381629 0.634712 32
-7.30109 -1.69946 0.91485 32
-1.68346 -0.386842 0.0887094 55
-0.65564 -0.0354038 -0.0326876 59
-1.55656 -0.356746 -0.0272694 23
-0.812975 -0.043146 -0.0955314 56
-0.806916 -0.0425585 -0.149992 53
-0.818768 -0.185886 -0.127635 49
-0.813872 -0.042362 -0.20886 50
-0.808092 -0.184245 -0.183058 47
-6.86683 -0.346867 1.57677 1
-7.21961 -1.69098 1.9748 33
-7.27571 -0.367425 1.1457 36
-7.2075 -1.67492 1.43026 35
-7.27791 -0.368797 0.634494 32
-7.2968 -1.68504 0.913938 33
-1.68413 -0.383903 0.0887094 53
-0.650714 -0.0340094 -0.0324251 59
-1.56449 -0.355713 -0.0274003 21
-0.81057 -0.0416041 -0.0952272 56
-0.814342 -0.0415123 -0.151421 52
-0.816686 -0.1839 -0.127243 50
-0.813945 -0.0409414 -0.20886 50
-0.810786 -0.183386 -0.183619 49
-6.87347 -0.309927 1.57789 1
-7.21895 -1.65099 1.97222 33
-7.28 -0.329436 1.14609 38
-7.21617 -1.63716 1.43026 35
-7.28472 -0.33091 0.63493 33
-7.29826 -1.64517 0.913025 33
-1.68612 -0.37508 0.0887094 55
-0.655877 -0.0307113 -0.0326876 59
-0.813256 -0.0374694 -0.0955314 56
-0.812097 -0.03714 -0.150945 52
-0.817637 -0.179621 -0.127243 50
-0.818974 -0.0368881 -0.210153 50
-0.809359 -0.178599 -0.183058 49
-6.87643 -0.298035 1.57845 1
-7.21711 -1.63732 1.97092 33
-7.2707 -0.316302 1.14453 36
-7.21212 -1.62168 1.42883 35
-7.2828 -0.318087 0.634712 32
-7.08078 -1.58301 0.885339 1
-1.68434 -0.371592 0.0885786 55
-0.648446 -0.029245 -0.0322938 59
-0.808362 -0.0358386 -0.094923 56
-0.814612 -0.0358262 -0.151421 52
-0.81795 -0.178194 -0.127243 49
-0.81663 -0.0352158 -0.209507 50
-0.807293 -0.176651 -0.182496 49
-6.87064 -0.260551 1.57677 1
-7.21879 -1.59668 1.96899 33
-7.26984 -0.276866 1.14414 36
-7.20852 -1.58126 1.42645 35
-7.2869 -0.278774 0.63493 30
-7.0747 -1.5415 0.883514 1
-3.12469 -0.119786 0.0539716 9
-1.68632 -0.362473 0.0885786 55
-0.648591 -0.0258494 -0.0322938 59
-0.808544 -0.0314645 -0.094923 56
-0.814794 -0.0314182 -0.151421 52
-0.818871 -0.173909 -0.127243 50
-0.81439 -0.0308523 -0.20886 49
-0.808237 -0.172281 -0.182496 49
-7.06337 -0.25671 1.62113 21
-7.21685 -1.58304 1.96769 35
-7.2752 -0.265625 1.14492 38
-7.21367 -1.5692 1.42692 35
-7.28987 -0.266146 0.635147 30
-7.06741 -1.52828 0.882297 1
-3.11989 -0.114152 0.0538843 9
-1.68201 -0.358769 0.0883169 55
-0.64614 -0.0246276 -0.0321625 59
-0.808593 -0.0301944 -0.094923 55
-0.80749 -0.0297378 -0.149992 52
-0.81676 -0.171957 -0.126852 50
-0.807202 -0.0291818 -0.20692 49
-0.810887 -0.171529 -0.183058 49
-6.87469 -0.213853 1.57733 1
-7.21533 -1.54446 1.96511 35
-7.27155 -0.227375 1.14414 36
-7.21672 -1.53165 1.42597 35
-7.28365 -0.229012 0.634494 30
-7.06803 -1.48971 0.881384 1
-3.12293 -0.0984371 0.0539279 11
-1.68386 -0.349957 0.0883169 55
-0.648755 -0.0213208 -0.0322938 59
-1.67377 -0.347226 -0.0292328 55
-0.8137 -0.0261109 -0.0955314 56
-0.80763 -0.0256504 -0.149992 52
-0.812818 -0.166658 -0.126069 50
-0.807339 -0.0250958 -0.20692 49
-0.811774 -0.167281 -0.183058 49
-6.86288 -0.201499 1.57452 1
-7.21801 -1.53187 1.96511 33
-7.26947 -0.214611 1.14375 36
-7.20764 -1.51526 1.42359 33
-7.28902 -0.216446 0.63493 30
-7.07062 -1.47738 0.881384 1
-3.10812 -0.0920042 0.0536661 11
-1.68447 -0.347018 0.0883169 55
-0.651287 -0.0202608 -0.0324251 61
-1.67192 -0.343794 -0.0291891 58
-0.808784 -0.0245486 -0.094923 56
-0.81258 -0.0243795 -0.150945 52
-0.815524 -0.165745 -0.12646 50
-0.814628 -0.0237443 -0.20886 50
-0.812064 -0.165864 -0.183058 50
-6.86143 -0.164307 1.57396 1
-7.21674 -1.49083 1.96252 35
-7.27299 -0.175336 1.14414 36
-7.21307 -1.477 1.42311 35
-7.29008 -0.177005 0.63493 29
-7.07122 -1.43761 0.880471 1
-3.10356 -0.0756094 0.0535789 12
-1.68143 -0.336904 0.0880552 56
-0.65388 -0.0169096 -0.0325564 61
-1.67866 -0.335737 -0.0292764 61
-0.808905 -0.0201724 -0.094923 56
-0.807793 -0.0198705 -0.149992 52
-0.816381 -0.161472 -0.12646 50
-0.809913 -0.0193716 -0.207567 50
-0.808177 -0.160491 -0.181935 49
-6.88117 -0.153961 1.57845 1
-7.21696 -1.47775 1.96188 33
-7.27326 -0.163911 1.14414 35
-7.21083 -1.46343 1.42216 35
-7.2854 -0.16417 0.634494 32
