# .PCD v0.7 - Point Cloud Data file format
VERSION 0.7
FIELDS x y z intensity
SIZE 4 4 4 4
TYPE F F F F
COUNT 1 1 1 1
WIDTH 1639
HEIGHT 1
VIEWPOINT 0 0 0 1 0 0 0
POINTS 1639
DATA ascii
2.11336 -1.09949 -0.628521 15
2.27713 -0.71085 -0.541874 14
3.44087 -1.79114 0.88609 59
3.47411 -1.07921 0.964137 62
3.4392 -1.79029 0.607189 59
3.48813 -1.09016 0.702976 65
3.39578 -1.76692 0.331845 59
3.48001 -1.09293 0.442974 62
2.97143 -0.936203 0.161456 53
2.21893 -1.15502 -0.1297 49
2.98185 -0.940605 -0.0539716 47
2.22047 -1.15729 -0.302719 53
2.82631 -0.891273 -0.255727 8
2.2309 -1.16372 -0.481404 56
3.50028 -1.10063 -0.576313 62
2.08576 -1.08974 -0.620761 15
2.26426 -0.711197 -0.539066 14
3.43329 -1.81087 0.886652 59
3.47763 -1.10029 0.966722 61
3.44289 -1.81518 0.60953 61
3.4777 -1.10693 0.702023 61
3.43714 -1.8114 0.336857 61
3.47897 -1.11264 0.443582 62
2.96411 -0.95099 0.161326 49
2.21285 -1.16662 -0.1297 61
2.9745 -0.955444 -0.0539279 49
2.22316 -1.17354 -0.303936 64
2.82161 -0.90606 -0.255727 8
2.22695 -1.17653 -0.48188 74
3.49682 -1.11969 -0.576705 59
2.07363 -1.09725 -0.618821 15
2.24889 -0.719356 -0.536259 14
3.4412 -1.82197 0.889459 59
3.4711 -1.1049 0.96543 61
3.43971 -1.82119 0.60953 59
3.48044 -1.11449 0.702976 64
3.42737 -1.8139 0.336203 61
2.97195 -0.959215 0.161849 50
2.22405 -1.1775 -0.130488 82
2.96331 -0.957574 -0.0537534 50
2.22768 -1.18091 -0.304849 76
2.82002 -0.910983 -0.255727 8
2.2314 -1.18387 -0.483308 85
2.05252 -1.09066 -0.613002 15
2.24299 -0.721797 -0.535136 14
3.43559 -1.84286 0.890582 59
3.46986 -1.12454 0.966722 61
3.43448 -1.84151 0.610311 59
3.48156 -1.13497 0.704406 64
3.40027 -1.8224 0.33446 61
2.96926 -0.975538 0.16198 53
2.22225 -1.19149 -0.130751 90
2.96301 -0.974632 -0.0538407 52
2.22366 -1.19373 -0.305153 74
2.82468 -0.928833 -0.256597 8
2.22084 -1.19321 -0.482356 44
2.03403 -1.09452 -0.609122 14
2.23223 -0.731271 -0.533451 14
3.43698 -1.85057 0.891705 59
3.47019 -1.13134 0.967368 61
3.44213 -1.85336 0.612262 59
3.47957 -1.14104 0.704406 59
3.41024 -1.83542 0.335768 47
2.98577 -0.984417 0.381213 35
2.96519 -0.979939 0.161849 47
2.21578 -1.19299 -0.130488 55
2.95655 -0.978239 -0.0537534 55
2.20847 -1.19054 -0.303328 35
2.82069 -0.932983 -0.256379 8
2.19932 -1.18659 -0.47807 30
2.01512 -1.08887 -0.603949 15
2.21706 -0.73062 -0.530082 14
3.43761 -1.87497 0.894513 61
3.47569 -1.15328 0.970599 61
3.43455 -1.87254 0.612652 59
3.48053 -1.16157 0.705836 62
3.41589 -1.8616 0.337293 47
2.93821 -0.985893 0.375737 12
2.96948 -0.99862 0.162372 55
2.19416 -1.19621 -0.129569 29
2.95139 -0.993706 -0.0537534 55
2.18478 -1.19257 -0.300894 26
2.81813 -0.94853 -0.256597 8
2.18016 -1.19102 -0.475213 29
1.99033 -1.08896 -0.598129 14
2.2132 -0.742218 -0.530082 14
3.43679 -1.88154 0.895074 59
3.47596 -1.16011 0.971246 61
3.4356 -1.8809 0.613432 58
3.48316 -1.1692 0.706789 65
3.42356 -1.87354 0.338382 55
2.90826 -0.981542 0.372086 15
2.96774 -1.0038 0.162372 53
2.18112 -1.19403 -0.128913 26
2.94965 -0.998855 -0.0537534 55
2.17182 -1.19041 -0.299372 26
2.82591 -0.956626 -0.257466 8
2.16732 -1.18892 -0.472833 29
1.97997 -1.08778 -0.595543 12
2.19112 -0.739115 -0.525028 14
3.43721 -1.90602 0.897882 61
3.47213 -1.17906 0.971892 61
3.43651 -1.90486 0.615384 59
3.48163 -1.189 0.707742 64
3.4333 -1.90231 0.340343 61
2.89369 -0.993548 0.370869 17
2.16153 -1.19855 -0.128125 24
2.94202 -1.01348 -0.0537098 55
2.15255 -1.19453 -0.297547 26
2.81833 -0.971094 -0.257249 8
2.15035 -1.19428 -0.470452 27
2.17569 -0.746649 -0.52222 14
3.43601 -1.9132 0.898444 59
3.47006 -1.18512 0.971892 61
3.43749 -1.91325 0.616164 59
3.48399 -1.19727 0.708696 64
3.43215 -1.90951 0.340561 61
2.88491 -0.996178 0.369956 15
2.14854 -1.19624 -0.127469 24
2.94261 -1.01942 -0.0537534 55
2.13096 -1.18741 -0.294809 24
2.81899 -0.976823 -0.257466 8
2.13326 -1.18966 -0.467119 27
2.24469 -0.777129 -0.371158 14
2.16286 -0.746495 -0.519413 14
3.43409 -1.93655 0.90069 61
3.4636 -1.20388 0.971892 61
3.43139 -1.93425 0.616944 59
3.47767 -1.2155 0.708696 64
3.43696 -1.93662 0.342086 59
2.88182 -1.01259 0.37026 17
2.1292 -1.20011 -0.126681 24
2.94177 -1.03698 -0.0538407 53
2.11802 -1.19526 -0.293896 24
2.81619 -0.992394 -0.257684 8
2.10756 -1.19031 -0.462833 27
2.21728 -0.780719 -0.367243 12
2.14499 -0.753372 -0.516044 14
3.43317 -1.94315 0.901251 59
3.46378 -1.21072 0.972538 61
3.43479 -1.94329 0.618115 59
3.48018 -1.22318 0.709649 65
3.44007 -1.94629 0.34274 59
2.87554 -1.01547 0.369652 20
2.1119 -1.19521 -0.125762 24
2.94467 -1.04378 -0.0539279 53
2.09887 -1.18879 -0.291462 24
2.81915 -0.998964 -0.258119 8
2.08628 -1.18308 -0.458548 27
2.21592 -0.784588 -0.367243 12
2.12771 -0.751099 -0.512113 14
3.42929 -1.96473 0.902936 61
3.46216 -1.22984 0.97383 61
3.431 -1.96493 0.619286 58
3.48319 -1.24407 0.711555 64
3.44098 -1.96987 0.343829 59
2.86785 -1.02968 0.369348 21
1.83533 -1.05036 0.036301 65
2.08612 -1.19507 -0.124581 24
2.93699 -1.05783 -0.0538843 53
2.08401 -1.19482 -0.290245 26
2.06749 -1.18629 -0.455691 29
2.20713 -0.794516 -0.36646 12
2.10539 -0.755685 -0.507621 14
3.43007 -1.97314 0.904059 61
3.46228 -1.23669 0.974477 59
3.43398 -1.97461 0.620457 59
3.48311 -1.25159 0.712032 64
3.44402 -1.9796 0.344483 59
2.85437 -1.03049 0.367826 15
1.83114 -1.05263 0.0362574 64
2.07754 -1.19497 -0.124187 24
2.93984 -1.06465 -0.0539716 53
2.06472 -1.18854 -0.287811 24
2.05904 -1.18622 -0.454262 29
2.18947 -0.792518 -0.363719 12
2.09031 -0.754426 -0.504251 14
3.42777 -1.99658 0.906305 61
3.46008 -1.25705 0.975769 61
3.42965 -1.99689 0.621627 59
3.47651 -1.26981 0.712032 62
3.43971 -2.00196 0.345137 59
2.8371 -1.04166 0.366305 26
1.82777 -1.06346 0.036301 59
2.05184 -1.19452 -0.123005 26
2.93404 -1.08054 -0.0539716 55
2.04969 -1.19469 -0.286594 26
2.03564 -1.18744 -0.450453 29
2.18298 -0.803124 -0.363328 12
2.08619 -0.765725 -0.504251 15
3.42673 -2.00319 0.906867 59
3.46242 -1.26474 0.977061 61
3.43717 -2.00851 0.623578 59
3.47889 -1.27756 0.712985 65
3.44051 -2.01048 0.345573 59
2.83546 -1.04611 0.366305 21
1.83022 -1.06918 0.0363883 61
2.03467 -1.18927 -0.122086 26
2.93684 -1.08739 -0.0540588 53
2.03496 -1.19038 -0.284769 26
2.0251 -1.18602 -0.448548 30
2.16303 -0.800118 -0.360196 12
2.07584 -0.765649 -0.502005 15
3.42458 -2.02607 0.909113 59
3.45824 -1.28309 0.977708 61
3.42661 -2.02648 0.623578 59
3.47929 -1.29771 0.714415 64
3.44101 -2.03421 0.346662 61
2.85319 -1.06962 0.369348 15
2.01983 -1.19482 -0.121561 26
2.93364 -1.10311 -0.0541025 52
2.0159 -1.19343 -0.282943 26
2.0064 -1.18874 -0.445691 29
2.14493 -0.806249 -0.357847 12
2.07408 -0.777357 -0.502567 27
3.43151 -2.03827 0.91192 59
3.46052 -1.2908 0.979 59
3.42943 -2.03624 0.624749 59
3.47679 -1.30439 0.714415 64
3.43959 -2.04148 0.34688 59
2.86061 -1.07808 0.370565 26
2.00701 -1.19196 -0.120905 24
2.92703 -1.10647 -0.0540152 49
1.99249 -1.18426 -0.279901 26
1.99378 -1.18596 -0.44331 30
2.12734 -0.803916 -0.355106 12
2.07272 -0.780976 -0.502567 52
3.4246 -2.05932 0.913043 61
3.45575 -1.31036 0.979646 61
3.42683 -2.05986 0.62631 59
3.4745 -1.32432 0.715368 64
3.43917 -2.06648 0.347969 61
2.86401 -1.09708 0.371782 20
1.98791 -1.19473 -0.120117 26
2.93501 -1.12765 -0.054277 49
1.97542 -1.18862 -0.27838 26
1.97683 -1.1904 -0.44093 30
2.13002 -0.817684 -0.356281 14
2.06164 -0.789581 -0.500882 35
3.4297 -2.06973 0.915289 61
3.45797 -1.3181 0.980939 61
3.42993 -2.06907 0.627481 58
3.47218 -1.33038 0.715368 65
3.43556 -2.07248 0.347969 61
1.97513 -1.19174 -0.119461 26
2.93071 -1.13187 -0.0542333 45
1.96718 -1.18787 -0.277467 27
1.95795 -1.18368 -0.43712 30
2.11476 -0.816096 -0.353931 12
2.06267 -0.793688 -0.501444 15
3.42298 -2.0902 0.916413 59
3.46027 -1.33906 0.983523 59
3.42748 -2.09215 0.629041 59
3.46769 -1.34883 0.715844 65
3.4314 -2.09373 0.348623 61
1.95822 -1.19555 -0.118804 27
2.9296 -1.14851 -0.0543206 39
1.94824 -1.19038 -0.275642 27
1.94147 -1.18716 -0.434739 32
2.12196 -0.831638 -0.355889 12
1.93476 -1.18489 -0.598129 49
2.05849 -0.804477 -0.501444 15
3.42555 -2.1 0.918097 61
3.46018 -1.34597 0.98417 61
3.43014 -2.102 0.630212 61
3.46967 -1.35726 0.716798 64
3.43199 -2.10232 0.349059 61
3.47387 -1.36375 0.453318 62
2.45939 -1.50726 0.0497394 20
1.94336 -1.19113 -0.118017 27
1.9377 -1.18858 -0.274425 27
2.1343 -0.840741 -0.358238 15
1.9222 -1.18227 -0.594896 44
2.05027 -0.805411 -0.499759 17
3.42656 -2.12621 0.921466 67
3.45509 -1.36556 0.984816 61
3.42711 -2.12574 0.631773 65
3.46708 -1.37722 0.717751 64
3.43326 -2.12874 0.350366 68
3.46644 -1.38253 0.453318 62
2.45784 -1.52407 0.0498702 15
1.92013 -1.19076 -0.116967 27
1.91859 -1.19119 -0.272599 27
2.22613 -0.891939 -0.206364 18
2.13217 -0.852817 -0.35863 15
1.90779 -1.18721 -0.59231 38
2.04135 -0.814697 -0.498636 18
3.43148 -2.13674 0.923712 71
3.4572 -1.37336 0.986108 59
3.43215 -2.13634 0.633334 73
3.46695 -1.38417 0.718227 61
3.43377 -2.13736 0.350802 79
3.46887 -1.38981 0.453926 64
1.91169 -1.19014 -0.116573 26
2.2185 -0.893833 -0.041144 35
1.90409 -1.18632 -0.270774 27
2.22456 -0.895823 -0.206364 47
2.13985 -0.860202 -0.360196 36
1.89343 -1.18285 -0.58843 44
2.04234 -0.818804 -0.499198 20
3.41819 -2.15338 0.923151 61
3.45692 -1.39355 0.988047 59
3.41465 -2.15033 0.632163 39
3.46445 -1.40354 0.719181 62
3.41869 -2.15206 0.350366 39
3.46385 -1.40889 0.454231 64
2.38046 -0.971769 0.132933 3
1.89699 -1.19481 -0.116048 26
2.21858 -0.906932 -0.0412313 47
1.88736 -1.18965 -0.269253 27
2.22446 -0.909334 -0.206799 47
2.13074 -0.869538 -0.359413 38
2.03576 -0.828573 -0.498636 21
3.39796 -2.14892 0.918659 24
3.4612 -1.40229 0.989986 59
3.38167 -2.1378 0.6267 24
3.4663 -1.41203 0.720134 64
3.39178 -2.14338 0.347969 24
3.46598 -1.4168 0.454839 64
2.38801 -0.979695 0.133457 3
1.87592 -1.1861 -0.114866 29
2.21931 -0.911749 -0.0412749 47
2.22287 -0.913215 -0.206799 49
2.12236 -0.870459 -0.358238 15
2.04108 -0.834876 -0.500321 21
3.36167 -2.15151 0.91192 18
3.4558 -1.42191 0.990632 59
3.35966 -2.14941 0.624749 20
3.46567 -1.43297 0.721564 64
3.36125 -2.14962 0.346008 21
3.46285 -1.43743 0.455448 62
2.38037 -0.991645 0.133326 2
1.87599 -1.19994 -0.11526 47
2.21434 -0.923743 -0.0412749 47
2.22266 -0.926749 -0.207234 47
2.12005 -0.882503 -0.35863 15
2.04554 -0.849626 -0.502567 35
3.33779 -2.14361 0.906305 17
3.45778 -1.42978 0.991924 58
3.33135 -2.13867 0.620066 20
3.46543 -1.43995 0.72204 64
3.33654 -2.14202 0.343829 20
3.46517 -1.44477 0.456056 65
2.39264 -1.00114 0.134111 2
1.87179 -1.20187 -0.115129 14
2.22196 -0.931453 -0.0414495 45
2.22793 -0.9335 -0.207887 47
2.11851 -0.886202 -0.35863 15
3.31018 -2.15044 0.901813 41
3.45496 -1.44913 0.993217 58
3.31596 -2.15339 0.619286 44
3.46262 -1.45938 0.722993 62
3.32148 -2.15617 0.343394 30
3.45527 -1.46193 0.455752 59
1.85312 -1.20316 -0.114341 21
2.21031 -0.939767 -0.0413186 36
2.22318 -0.944765 -0.207887 47
3.30476 -2.1543 0.901251 8
3.45465 -1.45609 0.993863 58
3.30806 -2.15648 0.618505 2
3.46685 -1.46828 0.724423 64
3.32397 -2.16604 0.344047 9
3.46414 -1.4728 0.457273 64
2.21327 -0.945579 -0.0414058 27
2.08033 -1.35759 -0.300285 47
2.2284 -0.951564 -0.208539 47
3.11731 -2.03669 -0.715677 12
3.3069 -2.18213 0.905182 2
3.45116 -1.47665 0.995155 58
3.3252 -2.19339 0.623969 4
3.46337 -1.48895 0.725376 65
3.3122 -2.18399 0.344047 11
3.46068 -1.49348 0.457882 61
2.21959 -0.962489 -0.041624 44
2.07709 -1.37156 -0.300894 47
2.22094 -0.962621 -0.208322 45
3.11034 -2.05623 -0.71663 12
2.22773 -0.963739 -0.37938 47
3.31566 -2.19539 0.908551 2
3.45524 -1.48553 0.997094 58
3.31557 -2.19452 0.622798 3
3.46753 -1.4979 0.726806 67
3.31046 -2.19115 0.344265 3
3.46516 -1.50187 0.458794 61
2.2202 -0.967356 -0.0416676 45
2.077 -1.3762 -0.301198 47
2.22382 -0.968476 -0.208756 47
3.11083 -2.06437 -0.717582 12
2.23058 -0.969585 -0.380163 47
3.27781 -2.19509 0.901251 9
3.45654 -1.50684 0.999679 58
3.3143 -2.21872 0.624749 3
3.4644 -1.5174 0.727759 67
3.30347 -2.21065 0.344701 8
3.45952 -1.52099 0.459099 62
2.0744 -1.38912 -0.129438 47
2.21986 -0.980591 -0.0417549 45
2.07183 -1.38844 -0.301502 47
2.22556 -0.983112 -0.209409 47
3.10034 -2.08009 -0.717582 12
2.22774 -0.982243 -0.380555 47
2.22164 -0.976843 -0.55142 45
3.29014 -2.21169 0.905743 2
3.45833 -1.51481 1.00097 58
3.31247 -2.22588 0.625139 3
3.46597 -1.52602 0.728712 64
3.30994 -2.22336 0.34579 1
3.4614 -1.52902 0.459707 62
2.07611 -1.39552 -0.1297 45
2.21814 -0.984464 -0.0417549 45
2.07352 -1.39482 -0.302111 45
2.22384 -0.986995 -0.209409 47
3.10892 -2.09373 -0.720439 12
2.23054 -0.988121 -0.381338 47
2.2244 -0.982679 -0.552543 45
3.30028 -2.24453 0.91192 2
3.45008 -1.5335 1.00097 58
3.31467 -2.25349 0.627871 2
3.46466 -1.54714 0.730142 64
3.32051 -2.25664 0.348187 3
3.45761 -1.54975 0.460316 64
2.0729 -1.40918 -0.129963 45
2.21506 -0.997473 -0.0417985 45
2.07619 -1.41301 -0.303632 45
2.22319 -1.00066 -0.209844 47
3.10566 -2.11605 -0.722344 14
2.22533 -0.999786 -0.381338 47
2.2235 -0.996683 -0.553666 47
3.34101 -2.27994 0.924274 15
3.45181 -1.54148 1.00226 58
3.31112 -2.2587 0.627871 21
3.46644 -1.55519 0.731095 67
3.3865 -2.31017 0.355595 24
3.4597 -1.55721 0.460924 67
2.07456 -1.41562 -0.130225 45
2.21788 -1.00339 -0.0418858 45
2.07602 -1.41767 -0.303936 45
2.22371 -1.00556 -0.210061 47
3.08373 -2.10899 -0.718058 15
2.23034 -1.0067 -0.382512 47
2.22638 -1.00217 -0.554789 47
3.37713 -2.33063 0.937751 15
3.43956 -1.55694 1.00097 61
3.33583 -2.30126 0.634895 15
3.46299 -1.57474 0.732049 73
3.40961 -2.35133 0.3593 18
3.45828 -1.57839 0.461837 64
2.07739 -1.43356 -0.130882 45
2.21277 -1.0146 -0.0418858 45
2.07061 -1.42993 -0.30424 44
2.22521 -1.02029 -0.210714 47
3.05889 -2.1148 -0.714725 15
2.22729 -1.01939 -0.382904 47
2.29633 -1.58952 -0.738447 9
2.22553 -1.01582 -0.555912 47
3.38908 -2.34762 0.942243 12
3.44784 -1.56793 1.0042 67
3.30745 -2.2902 0.630212 12
3.45773 -1.58037 0.731572 64
3.37889 -2.33884 0.356467 14
3.44649 -1.5803 0.46062 50
2.07489 -1.43718 -0.130882 47
2.21781 -1.02159 -0.0420167 45
2.07627 -1.4392 -0.305457 47
2.22343 -1.02417 -0.210714 45
3.04713 -2.11453 -0.71282 15
2.23 -1.02533 -0.383687 45
2.28733 -1.58979 -0.736507 8
2.22376 -1.01971 -0.555912 45
3.37034 -2.36173 0.940558 11
3.43711 -1.58555 1.00356 44
3.28086 -2.29814 0.627481 14
3.46055 -1.60359 0.733955 39
3.41922 -2.39425 0.362132 17
3.44689 -1.60309 0.461837 56
2.07347 -1.45232 -0.131276 45
2.21452 -1.03462 -0.0420603 45
2.07251 -1.45326 -0.306066 45
2.22256 -1.0379 -0.211148 47
3.02962 -2.12675 -0.711392 15
2.2246 -1.03699 -0.383687 47
2.22484 -1.03479 -0.557597 45
3.38257 -2.37823 0.94505 11
3.44092 -1.59459 1.00549 50
3.26109 -2.29192 0.624359 30
3.45552 -1.6086 0.733478 53
3.45337 -1.6127 0.463054 59
1.68119 -1.18118 0.0352539 35
2.07297 -1.45738 -0.131407 45
2.21724 -1.0406 -0.0421476 45
2.07631 -1.4608 -0.306978 47
2.22525 -1.04388 -0.211583 45
3.0259 -2.13204 -0.711392 18
2.2295 -1.044 -0.384861 45
2.22763 -1.04034 -0.55872 47
3.37801 -2.40156 0.947297 11
3.44593 -1.61812 1.00937 59
3.243 -2.30467 0.623188 27
3.45621 -1.63024 0.735385 59
3.44712 -1.63181 0.463358 55
1.67519 -1.18967 0.0352539 35
2.07345 -1.474 -0.131932 45
2.21421 -1.05288 -0.0421912 45
2.0747 -1.47597 -0.307891 45
2.22426 -1.05765 -0.212018 45
2.22177 -1.05461 -0.38447 47
2.22215 -1.05199 -0.55872 45
3.38571 -2.41595 0.950666 11
3.44747 -1.62619 1.01066 58
3.38369 -2.41362 0.651284 11
3.45752 -1.63897 0.736338 59
3.451 -1.64102 0.464271 50
1.66883 -1.18998 0.0351666 35
2.0729 -1.47907 -0.132063 45
2.21462 -1.05782 -0.0422348 45
2.07616 -1.48248 -0.3085 45
2.22466 -1.0626 -0.212236 45
2.22885 -1.06272 -0.386036 47
2.22031 -1.05587 -0.55872 47
3.38444 -2.44279 0.954035 11
3.44516 -1.64794 1.0126 58
3.37458 -2.43479 0.652065 11
3.45331 -1.65917 0.737291 50
3.45325 -1.66504 0.465792 59
1.65852 -1.19578 0.0350793 35
2.0712 -1.49429 -0.132457 44
2.21337 -1.07195 -0.0423221 45
2.22355 -1.0764 -0.212671 45
2.2277 -1.07651 -0.386819 45
1.78513 -1.29189 -0.58067 36
2.22335 -1.07208 -0.560966 49
3.38454 -2.45096 0.955158 11
3.44445 -1.65499 1.01325 58
3.37875 -2.44588 0.653626 11
3.44378 -1.66201 0.735861 55
3.44393 -1.66722 0.464879 59
1.65036 -1.19427 0.0349484 33
2.07263 -1.50083 -0.13272 44
2.2205 -1.08017 -0.0424966 44
2.22391 -1.08136 -0.212888 45
2.23027 -1.08255 -0.387602 45
1.77701 -1.29074 -0.57873 33
2.22386 -1.07663 -0.561527 47
3.37952 -2.47441 0.957404 11
3.44255 -1.67557 1.01519 58
3.3918 -2.48251 0.658698 11
3.44635 -1.68479 0.738244 59
3.44852 -1.69178 0.466705 58
1.64026 -1.19965 0.0348612 32
2.07079 -1.51609 -0.133113 44
2.21276 -1.0903 -0.042453 45
2.22269 -1.09518 -0.213323 44
2.23122 -1.09746 -0.388776 45
2.22038 -1.08932 -0.562089 45
3.36931 -2.47597 0.95572 11
3.44179 -1.68263 1.01583 56
3.39144 -2.49135 0.659479 11
3.44091 -1.69033 0.737768 47
3.43666 -1.69342 0.465488 58
1.63796 -1.2028 0.0348612 32
2.07216 -1.52266 -0.133376 44
2.21758 -1.09747 -0.0425839 44
2.22301 -1.10016 -0.21354 45
2.22487 -1.09918 -0.387993 45
2.22067 -1.09427 -0.56265 45
3.36368 -2.49998 0.957966 11
3.44347 -1.70658 1.01906 58
3.37989 -2.51113 0.659869 11
3.4452 -1.71486 0.740627 62
3.43855 -1.71751 0.467009 56
2.06416 -1.53349 -0.133376 44
2.21832 -1.1128 -0.0427148 44
2.22391 -1.11512 -0.214193 45
2.23014 -1.11632 -0.389951 45
1.71659 -1.27914 -0.563858 41
2.22562 -1.11169 -0.565458 47
3.36756 -2.51109 0.960212 11
3.44481 -1.71473 1.02036 56
3.38782 -2.5253 0.662211 11
3.4466 -1.72306 0.74158 61
3.44029 -1.72513 0.467617 56
3.45322 -1.7346 0.200708 52
2.07148 -1.54456 -0.134032 44
2.21637 -1.11667 -0.0427148 44
2.22418 -1.12012 -0.21441 44
2.22818 -1.12021 -0.389951 45
1.71822 -1.28503 -0.565151 49
2.21951 -1.11301 -0.564335 45
3.36215 -2.53455 0.962458 11
3.44688 -1.73757 1.02359 58
3.37652 -2.54449 0.662601 11
3.45098 -1.74712 0.74444 61
3.44449 -1.74985 0.469443 56
3.44855 -1.75491 0.20097 52
2.06337 -1.55538 -0.134032 44
2.21292 -1.12901 -0.0427584 39
2.23161 -1.13851 -0.215715 45
1.66559 -1.25701 -0.398075 23
2.2311 -1.13633 -0.391517 45
1.70977 -1.29225 -0.564505 41
2.2267 -1.13121 -0.567704 47
3.36549 -2.5463 0.964704 11
3.44599 -1.74467 1.02423 58
3.37601 -2.55336 0.663381 11
3.4498 -1.75485 0.744917 61
1.57788 -1.19203 0.169954 44
3.44143 -1.75586 0.469443 56
3.43658 -1.75639 0.200447 44
2.0706 -1.56652 -0.134689 44
2.21762 -1.13627 -0.0428893 23
2.22518 -1.14014 -0.21528 45
1.65558 -1.25399 -0.39617 33
2.22911 -1.14022 -0.391517 45
1.70921 -1.29699 -0.565151 38
2.22255 -1.13399 -0.567143 45
3.36714 -2.57632 0.969196 11
3.44295 -1.76659 1.02617 59
3.36999 -2.57759 0.664942 11
3.4493 -1.77738 0.746823 59
1.56151 -1.19299 0.168864 44
3.44511 -1.78127 0.471268 59
3.45143 -1.78756 0.201886 50
2.21589 -1.15055 -0.0429765 38
1.61595 -1.23686 -0.245218 18
2.22582 -1.15521 -0.215932 45
1.65071 -1.26442 -0.396646 29
2.2275 -1.15414 -0.3923 47
1.70048 -1.30445 -0.564505 36
2.22721 -1.15157 -0.56995 47
3.36502 -2.58309 0.969758 11
3.44201 -1.7737 1.02682 59
3.37769 -2.5919 0.667283 11
3.44837 -1.78452 0.7473 59
1.55745 -1.19419 0.168646 45
3.44672 -1.78896 0.471877 59
3.45305 -1.79528 0.202148 58
2.21831 -1.15672 -0.0430638 47
1.61007 -1.23638 -0.244609 18
2.22822 -1.16138 -0.216367 49
1.65239 -1.27029 -0.397598 27
2.22767 -1.15916 -0.392692 49
1.69246 -1.303 -0.562565 38
2.22756 -1.15619 -0.570512 50
3.35914 -2.60665 0.972004 11
3.43942 -1.79444 1.02876 58
3.37188 -2.61561 0.668844 11
3.44582 -1.80536 0.748729 59
1.54942 -1.20053 0.168428 45
3.4439 -1.81044 0.472789 61
3.4436 -1.81333 0.202148 58
2.21907 -1.17142 -0.0431947 53
1.59966 -1.24174 -0.244001 15
2.22452 -1.17381 -0.216585 55
1.63626 -1.2711 -0.395218 30
2.22813 -1.17425 -0.393866 55
1.69156 -1.316 -0.564505 36
2.22796 -1.17123 -0.572196 58
3.37234 -2.6254 0.977058 11
3.44056 -1.80267 1.03005 58
3.38289 -2.63363 0.671966 11
3.44484 -1.81251 0.749206 58
1.54339 -1.20018 0.167993 45
3.44732 -1.81992 0.473702 61
2.22365 -1.17879 -0.0433256 76
1.58575 -1.23538 -0.242175 15
2.22908 -1.18117 -0.217237 67
1.63404 -1.27396 -0.395218 32
2.23045 -1.18044 -0.394649 62
1.67595 -1.30854 -0.559978 36
2.22806 -1.17624 -0.572758 64
3.36383 -2.64813 0.978742 11
3.43321 -1.82179 1.0307 55
3.37487 -2.65589 0.673137 11
3.44397 -1.83513 0.751112 59
1.53122 -1.20362 0.167339 47
3.43993 -1.83911 0.474006 59
2.21745 -1.19042 -0.0433256 86
1.57146 -1.23752 -0.240958 15
2.22506 -1.194 -0.217455 59
1.62734 -1.2825 -0.395218 35
2.21988 -1.18977 -0.393866 50
2.21972 -1.18675 -0.572196 42
3.37495 -2.66549 0.983234 11
3.43856 -1.83231 1.03328 56
3.44726 -1.8446 0.752542 59
1.52912 -1.20629 0.167339 49
3.44547 -1.8498 0.475223 59
1.47751 -1.16636 -0.097144 11
2.21316 -1.19311 -0.043282 49
1.55568 -1.22948 -0.238829 15
2.20981 -1.19082 -0.21615 32
1.62703 -1.28686 -0.395694 36
2.20257 -1.18548 -0.391126 23
2.20046 -1.18144 -0.567704 23
3.35858 -2.68219 0.982673 11
3.4353 -1.85373 1.03522 56
3.44403 -1.86613 0.753972 59
1.51694 -1.20962 0.166685 47
3.44228 -1.87136 0.476136 59
3.44647 -1.87672 0.203849 59
1.47703 -1.17901 -0.0975378 8
2.18492 -1.19274 -0.0428457 23
1.54341 -1.23295 -0.237916 15
2.18582 -1.19324 -0.21441 21
1.62793 -1.3015 -0.397598 29
2.17897 -1.18758 -0.387993 21
2.17496 -1.18251 -0.56265 21
3.36719 -2.69872 0.986603 11
3.43843 -1.86316 1.03716 56
3.44476 -1.87508 0.754925 59
1.51483 -1.21226 0.166685 47
3.44555 -1.88092 0.477049 59
3.44977 -1.88632 0.204241 59
1.47497 -1.18159 -0.0975378 4
2.16748 -1.18817 -0.0425402 20
1.52965 -1.22633 -0.23609 15
2.16625 -1.18751 -0.212671 20
2.16171 -1.18311 -0.385253 20
2.16219 -1.18049 -0.559843 21
3.3639 -2.72611 0.989973 11
3.43466 -1.88522 1.0391 56
3.44349 -1.89782 0.756832 59
1.50438 -1.21731 0.16625 47
3.43967 -1.90193 0.477657 59
3.44388 -1.90737 0.204503 59
1.46682 -1.18772 -0.0974065 3
2.14571 -1.19142 -0.0422348 20
2.14474 -1.19041 -0.211148 20
2.14035 -1.18607 -0.382512 20
2.1451 -1.18629 -0.557035 21
3.35961 -2.73139 0.989973 11
3.43348 -1.89237 1.03974 55
3.44662 -1.90738 0.758261 58
1.49645 -1.21522 0.165596 41
3.44319 -1.91094 0.47857 58
3.4518 -1.91883 0.205157 59
2.12832 -1.18667 -0.0419294 20
2.12959 -1.1869 -0.209844 20
2.12532 -1.18262 -0.380163 20
2.12618 -1.18024 -0.552543 21
3.35655 -2.75822 0.993342 11
3.43441 -1.9156 1.04297 55
3.44121 -1.92719 0.759214 56
1.48836 -1.22119 0.165378 52
3.43963 -1.93258 0.479483 58
3.44388 -1.9381 0.205288 59
2.10703 -1.18886 -0.041624 18
2.1127 -1.19157 -0.208756 20
2.10402 -1.18528 -0.377422 20
2.16831 -1.78686 -0.742973 9
2.10721 -1.18422 -0.549174 21
3.36725 -2.77589 0.997834 11
3.43949 -1.9263 1.04556 56
3.44212 -1.9356 0.760168 58
1.48815 -1.22537 0.165596 52
3.44058 -1.94101 0.480091 58
3.45137 -1.95024 0.205942 58
2.06894 -1.70553 -0.139152 41
2.09407 -1.1864 -0.0414058 20
2.09543 -1.18669 -0.207234 18
2.09119 -1.1829 -0.375465 20
2.15775 -1.78448 -0.740387 9
2.09027 -1.17954 -0.545243 21
3.35592 -2.79719 0.998957 11
3.42936 -1.94428 1.04556 56
1.6209 -1.34962 0.327788 15
3.44261 -1.95965 0.762551 58
1.47597 -1.22836 0.164942 45
3.43252 -1.96023 0.480395 56
3.44328 -1.96952 0.206073 58
2.06352 -1.7199 -0.139415 41
2.0748 -1.18991 -0.041144 20
2.07816 -1.19184 -0.206147 20
2.06781 -1.18405 -0.372333 20
2.15393 -1.8004 -0.742327 9
2.06713 -1.18084 -0.540751 21
3.36972 -2.81868 1.00457 9
3.43016 -1.95265 1.04685 56
1.60907 -1.34452 0.325837 15
3.44524 -1.9699 0.76398 58
1.46809 -1.22615 0.164289 49
3.43771 -1.97114 0.481612 58
3.442 -1.97677 0.206204 58
2.06626 -1.7283 -0.139809 41
2.05754 -1.18483 -0.0408386 21
2.06096 -1.1868 -0.204625 21
2.29193 -1.91997 -0.573304 35
2.05931 -1.18398 -0.371158 21
2.15787 -1.81074 -0.744913 9
2.05237 -1.1772 -0.537382 21
3.42792 -1.97599 1.04944 56
1.598 -1.35002 0.325057 15
3.44125 -1.99159 0.76541 58
1.46144 -1.23407 0.164289 49
3.43344 -1.99344 0.482525 58
2.0629 -1.74394 -0.140202 42
2.04246 -1.19092 -0.0406641 21
2.04179 -1.19007 -0.20332 21
2.2684 -1.92123 -0.56997 35
2.03813 -1.18608 -0.368418 21
2.13915 -1.8142 -0.74168 9
2.03121 -1.17975 -0.533451 21
3.43074 -1.98559 1.05138 56
1.58646 -1.34454 0.323106 14
3.44202 -2.00006 0.766363 58
1.45928 -1.23662 0.164289 49
3.43889 -2.00382 0.483742 56
3.20371 -1.87014 0.192596 38
2.02526 -1.18568 -0.0403587 21
2.02679 -1.18611 -0.202015 21
2.2557 -1.91724 -0.56759 35
2.02111 -1.18095 -0.365677 21
2.13966 -1.82107 -0.742973 9
2.01671 -1.17561 -0.530082 21
2.45683 -2.10613 0.737847 1
3.42691 -2.00658 1.05331 56
1.58128 -1.35443 0.323496 15
3.44032 -2.02242 0.76827 58
1.44544 -1.23751 0.163417 47
3.4369 -2.02683 0.484959 56
1.45422 -1.24547 0.0328105 29
3.4305 -2.02627 0.206989 56
2.00631 -1.1883 -0.0400969 21
2.00983 -1.19039 -0.200928 21
2.23666 -1.92063 -0.565209 35
2.00426 -1.18525 -0.363719 21
2.13408 -1.83502 -0.744267 9
2.00002 -1.17998 -0.527274 23
2.46607 -2.12154 0.741778 1
3.42965 -2.01623 1.05525 56
1.56955 -1.34914 0.321545 18
3.44066 -2.03151 0.769223 58
1.44139 -1.2384 0.163199 47
3.43764 -2.03535 0.485567 56
1.44046 -1.23847 0.0325487 32
3.38183 -2.00557 0.204241 56
1.99563 -1.1867 -0.0399224 21
1.99489 -1.18628 -0.199623 21
2.21844 -1.91171 -0.5614 35
1.99369 -1.18372 -0.362153 21
2.13238 -1.8407 -0.744913 9
1.98747 -1.17729 -0.524467 23
2.46191 -2.14125 0.744024 3
3.42492 -2.03845 1.05719 56
1.55664 -1.35275 0.320374 27
3.43209 -2.05075 0.7697 58
1.42715 -1.23964 0.162328 47
3.43509 -2.05901 0.486784 56
1.43207 -1.24436 0.0325051 33
3.44162 -2.06616 0.208559 58
1.97202 -1.1872 -0.0395733 21
1.97369 -1.18775 -0.198101 23
2.19881 -1.91562 -0.559019 35
1.96839 -1.18274 -0.35863 23
2.12271 -1.85184 -0.744913 9
1.96642 -1.17928 -0.520536 24
2.44937 -2.13711 0.741216 8
3.42758 -2.04813 1.05913 56
1.55266 -1.35357 0.319984 26
3.43482 -2.06052 0.771129 58
1.42686 -1.24377 0.162545 47
3.43824 -2.06824 0.487697 58
1.42236 -1.24028 0.0323306 33
3.44051 -2.07285 0.20869 58
1.95924 -1.1842 -0.0393552 23
1.95881 -1.18349 -0.196796 23
2.18623 -1.91137 -0.556638 35
1.95785 -1.18109 -0.357064 23
2.11403 -1.85076 -0.742973 11
1.95203 -1.17486 -0.517167 24
2.42353 -2.137 0.736724 8
3.42338 -2.0692 1.06107 56
1.53814 -1.35514 0.318423 29
3.43485 -2.08423 0.773512 58
1.41868 -1.24933 0.162328 47
3.42948 -2.0875 0.488001 58
1.41044 -1.2425 0.0321997 35
3.43814 -2.09602 0.209213 59
1.94254 -1.18761 -0.039137 23
1.9377 -1.18467 -0.195274 23
2.17285 -1.91916 -0.555686 36
1.93476 -1.18107 -0.353931 21
2.11006 -1.86624 -0.744913 11
1.93543 -1.17875 -0.514359 24
2.43621 -2.15577 0.741778 9
3.43422 -2.08392 1.06559 58
1.53577 -1.35783 0.318423 35
3.43713 -2.09465 0.774942 59
1.41277 -1.2485 0.161892 44
3.43219 -2.09735 0.488914 61
1.40431 -1.24189 0.0321124 36
3.443 -2.10722 0.209736 65
1.9298 -1.18448 -0.0389189 23
1.93137 -1.18545 -0.194839 23
2.16032 -1.9148 -0.553305 36
1.92216 -1.17801 -0.351974 23
2.10827 -1.87189 -0.74556 11
1.91881 -1.17326 -0.510428 26
2.35191 -2.10392 0.719316 1
3.42496 -2.10373 1.06624 58
1.52656 -1.36447 0.318033 30
3.43239 -2.11647 0.776372 59
1.40414 -1.25447 0.161674 44
3.43346 -2.12371 0.49074 67
1.39034 -1.24256 0.0319379 36
3.44217 -2.13238 0.210391 77
1.91061 -1.18702 -0.0386571 23
1.91455 -1.189 -0.193752 23
2.14079 -1.91827 -0.550924 36
1.90756 -1.18288 -0.350408 21
2.09665 -1.88129 -0.744913 12
1.90413 -1.17852 -0.508182 26
3.42951 -2.11477 1.06882 59
1.52626 -1.36851 0.318423 32
3.44122 -2.13019 0.779231 73
1.40009 -1.25525 0.161456 47
3.43856 -2.13433 0.491957 77
1.38259 -1.23997 0.031807 36
3.44306 -2.14042 0.210652 76
1.89792 -1.18376 -0.0384389 23
2.12832 -1.9138 -0.548543 36
2.09157 -1.88333 -0.744267 12
1.89192 -1.1751 -0.505375 27
3.43107 -2.13975 1.0727 67
1.51907 -1.37649 0.318423 32
3.43664 -2.15148 0.780661 73
1.38819 -1.2573 0.160802 50
3.41893 -2.14703 0.49074 44
1.37445 -1.24528 0.0317634 38
3.41066 -2.14515 0.209344 35
1.35276 -1.22731 -0.219661 12
2.11316 -1.91959 -0.547114 36
2.08022 -1.89227 -0.74362 12
3.36039 -3.05903 1.03939 12
3.42528 -2.14446 1.07205 61
3.41379 -2.14634 0.776372 32
1.38415 -1.25805 0.160584 52
3.39207 -2.13847 0.487393 23
1.36651 -1.24286 0.0316325 39
3.38578 -2.13779 0.208035 20
1.33778 -1.21796 -0.217532 12
2.09712 -1.9117 -0.543781 35
2.0748 -1.89463 -0.742973 12
3.35633 -3.08872 1.04332 12
3.40342 -2.15651 1.06882 27
3.38178 -2.15104 0.771606 20
1.38099 -1.26889 0.16102 52
3.36161 -2.1448 0.484655 18
1.35998 -1.25 0.0316325 41
3.35943 -2.14669 0.20712 18
1.19652 -1.09991 -0.0836226 11
1.32569 -1.22014 -0.216619 14
2.07953 -1.91636 -0.541877 36
3.35327 -3.09564 1.04388 12
3.37722 -2.14821 1.06171 18
3.3656 -2.14903 0.768746 17
1.37694 -1.26961 0.160802 53
3.33277 -2.13463 0.481004 20
1.35964 -1.25407 0.0316761 44
3.33254 -2.13775 0.20568 26
1.20193 -1.10878 -0.0841477 8
1.32721 -1.22582 -0.217228 15
2.06537 -1.90998 -0.53902 38
3.35482 -3.12978 1.04949 12
3.34597 -2.15224 1.05525 17
3.32785 -2.14877 0.762551 23
1.36868 -1.27486 0.160584 49
3.31567 -2.14743 0.480091 36
1.34779 -1.25582 0.0315452 47
3.32378 -2.15594 0.205811 17
1.32642 -1.23761 -0.21814 21
2.04851 -1.91371 -0.537115 38
3.35168 -3.13671 1.05006 11
3.31785 -2.14239 1.0475 27
3.31792 -2.15057 0.761121 21
1.36645 -1.27725 0.160584 49
3.33481 -2.16807 0.483438 2
1.3456 -1.25817 0.0315452 49
3.31582 -2.15902 0.205549 12
1.32426 -1.23992 -0.21814 26
2.08361 -1.35934 -0.214193 42
2.03622 -1.90888 -0.534734 38
3.34527 -3.16484 1.05343 11
3.30051 -2.15577 1.04556 12
3.29839 -2.16254 0.759214 1
1.36155 -1.2861 0.160802 47
3.32757 -2.18822 0.484046 9
1.33536 -1.26176 0.031458 50
3.31282 -2.18184 0.206073 3
1.30875 -1.2383 -0.216619 32
2.08247 -1.3747 -0.214845 42
2.01907 -1.91276 -0.53283 38
2.08227 -1.37252 -0.389951 41
2.67163 -1.75541 -0.728862 9
3.34857 -3.17907 1.05623 11
3.32504 -2.18003 1.05461 1
3.35864 -3.18753 0.726207 11
3.31885 -2.18504 0.764934 3
1.35931 -1.28847 0.160802 45
3.30716 -2.18311 0.481612 3
1.33293 -1.26432 0.031458 50
3.2965 -2.17937 0.205288 12
1.30478 -1.23887 -0.216315 32
2.08215 -1.3797 -0.215063 42
2.08193 -1.37751 -0.390343 42
2.67263 -1.76275 -0.729985 11
3.3366 -3.2022 1.05792 11
3.31118 -2.19666 1.05396 2
3.34669 -3.21079 0.727378 11
3.29919 -2.19695 0.763027 3
1.35591 -1.29926 0.161238 44
3.29324 -2.19959 0.481308 8
1.3281 -1.27302 0.0315016 49
3.28674 -2.19856 0.205419 17
2.06551 -1.38483 -0.042802 41
1.2927 -1.24076 -0.215402 32
2.0749 -1.39059 -0.215063 41
2.07651 -1.39013 -0.390734 41
1.60013 -1.53949 -0.585197 35
2.659 -1.77448 -0.728862 9
3.34735 -3.22265 1.06297 11
3.28119 -2.18507 1.04556 4
3.35353 -3.22862 0.73011 11
3.28718 -2.19726 0.761121 4
1.34826 -1.29644 0.160584 44
3.32446 -2.22879 0.48648 2
1.32047 -1.27013 0.0313707 49
3.2663 -2.19318 0.204372 15
1.29889 -1.24977 -0.0929431 49
2.0714 -1.394 -0.0429765 41
1.29053 -1.24301 -0.215402 30
2.08074 -1.39975 -0.215932 41
2.07818 -1.39649 -0.391517 41
1.58529 -1.53053 -0.58067 36
2.66806 -1.78724 -0.732232 9
3.34034 -3.25091 1.06634 11
3.28574 -2.21299 1.05073 3
3.34543 -3.25474 0.732061 11
3.31633 -2.24188 0.770653 1
1.34859 -1.31043 0.161456 42
3.32508 -2.2545 0.488306 2
1.31201 -1.27528 0.0313271 49
1.29233 -1.25656 -0.0929431 49
2.07028 -1.40903 -0.0431074 41
1.284 -1.24975 -0.215402 27
2.07545 -1.41202 -0.21615 41
2.07518 -1.40976 -0.3923 39
2.65866 -1.80118 -0.732232 9
3.35265 -3.27318 1.07196 11
3.33794 -2.25652 1.06882 1
3.35974 -3.27897 0.736353 11
3.3429 -2.2683 0.777802 11
1.34452 -1.31104 0.161238 42
3.34617 -2.27645 0.491957 14
1.31336 -1.28106 0.0314143 47
1.29013 -1.25881 -0.0929431 49
2.06575 -1.41124 -0.0430638 39
1.28204 -1.25177 -0.215402 27
2.07916 -1.41985 -0.216802 39
2.0768 -1.41616 -0.393083 39
2.64776 -1.79989 -0.729985 9
3.34241 -3.29753 1.0742 11
3.34244 -2.28427 1.07399 14
3.34956 -3.30346 0.737914 11
3.36175 -2.30598 0.784951 15
1.33787 -1.31783 0.161238 41
3.35671 -2.30938 0.495303 4
1.30152 -1.28243 0.0312834 47
1.71916 -1.18735 0.107681 27
1.2782 -1.26029 -0.0925493 47
2.06476 -1.42593 -0.0431947 39
1.27194 -1.25497 -0.214794 32
2.07785 -1.43495 -0.217455 41
1.58244 -1.56289 -0.42474 30
2.07342 -1.42981 -0.393866 41
1.53929 -1.52232 -0.570324 38
2.6383 -1.81373 -0.729985 9
3.34357 -3.31022 1.07645 11
3.36436 -2.30783 1.08239 17
3.35432 -3.31972 0.740255 11
3.39778 -2.34022 0.794482 15
1.33379 -1.31841 0.16102 39
3.35063 -2.31383 0.494999 11
1.29728 -1.28316 0.0312398 47
1.7027 -1.18043 0.106765 33
1.27777 -1.26427 -0.0926806 49
2.06843 -1.43379 -0.0433256 41
1.27503 -1.26243 -0.215706 30
2.07944 -1.4414 -0.21789 42
1.57448 -1.56047 -0.423311 27
2.07499 -1.43623 -0.394649 39
1.52951 -1.51846 -0.567738 41
2.63313 -1.81695 -0.729424 9
3.3411 -3.34377 1.0815 11
3.38559 -2.34937 1.09338 12
3.34852 -3.35005 0.742987 11
3.39757 -2.36638 0.797342 11
1.33192 -1.33089 0.161674 39
3.3401 -2.33334 0.495303 11
1.29408 -1.29348 0.0313271 47
1.68401 -1.18105 0.10598 33
1.26584 -1.26565 -0.0922868 49
2.06475 -1.44782 -0.0434129 41
1.26643 -1.26756 -0.215402 32
2.07799 -1.45655 -0.218542 42
1.56255 -1.56549 -0.422359 27
2.07352 -1.45131 -0.395824 41
1.51984 -1.52474 -0.567091 42
2.62526 -1.83256 -0.729985 9
3.34788 -3.3611 1.08543 11
3.39338 -2.36354 1.09726 11
3.35371 -3.36581 0.745328 11
3.39545 -2.37371 0.797819 11
1.33135 -1.33498 0.161892 38
3.36083 -2.35565 0.498954 14
1.28653 -1.29042 0.0311962 47
1.66579 -1.17224 0.104934 27
2.06836 -1.45573 -0.0435437 41
1.26269 -1.26778 -0.215098 32
2.07953 -1.46303 -0.218977 42
1.5529 -1.56125 -0.420454 33
1.52397 -1.53425 -0.569678 44
2.61838 -1.8339 -0.728862 11
3.34391 -3.39247 1.08992 11
3.38137 -2.38068 1.09726 12
3.34644 -3.39387 0.74767 11
3.39543 -2.39935 0.800678 11
1.32633 -1.34347 0.16211 38
3.39303 -2.40473 0.505647 11
1.28349 -1.30047 0.0312834 44
1.65555 -1.17806 0.104672 30
2.06708 -1.47051 -0.0436746 41
1.25777 -1.27615 -0.215402 32
2.07184 -1.4739 -0.218977 41
1.54842 -1.57259 -0.421407 33
1.50942 -1.53505 -0.567091 41
2.60277 -1.84336 -0.727178 11
3.3431 -3.40352 1.09161 11
3.39103 -2.39632 1.10178 11
3.34224 -3.40147 0.74806 11
3.39282 -2.40729 0.801155 11
1.32398 -1.34579 0.16211 39
3.39085 -2.41208 0.505952 11
1.64536 -1.17516 0.104149 36
2.06451 -1.47412 -0.0436746 41
1.2538 -1.27657 -0.215098 33
2.07332 -1.4804 -0.219412 39
1.54052 -1.57003 -0.419978 33
3.33822 -3.43554 1.0961 11
3.38785 -2.42165 1.10501 11
3.33583 -3.4319 0.750791 11
3.39014 -2.43216 0.803538 11
1.32015 -1.3565 0.162545 38
3.38178 -2.43328 0.50656 11
1.63695 -1.18259 0.104018 39
2.06259 -1.48965 -0.0438055 41
1.24688 -1.28333 -0.215098 32
2.07363 -1.49705 -0.220282 39
1.532 -1.57834 -0.419978 32
3.33959 -3.44778 1.09835 11
3.38362 -2.42755 1.10501 11
3.3459 -3.4531 0.754303 11
3.39785 -2.44666 0.806397 11
1.32298 -1.36417 0.163199 39
3.40011 -2.45455 0.509907 11
1.63104 -1.18224 0.103756 41
2.06202 -1.49471 -0.0438492 39
1.24659 -1.28707 -0.215402 32
2.07101 -1.50067 -0.220282 39
1.53095 -1.58278 -0.420454 32
1.74205 -1.2587 -0.487406 21
3.33161 -3.47577 1.10172 11
3.38498 -2.45456 1.10953 11
3.33973 -3.48306 0.757035 11
3.39138 -2.46815 0.807827 11
1.31778 -1.37265 0.163417 39
1.61676 -1.18488 0.103233 42
2.05846 -1.50807 -0.0439364 39
1.23983 -1.29358 -0.215402 33
2.0752 -1.5203 -0.221586 41
1.51952 -1.58696 -0.419502 32
1.7134 -1.25448 -0.331223 15
1.71967 -1.25634 -0.482913 20
3.34067 -3.49744 1.10677 11
3.3846 -2.4633 1.11083 11
3.34729 -3.50317 0.760157 11
3.40052 -2.48478 0.811163 11
1.31538 -1.37495 0.163417 39
1.61267 -1.18622 0.103102 42
2.05784 -1.51314 -0.0439801 39
1.241 -1.29934 -0.216011 32
2.07053 -1.52245 -0.221369 38
1.52014 -1.59316 -0.420454 32
1.69328 -1.24435 -0.3277 21
1.71157 -1.25503 -0.481229 20
3.33006 -3.52432 1.10958 11
3.37706 -2.48586 1.11276 11
3.33338 -3.52661 0.761328 11
3.38746 -2.50255 0.811163 11
1.31306 -1.38747 0.164071 39
1.72915 -1.28407 0.259821 20
1.60422 -1.19345 0.102971 44
2.06168 -1.53318 -0.0442418 39
1.23054 -1.30242 -0.215402 32
2.06854 -1.53771 -0.222021 38
1.5115 -1.60136 -0.420454 32
1.68475 -1.25173 -0.327308 21
1.693 -1.2556 -0.47786 23
3.33788 -3.54374 1.11407 11
3.37467 -2.49319 1.11341 11
3.34815 -3.55342 0.76601 11
3.39493 -2.51722 0.814023 11
1.72314 -1.28383 0.259213 32
1.59633 -1.1915 0.102578 44
2.061 -1.53827 -0.0442855 41
1.22849 -1.30435 -0.215402 32
2.07385 -1.54726 -0.222891 39
1.51038 -1.60579 -0.420931 27
1.67662 -1.25026 -0.326134 24
1.68906 -1.2568 -0.477298 24
3.32925 -3.57186 1.11744 11
3.3775 -2.52178 1.11858 11
3.3396 -3.58174 0.768351 11
3.38608 -2.53731 0.814976 11
1.7164 -1.29284 0.259213 32
1.58808 -1.19834 0.102448 44
2.05719 -1.55168 -0.0443727 39
1.23517 -1.3253 -0.217836 29
2.07169 -1.56259 -0.223543 41
1.66215 -1.25309 -0.324568 20
1.67271 -1.25833 -0.474491 26
3.33461 -3.59016 1.12137 11
3.37503 -2.52911 1.11923 11
3.34678 -3.60204 0.771473 11
3.38905 -2.5497 0.816882 11
1.71017 -1.29285 0.258604 49
1.58399 -1.19961 0.102317 44
2.06047 -1.55978 -0.0445036 38
1.23117 -1.32563 -0.217532 30
2.07492 -1.5707 -0.224196 39
1.65798 -1.25451 -0.324176 18
1.67441 -1.26418 -0.475614 24
3.32667 -3.62071 1.1253 11
3.36515 -2.55025 1.12052 11
3.33894 -3.63282 0.774205 11
3.38347 -2.57334 0.818789 11
1.57946 -1.20968 0.102448 45
2.05597 -1.57394 -0.0445909 39
1.22398 -1.33228 -0.217532 30
2.07261 -1.58607 -0.224848 39
1.64331 -1.25748 -0.32261 18
1.6656 -1.27174 -0.475052 26
3.33578 -3.64211 1.13035 11
3.378 -2.56926 1.12633 11
3.3426 -3.64957 0.776546 11
3.38093 -2.58073 0.819265 11
1.5714 -1.20788 0.102055 44
2.05918 -1.58208 -0.0447218 38
1.22835 -1.34174 -0.218749 29
1.63523 -1.25584 -0.321436 15
1.66338 -1.27465 -0.475052 26
3.32648 -3.67036 1.13372 11
3.36687 -2.58779 1.12698 11
3.33237 -3.67559 0.778497 11
3.38338 -2.60978 0.823078 9
1.03809 -1.14319 0.132041 36
1.56329 -1.21429 0.101924 44
1.0165 -1.12055 -0.0777152 12
2.05707 -1.59707 -0.0448527 39
1.22154 -1.34794 -0.218749 30
1.62299 -1.25958 -0.320261 15
1.65691 -1.28305 -0.475052 24
3.33476 -3.69243 1.13878 11
3.37001 -2.59956 1.12957 11
3.33919 -3.69607 0.781619 11
1.03108 -1.13946 0.131387 50
1.54286 -1.20111 0.235482 30
1.02935 -1.13834 0.0261786 12
1.55722 -1.21396 0.101663 39
1.01789 -1.12603 -0.0779777 12
2.06021 -1.60526 -0.0449836 39
1.22417 -1.3556 -0.219661 30
1.60908 -1.25333 -0.317912 15
1.65274 -1.28445 -0.474491 24
3.32933 -3.72678 1.14383 11
3.37305 -2.6311 1.13538 11
3.33066 -3.72697 0.784351 11
1.53243 -1.20638 0.234873 36
1.02171 -1.14185 0.026135 15
1.55259 -1.22391 0.101793 38
1.01696 -1.13693 -0.0783715 8
2.05542 -1.61947 -0.0450708 39
1.22012 -1.3659 -0.22027 30
1.6025 -1.26174 -0.317912 15
1.64385 -1.29187 -0.473929 24
3.33319 -3.74292 1.1472 11
3.37606 -2.64293 1.13797 11
3.34451 -3.75433 0.789033 11
1.69505 -1.33476 0.412254 8
1.52858 -1.20726 0.234569 38
1.01972 -1.14363 0.026135 12
1.55067 -1.22634 0.101793 36
1.01498 -1.1387 -0.0783715 4
2.06438 -1.63234 -0.0453326 41
1.21962 -1.36967 -0.220574 30
1.59835 -1.26301 -0.31752 17
3.32643 -3.77495 1.15169 11
3.36454 -2.66148 1.13861 11
3.3346 -3.78291 0.791375 11
1.67096 -1.32961 0.407965 9
1.01379 -1.14823 0.130951 18
1.51641 -1.21061 0.233657 41
1.01392 -1.14878 0.026135 12
1.54423 -1.23445 0.101793 35
1.01395 -1.14962 -0.0787654 4
2.06195 -1.64743 -0.0454635 39
1.21735 -1.38163 -0.221487 35
1.44268 -1.15451 -0.158307 9
1.18598 -1.34691 -0.341411 26
1.58399 -1.26521 -0.315954 17
3.32948 -3.79173 1.15506 11
3.37314 -2.67784 1.14314 11
3.34428 -3.80728 0.795277 11
1.6588 -1.32517 0.405582 9
1.00686 -1.14439 0.130298 15
1.51042 -1.21016 0.233048 42
1.01336 -1.1526 0.0261786 11
1.53622 -1.23247 0.101401 29
1.00865 -1.14764 -0.0785028 8
2.06884 -1.65883 -0.0456817 41
1.21985 -1.38935 -0.2224 32
1.43872 -1.15547 -0.15809 11
1.18848 -1.35452 -0.342839 11
1.58177 -1.26798 -0.315954 17
3.32648 -3.82993 1.16124 11
3.36426 -2.70058 1.14507 11
3.33011 -3.83277 0.796838 11
1.63462 -1.32 0.401292 9
0.995752 -1.14418 0.129644 15
1.50578 -1.21988 0.233352 42
1.00567 -1.156 0.026135 11
1.52758 -1.23919 0.10127 24
1.00263 -1.1529 -0.0785028 8
2.06567 -1.67471 -0.0458126 41
1.22044 -1.4053 -0.223921 23
1.57319 -1.27469 -0.315563 15
3.33799 -3.85541 1.16742 9
3.36519 -2.71099 1.14701 11
3.34186 -3.85854 0.80113 9
1.62849 -1.31977 0.400339 9
0.993753 -1.14591 0.129644 14
1.5 -1.21912 0.232744 42
1.00692 -1.16154 0.0262222 11
1.51981 -1.23688 0.100878 23
1.00225 -1.15654 -0.0786341 8
2.06274 -1.67831 -0.0458126 39
1.2231 -1.41285 -0.224834 23
1.56905 -1.27588 -0.315171 15
3.32568 -3.88209 1.17022 9
3.36642 -2.74017 1.15218 11
3.33607 -3.89286 0.804642 9
1.61418 -1.3218 0.398433 8
0.98794 -1.15093 0.129644 15
1.49168 -1.22539 0.23244 42
1.00428 -1.17041 0.0263095 9
1.50559 -1.23849 0.100354 29
0.999627 -1.16539 -0.0788966 8
2.05615 -1.69032 -0.0458562 39
1.2173 -1.42112 -0.225138 23
1.46324 -1.20426 -0.162439 12
3.33223 -3.90213 1.17472 9
3.36912 -2.75214 1.15477 11
3.34851 -3.92122 0.809325 9
1.60427 -1.3184 0.396526 8
0.98593 -1.15265 0.129644 15
1.48762 -1.22641 0.232135 42
1.00711 -1.17787 0.0264404 8
1.49571 -1.23478 0.0998308 32
0.995972 -1.16524 -0.0787654 8
2.06286 -1.70184 -0.0460743 41
1.21643 -1.42513 -0.225442 20
1.47653 -1.21947 -0.164178 15
2.32108 -1.90742 -0.684502 30
3.32207 -3.93313 1.17865 11
3.37144 -2.78356 1.16058 11
3.33908 -3.9519 0.812057 8
1.58789 -1.31896 0.394143 8
0.987917 -1.16731 0.130734 9
1.47544 -1.22944 0.231223 41
0.9977 -1.17931 0.0263531 8
1.48154 -1.23622 0.0993075 35
0.988246 -1.16853 -0.0786341 4
1.21215 -1.43527 -0.226051 21
1.46054 -1.21922 -0.163091 20
2.29605 -1.90712 -0.68001 29
3.33158 -3.95699 1.18426 9
3.3703 -2.79252 1.16188 11
3.34331 -3.97095 0.814788 8
1.58748 -1.3233 0.39462 8
0.987482 -1.17094 0.130951 8
1.4733 -1.23201 0.231223 41
0.998859 -1.18487 0.0264404 8
1.46979 -1.23081 0.0986533 36
0.986205 -1.17025 -0.0786341 4
1.20964 -1.43739 -0.226051 18
1.4565 -1.22018 -0.162874 23
2.2871 -1.90645 -0.678325 30
3.32414 -3.99181 1.18931 9
3.3649 -2.81787 1.16511 11
3.33827 -4.00738 0.81869 8
1.57864 -1.33001 0.394143 4
0.974962 -1.16844 0.13008 4
1.46303 -1.23651 0.230614 41
0.991042 -1.18816 0.0263968 4
1.46142 -1.23688 0.0985224 36
0.981661 -1.17732 -0.0787654 4
1.21162 -1.45515 -0.227876 23
1.44628 -1.22458 -0.162439 18
2.26402 -1.90744 -0.674394 30
3.33653 -4.01952 1.19605 9
3.33443 -4.017 0.819471 8
1.5782 -1.33435 0.39462 4
0.976103 -1.17397 0.130516 4
1.45897 -1.23746 0.23031 42
0.98737 -1.18797 0.0263531 4
1.45163 -1.23298 0.0979991 39
0.979605 -1.17903 -0.0787654 4
1.21382 -1.463 -0.228789 21
1.43654 -1.22067 -0.161569 15
2.25324 -1.90511 -0.672148 29
3.32246 -4.04693 1.19886 9
3.33215 -4.05731 0.824154 8
1.5768 -1.34736 0.39605 4
0.969942 -1.17906 0.130516 4
1.45247 -1.24509 0.23031 42
0.985894 -1.19892 0.026484 4
1.44135 -1.23732 0.0977374 39
0.976378 -1.18817 -0.0790279 4
1.21558 -1.48085 -0.230614 20
1.42234 -1.22195 -0.160699 20
1.30973 -1.12417 -0.268189 8
1.55214 -1.89546 -0.646626 3
2.23025 -1.90582 -0.668217 29
3.32773 -4.06781 1.20335 9
2.47552 -2.11177 0.861391 1
3.33913 -4.08032 0.827666 8
1.57048 -1.3472 0.395097 4
0.966306 -1.17883 0.130298 3
1.44841 -1.24601 0.230006 42
0.978844 -1.195 0.0263531 4
1.4373 -1.23821 0.0976066 42
0.974303 -1.18987 -0.0790279 4
1.44239 -1.24344 -0.032636 15
1.22399 -1.49642 -0.232744 15
1.41264 -1.21794 -0.159829 21
1.05824 -1.2944 -0.317603 11
1.3059 -1.12484 -0.267798 4
1.54392 -1.89282 -0.644686 3
2.21766 -1.9018 -0.66541 30
3.32099 -4.1047 1.20897 9
2.49153 -2.14875 0.871084 2
1.57269 -1.36342 0.39748 3
0.969313 -1.19565 0.131605 4
1.44165 -1.25382 0.230006 41
0.978862 -1.20789 0.0265277 4
1.42869 -1.24434 0.0974757 42
0.974339 -1.20272 -0.079553 4
1.42242 -1.23977 -0.0323306 26
1.21899 -1.50688 -0.233352 14
1.39872 -1.2188 -0.158959 21
1.04506 -1.29247 -0.315698 9
1.30559 -1.13651 -0.268972 8
1.5249 -1.8896 -0.640806 4
2.20181 -1.90899 -0.663725 30
2.47863 -2.14521 0.867853 2
1.57031 -1.36616 0.39748 3
0.964099 -1.19347 0.131169 3
1.4378 -1.25446 0.229701 44
0.978321 -1.21154 0.0265713 8
1.42108 -1.24167 0.0970832 44
0.975371 -1.20831 -0.0798156 4
1.41271 -1.23568 -0.0321561 26
1.39471 -1.2196 -0.158742 21
1.03511 -1.28473 -0.313317 9
1.3092 -1.14365 -0.270147 9
1.52613 -1.8979 -0.642746 8
2.18592 -1.90128 -0.659795 30
2.47321 -2.16249 0.869791 8
0.954939 -1.19444 0.130734 3
1.43494 -1.26524 0.23031 44
0.973735 -1.21843 0.0266149 4
1.40893 -1.24415 0.0966907 44
0.967475 -1.21145 -0.0796843 4
1.39518 -1.23292 -0.0318943 35
1.02248 -1.28227 -0.311412 8
1.5105 -1.89804 -0.64016 11
2.16861 -1.90627 -0.657548 32
2.47488 -2.17157 0.87173 8
0.959053 -1.2039 0.131605 4
1.43273 -1.26775 0.23031 45
0.974504 -1.22421 0.0267022 3
1.40489 -1.24495 0.0965598 45
0.970017 -1.219 -0.0800781 4
1.3874 -1.23039 -0.0317634 36
1.00804 -1.26867 -0.307603 8
1.50835 -1.90283 -0.640806 11
2.15796 -1.90362 -0.655302 32
2.45767 -2.18013 0.869791 9
0.947907 -1.2032 0.130951 3
1.424 -1.27383 0.230006 44
0.966536 -1.22733 0.0266585 3
1.39254 -1.24755 0.0961673 47
0.960536 -1.22014 -0.0798156 4
1.37139 -1.22956 -0.0315452 38
0.995101 -1.26638 -0.305698 4
1.49837 -1.9107 -0.640806 12
2.13488 -1.90394 -0.651372 32
2.45928 -2.18922 0.87173 2
0.955022 -1.21661 0.132259 3
1.42015 -1.27441 0.229701 42
0.969017 -1.23492 0.0267894 4
1.39058 -1.24974 0.0961673 47
0.964561 -1.22967 -0.0803407 4
1.36552 -1.22862 -0.031458 41
1.49206 -1.90951 -0.639513 11
2.1228 -1.89919 -0.648564 30
0.950378 -1.2234 0.132477 3
1.4153 -1.28349 0.230006 41
0.964285 -1.24178 0.0268331 4
1.38216 -1.25533 0.0960365 49
0.958325 -1.23454 -0.0803407 4
1.35558 -1.23216 -0.0313707 42
2.10739 -1.90538 -0.646879 32
0.954332 -1.23294 0.133348 3
1.41122 -1.2843 0.229701 39
0.957533 -1.23753 0.0267022 4
1.37997 -1.25774 0.0960365 49
0.957695 -1.23819 -0.080472 4
1.34972 -1.23116 -0.0312834 44
2.09503 -1.90089 -0.644072 32
1.63514 -2.13945 0.612626 2
3.35062 -3.05438 1.20388 12
0.947647 -1.23809 0.133348 3
1.40974 -1.29694 0.230614 38
0.956892 -1.25064 0.0268767 4
1.36946 -1.26181 0.0957748 49
0.946437 -1.2374 -0.0800781 4
1.34304 -1.23845 -0.0312834 45
2.07573 -1.90398 -0.641264 32
1.62736 -2.1362 0.610942 9
3.37026 -3.08301 1.21293 11
0.95001 -1.24568 0.134002 3
1.4077 -1.29915 0.230614 38
0.956221 -1.2543 0.0269203 3
1.36564 -1.26227 0.095644 49
0.94881 -1.24501 -0.080472 3
1.33536 -1.23571 -0.0311525 47
1.21899 -1.12822 -0.141998 4
2.06555 -1.90065 -0.639018 32
1.62933 -2.16221 0.615995 9
3.35461 -3.10003 1.21293 11
0.945191 -1.25246 0.13422 3
1.40451 -1.30988 0.231223 35
0.954371 -1.26511 0.0270512 4
1.35901 -1.2694 0.095644 49
0.948502 -1.25777 -0.0809971 3
1.32726 -1.24075 -0.0311089 47
2.04664 -1.90316 -0.63621 32
1.63617 -2.17841 0.619926 2
3.3616 -3.11736 1.21745 11
0.943004 -1.25411 0.13422 4
1.40404 -1.31402 0.231527 33
0.952162 -1.26677 0.0270512 3
1.35315 -1.26837 0.0953823 49
0.94331 -1.25543 -0.0807345 3
1.32144 -1.23966 -0.0310216 47
2.03796 -1.90175 -0.634526 33
3.35405 -3.14317 1.22068 11
0.943847 -1.26903 0.135309 3
1.40076 -1.32475 0.232135 32
0.949985 -1.27776 0.0271821 3
1.34467 -1.27372 0.0952514 49
0.942452 -1.26854 -0.0812596 4
1.31311 -1.24484 -0.030978 49
1.29753 -1.23017 -0.153088 50
3.36265 -3.16224 1.22585 11
3.37489 -3.18587 0.894567 11
0.946074 -1.27668 0.135963 3
1.40025 -1.3289 0.23244 30
0.944558 -1.27557 0.0270949 3
1.34426 -1.27779 0.0953823 49
0.946171 -1.27821 -0.0817847 4
1.30549 -1.24198 -0.0308471 47
1.29357 -1.23072 -0.152871 50
3.28757 -4.49609 1.27579 14
3.3525 -3.18704 1.22844 11
3.2921 -4.50066 0.875663 14
3.36528 -3.21027 0.896474 11
0.934742 -1.27575 0.135309 3
1.39304 -1.33646 0.23244 27
0.943767 -1.28856 0.0272694 3
1.33552 -1.28331 0.0952514 49
0.937992 -1.28113 -0.0816534 4
1.29875 -1.24902 -0.0308471 49
1.28351 -1.23403 -0.152436 52
3.30058 -4.52881 1.28365 14
3.35918 -3.20454 1.23296 11
3.29957 -4.52579 0.879565 14
3.36322 -3.21953 0.897427 11
0.935448 -1.28141 0.135745 3
1.3981 -1.34551 0.233657 24
0.942989 -1.29223 0.027313 3
1.3317 -1.28368 0.0951206 49
0.935754 -1.28277 -0.0816534 3
1.29657 -1.25129 -0.0308471 49
1.28315 -1.238 -0.152653 52
3.28964 -4.56382 1.28871 14
3.35336 -3.23154 1.23684 11
3.29171 -4.56504 0.883858 14
3.35571 -3.24503 0.89981 11
0.92458 -1.28006 0.135091 3
1.39282 -1.35454 0.233961 24
1.32675 -1.29237 0.0952514 49
0.937779 -1.29981 -0.0824411 3
1.28483 -1.25261 -0.0307162 49
1.27665 -1.2447 -0.152653 52
1.17448 -1.14407 -0.254486 4
3.28877 -4.57945 1.29151 14
3.35988 -3.24913 1.24136 11
3.30102 -4.59484 0.888541 14
3.36534 -3.26684 0.904099 11
0.929609 -1.29179 0.136181 3
1.3958 -1.36215 0.234873 23
1.3245 -1.29469 0.0952514 49
0.934053 -1.29941 -0.0823098 3
1.28085 -1.25311 -0.0306726 50
1.27091 -1.24345 -0.152218 52
1.17602 -1.14956 -0.255269 4
1.57096 -1.53021 -0.497513 18
