# .PCD v0.7 - Point Cloud Data file format
VERSION 0.7
FIELDS x y z intensity
SIZE 4 4 4 4
TYPE F F F F
COUNT 1 1 1 1
WIDTH 1589
HEIGHT 1
VIEWPOINT 0 0 0 1 0 0 0
POINTS 1589
DATA ascii
-0.777621 -2.25393 -0.0410132 49
-1.23672 -2.22846 -0.308195 47
-0.779706 -2.25997 -0.205712 50
-1.23842 -2.22971 -0.48807 49
-0.774808 -2.25072 -0.371941 50
-1.24268 -2.23374 -0.675078 55
-0.770225 -2.24486 -0.539066 47
-3.13111 -5.62146 1.47513 33
-1.89885 -5.56904 1.56511 14
-3.12215 -5.60767 1.00873 35
-1.85197 -5.3973 1.10141 1
-1.91609 -5.56259 0.717094 21
-1.24234 -2.23213 0.0439801 49
-0.781467 -2.25485 0.123251 45
-1.24243 -2.2314 -0.132457 45
-0.783183 -2.25729 -0.0411004 49
-1.24181 -2.22847 -0.3085 49
-0.785272 -2.26332 -0.206147 52
-1.24351 -2.22968 -0.488546 49
-0.778735 -2.24936 -0.371941 50
-1.24933 -2.23556 -0.676371 55
-0.775722 -2.24812 -0.540189 49
-3.16507 -5.6108 1.47682 33
-1.92817 -5.5564 1.56446 14
-3.15609 -5.59715 1.0099 33
-1.9399 -5.55904 1.13668 15
-1.88228 -5.36944 0.693364 1
-1.25523 -2.22778 0.0440237 49
-0.796132 -2.25766 0.123644 47
-1.25533 -2.22704 -0.132588 45
-0.794557 -2.25066 -0.0410568 50
-1.25752 -2.2282 -0.309412 49
-0.797112 -2.25917 -0.206147 52
-1.25797 -2.22719 -0.489498 49
-0.79171 -2.24744 -0.372333 50
-1.2634 -2.23319 -0.677664 55
-0.787874 -2.24389 -0.540189 49
-3.17868 -5.6143 1.47906 33
-1.93707 -5.55075 1.56382 14
-3.17437 -5.60667 1.01263 35
-1.95852 -5.58113 1.14192 15
-1.90811 -5.41297 0.699448 1
-1.26035 -2.22776 0.0440673 49
-0.800071 -2.25626 0.123644 47
-1.26044 -2.22701 -0.13272 45
-0.800147 -2.25399 -0.041144 49
-1.26385 -2.23032 -0.310021 49
-0.80271 -2.26248 -0.206582 62
-1.26428 -2.22926 -0.490451 49
-0.797271 -2.25072 -0.373116 50
-1.26729 -2.23098 -0.677664 55
-0.791789 -2.24252 -0.540189 49
-3.21288 -5.60603 1.48131 33
-1.97722 -5.57503 1.57351 14
-3.21008 -5.60339 1.01497 33
-2.00072 -5.61045 1.15002 15
-1.93799 -5.41025 0.700361 1
-1.27534 -2.22786 0.0441982 49
-0.812322 -2.25454 0.123775 47
-1.27457 -2.22471 -0.132982 45
-0.813232 -2.25462 -0.0412313 50
-1.27759 -2.22819 -0.310629 49
-0.814545 -2.25824 -0.206582 90
-1.27921 -2.22922 -0.491879 49
-0.808652 -2.24665 -0.373116 52
-1.27977 -2.22663 -0.678311 55
-0.805583 -2.24536 -0.541874 49
-3.22752 -5.60886 1.48356 33
-1.99909 -5.6057 1.5832 14
-3.22971 -5.6149 1.0181 33
-2.02637 -5.64819 1.1586 20
-1.94827 -5.40919 0.700665 1
-1.28336 -2.2319 0.0443291 49
-0.817101 -2.25546 0.123905 47
-1.28468 -2.2333 -0.133639 47
-0.817166 -2.25319 -0.0412313 49
-1.28148 -2.22596 -0.310629 49
-0.817641 -2.25447 -0.206364 49
-1.28555 -2.23124 -0.492832 49
-0.813408 -2.24756 -0.373507 52
-1.28646 -2.22835 -0.679604 55
-0.809501 -2.24395 -0.541874 49
-3.26518 -5.60395 1.48692 35
-2.04418 -5.63568 1.59483 15
-3.26501 -5.60588 1.01966 35
-2.06347 -5.65826 1.16289 24
-1.9775 -5.39857 0.700665 1
-1.29628 -2.22731 0.0443727 49
-0.830151 -2.25336 0.124036 47
-1.29636 -2.22655 -0.133639 47
-0.828485 -2.24639 -0.0411877 49
-1.29726 -2.22542 -0.311542 49
-0.829434 -2.25016 -0.206364 50
-1.29884 -2.22637 -0.493308 47
-0.826013 -2.24559 -0.373899 49
-1.30177 -2.22784 -0.681544 53
-0.823299 -2.24412 -0.542997 49
-3.27521 -5.60091 1.48749 32
-2.05814 -5.64345 1.59806 15
-3.27007 -5.59435 1.01849 15
-2.06828 -5.64082 1.16003 21
-1.98513 -5.39313 0.700361 1
-1.30396 -2.23152 0.0445036 49
-0.832828 -2.24971 0.123905 41
-1.3015 -2.22643 -0.13377 49
-0.834133 -2.24963 -0.0412749 49
-1.30326 -2.22767 -0.312151 49
-0.835082 -2.25338 -0.206799 50
-1.30273 -2.2241 -0.493308 47
-0.831634 -2.24878 -0.374682 49
-1.30688 -2.22765 -0.682191 53
-0.827661 -2.24511 -0.543558 50
-3.2958 -5.56901 1.48356 4
-2.08584 -5.63069 1.59742 15
-3.27039 -5.52827 1.00951 1
-2.0951 -5.62568 1.15908 20
-2.00987 -5.37336 0.699144 1
-1.31396 -2.22274 0.04446 47
-0.848093 -2.25467 0.124429 47
-1.31569 -2.22389 -0.134032 47
-0.849013 -2.25475 -0.0414495 49
-1.31364 -2.21868 -0.311846 47
-0.850361 -2.25831 -0.207669 59
-1.31647 -2.2217 -0.49426 47
-0.845989 -2.25133 -0.375856 49
-1.31814 -2.221 -0.682191 52
-0.842804 -2.24988 -0.545805 49
-3.28934 -5.53603 1.47626 2
-2.0923 -5.61799 1.59483 15
-3.22075 -5.42278 0.99117 1
-2.09559 -5.59406 1.15336 17
-2.01227 -5.35126 0.69671 1
-1.32206 -2.22666 0.0445909 49
-0.852027 -2.25318 0.124429 47
-1.32467 -2.23017 -0.134558 47
-0.851187 -2.24858 -0.0413622 47
-1.32386 -2.22704 -0.313367 47
-0.853424 -2.25449 -0.207452 56
-1.32537 -2.22783 -0.496165 47
-0.849917 -2.24985 -0.375856 47
-1.32735 -2.22676 -0.684777 53
-0.845876 -2.24612 -0.545243 50
-3.32803 -5.53276 1.48019 4
-2.1201 -5.59981 1.59289 14
-3.27677 -5.44971 0.999364 3
-2.12136 -5.57383 1.15145 17
-2.11987 -5.54665 0.723788 21
-1.3337 -2.2197 0.0445909 47
-0.865096 -2.25087 0.12456 47
-1.33762 -2.22534 -0.134689 47
-0.866019 -2.25095 -0.0414931 47
-1.33461 -2.21772 -0.313063 47
-0.864327 -2.24767 -0.207234 49
-1.33614 -2.21852 -0.495689 47
-0.864326 -2.25229 -0.377031 49
-1.34024 -2.22185 -0.685424 52
-0.859749 -2.24607 -0.546366 50
-3.32538 -5.50876 1.47513 14
-2.11959 -5.56901 1.58514 14
-3.26108 -5.40439 0.99195 2
-2.12146 -5.5449 1.14621 15
-2.12148 -5.52478 0.721354 21
-1.34145 -2.22379 0.0447218 47
-0.868631 -2.24951 0.12456 45
-1.34666 -2.23155 -0.135214 47
-0.869049 -2.2471 -0.0414495 47
-1.34322 -2.22412 -0.31428 47
-0.869142 -2.24848 -0.207452 47
-1.34509 -2.22459 -0.497593 47
-0.867371 -2.24848 -0.376639 47
-1.34787 -2.2257 -0.687364 52
-0.863276 -2.24471 -0.546366 50
-3.33005 -5.45178 1.46446 14
-2.13906 -5.53567 1.57868 14
-3.40004 -5.56847 1.02551 9
-2.14507 -5.52265 1.14383 15
-2.15848 -5.53441 0.724092 17
-1.35399 -2.21911 0.0447654 47
-0.878583 -2.24028 0.124298 45
-1.35963 -2.2266 -0.135345 47
-0.881321 -2.245 -0.0414931 47
-1.35744 -2.22129 -0.314889 47
-0.882714 -2.24854 -0.207887 47
-1.3589 -2.22194 -0.498546 47
-0.879132 -2.24391 -0.376639 49
-1.36291 -2.22503 -0.689303 52
-0.875899 -2.24243 -0.546928 49
-3.31917 -5.41273 1.45548 12
-2.14785 -5.52968 1.57803 14
-3.3891 -5.52884 1.01927 12
-2.17794 -5.57569 1.15574 15
-3.41178 -5.56799 0.568255 11
-2.20971 -5.63693 0.738087 24
-1.36478 -2.22716 0.0449836 47
-0.886136 -2.24804 0.124821 45
-1.36613 -2.22848 -0.135608 47
-0.887976 -2.25044 -0.041624 49
-1.36262 -2.22103 -0.315193 47
-0.886637 -2.24699 -0.207887 47
-1.36663 -2.22583 -0.499974 47
-0.884848 -2.24697 -0.377422 49
-1.36971 -2.22652 -0.690597 53
-0.879812 -2.2409 -0.546928 47
-3.33299 -5.36986 1.44874 12
-2.1972 -5.56741 1.59225 14
-3.40333 -5.48525 1.01458 12
-2.236 -5.63723 1.17099 23
-3.36701 -5.42883 0.555836 1
-2.23651 -5.61567 0.73687 30
-1.37643 -2.21998 0.0449836 47
-0.898286 -2.24321 0.124821 45
-1.37948 -2.22317 -0.135739 47
-0.900139 -2.2456 -0.041624 49
-1.37723 -2.21784 -0.315801 47
-0.901548 -2.2491 -0.208539 50
-1.38254 -2.22466 -0.501403 45
-0.897904 -2.24444 -0.377814 49
-1.3839 -2.22342 -0.69189 53
-0.893719 -2.24064 -0.548051 47
-3.32045 -5.32889 1.43919 12
-2.23268 -5.62869 1.61099 15
-3.41943 -5.48978 1.01653 14
-2.24138 -5.61925 1.16813 20
-3.35014 -5.38066 0.551478 1
-2.24078 -5.59793 0.735044 27
-1.38333 -2.22158 0.0450708 45
-0.904055 -2.24628 0.125083 45
-1.386 -2.225 -0.136002 45
-0.904057 -2.24403 -0.041624 47
-1.38504 -2.22175 -0.316714 45
-0.906398 -2.24984 -0.208756 49
-1.38642 -2.22224 -0.501403 45
-0.900904 -2.24058 -0.377422 50
-1.38945 -2.2228 -0.692537 53
-0.89853 -2.24134 -0.548612 47
-3.32453 -5.2717 1.42853 12
-2.2586 -5.60533 1.60776 15
-3.46357 -5.49418 1.02083 12
-2.26341 -5.58923 1.16432 18
-3.43632 -5.45305 0.560847 12
-2.26731 -5.57653 0.733827 26
-1.39894 -2.22065 0.0452017 47
-0.917135 -2.24367 0.125214 45
-1.4003 -2.22194 -0.136264 47
-0.918069 -2.24373 -0.0417112 47
-1.40102 -2.22051 -0.317627 45
-0.92098 -2.25198 -0.209409 49
-1.40236 -2.22093 -0.502831 45
-0.917266 -2.24727 -0.37938 47
-1.40753 -2.2257 -0.69577 52
-0.911558 -2.2387 -0.549174 47
-3.31456 -5.23766 1.42066 12
-2.25933 -5.57899 1.60129 15
-3.49993 -5.53255 1.02902 12
-2.26855 -5.5739 1.16194 18
-3.51376 -5.55437 0.57196 12
-2.26764 -5.55228 0.731089 29
-1.40683 -2.22454 0.0453326 47
-0.921602 -2.24454 0.125345 45
-1.40818 -2.22582 -0.136658 47
-0.92293 -2.24444 -0.0417549 45
-1.40716 -2.2225 -0.318235 45
-0.923967 -2.24807 -0.209191 47
-1.40755 -2.22055 -0.503307 45
-0.921187 -2.24566 -0.37938 47
-1.41141 -2.22324 -0.69577 53
-0.917827 -2.24404 -0.550858 52
-3.3196 -5.18536 1.41112 12
-2.28754 -5.56748 1.60129 15
-3.54084 -5.53286 1.03253 12
-2.29299 -5.55327 1.16003 18
-3.54048 -5.53441 0.571742 11
-2.29478 -5.53575 0.730481 27
-1.42077 -2.2216 0.0454199 47
-0.935253 -2.24429 0.125606 44
-1.42482 -2.22707 -0.137183 45
-0.934278 -2.23974 -0.0417549 47
-1.42012 -2.21719 -0.31854 47
-0.938195 -2.25026 -0.209844 49
-1.42275 -2.2196 -0.504736 45
-0.933485 -2.24325 -0.379772 49
-1.42917 -2.22622 -0.699003 52
-0.930493 -2.24145 -0.55142 52
-3.3093 -5.15145 1.40326 12
-2.28898 -5.54338 1.59548 15
-3.54685 -5.52314 1.03175 11
-2.29799 -5.53793 1.15765 18
-3.55148 -5.53032 0.57196 11
-2.29967 -5.52297 0.729264 30
-1.42734 -2.22332 0.0455071 47
-0.939737 -2.24512 0.125737 45
-1.4287 -2.22458 -0.137183 47
-0.941071 -2.24503 -0.0418858 45
-1.42897 -2.2233 -0.319757 47
-0.941164 -2.24632 -0.209626 47
-1.42795 -2.21917 -0.505212 45
-0.938347 -2.2439 -0.380163 49
-1.43568 -2.22778 -0.700296 52
-0.935879 -2.24449 -0.552543 47
-3.30835 -5.09116 1.39146 12
-2.31514 -5.52727 1.59419 15
-3.57303 -5.50035 1.03097 9
-2.32029 -5.51265 1.15479 15
-3.56858 -5.49557 0.570216 9
-2.32952 -5.51314 0.729568 21
-1.43994 -2.21816 0.0455508 47
-0.953422 -2.24477 0.125999 47
-1.4413 -2.21941 -0.137314 45
-0.952422 -2.24024 -0.0418858 47
-1.44195 -2.21787 -0.320061 45
-0.95543 -2.24841 -0.210279 49
-1.44184 -2.21603 -0.506164 44
-0.951612 -2.24367 -0.380946 49
-1.44957 -2.22453 -0.701589 52
-0.946673 -2.23731 -0.551981 47
-3.30436 -5.06759 1.38641 11
-2.32759 -5.5299 1.59613 14
-3.57762 -5.48852 1.0298 9
-2.35376 -5.56511 1.1667 14
-3.5768 -5.48725 0.569999 11
-2.38365 -5.61687 0.743867 27
-1.44791 -2.22193 0.0456817 47
-0.956947 -2.24327 0.125999 47
-1.44927 -2.22317 -0.137708 45
-0.959263 -2.24547 -0.0420167 45
-1.4495 -2.22184 -0.320973 47
-0.959353 -2.24674 -0.210279 47
-1.45242 -2.22378 -0.508545 45
-0.957453 -2.24656 -0.381729 47
-1.4561 -2.22604 -0.702883 53
-0.953032 -2.24255 -0.553666 50
-3.31609 -5.02786 1.38023 9
-2.37921 -5.57359 1.61228 12
-3.59951 -5.45941 1.02785 8
-2.41086 -5.62082 1.181 18
-3.61413 -5.48363 0.571524 8
-2.41597 -5.61115 0.74478 29
-1.45913 -2.21457 0.0456817 47
-0.971641 -2.24511 0.126391 45
-1.46501 -2.2218 -0.138102 45
-0.972594 -2.24518 -0.0421039 45
-1.46522 -2.22043 -0.321886 47
-0.973074 -2.24626 -0.210714 49
-1.46366 -2.2164 -0.508545 45
-0.970179 -2.24378 -0.382121 47
-1.47135 -2.22468 -0.704822 52
-0.966681 -2.24201 -0.554789 50
-3.30872 -4.99769 1.3735 4
-2.41079 -5.6205 1.62714 14
-3.68674 -5.57048 1.05009 9
-2.42553 -5.6252 1.18291 21
-3.68555 -5.57077 0.581329 11
-2.41985 -5.59325 0.742955 27
-1.46752 -2.21802 0.0458126 47
-0.975558 -2.24341 0.126391 47
-1.47303 -2.22548 -0.138496 45
-0.976512 -2.24348 -0.0421039 45
-1.47046 -2.21994 -0.32219 45
-0.978972 -2.24913 -0.211148 49
-1.4716 -2.21998 -0.509974 45
-0.976052 -2.24662 -0.382904 47
-1.47695 -2.22387 -0.705469 52
-0.97252 -2.24479 -0.555912 50
-2.43924 -5.60294 1.62585 15
-3.72507 -5.56276 1.05243 9
-2.44513 -5.58993 1.17814 17
-3.71563 -5.55074 0.581329 11
-2.4461 -5.57099 0.741738 26
-1.48329 -2.21653 0.0459435 47
-0.989689 -2.24267 0.126653 45
-1.48744 -2.22188 -0.138758 45
-0.990647 -2.24274 -0.0421912 45
-1.48522 -2.21607 -0.322799 45
-0.992738 -2.24854 -0.211583 50
-1.48495 -2.21402 -0.51045 45
-0.989185 -2.24356 -0.383295 47
-1.49397 -2.22412 -0.708056 52
-0.985627 -2.24173 -0.556474 49
-2.44708 -5.59425 1.62456 14
-3.73478 -5.55625 1.05243 9
-2.45193 -5.57891 1.17671 17
-3.71142 -5.52358 0.57915 11
-2.45082 -5.55536 0.740217 23
-1.48995 -2.21809 0.0460307 45
-0.994609 -2.24323 0.126784 45
-1.4955 -2.2255 -0.139152 47
-0.996579 -2.24558 -0.0422784 45
-1.49324 -2.21965 -0.323712 45
-0.996661 -2.2468 -0.211583 47
-1.4943 -2.21957 -0.512354 45
-0.994095 -2.24409 -0.383687 47
-1.4992 -2.22351 -0.708702 50
-0.990519 -2.24224 -0.557035 50
-2.47536 -5.57915 1.62391 14
-3.74715 -5.51212 1.04775 8
-2.47811 -5.55927 1.17528 15
-3.74309 -5.50819 0.579586 11
-2.47178 -5.52432 0.737783 23
-1.50435 -2.21439 0.046118 45
-1.00838 -2.24255 0.127046 45
-1.50994 -2.22177 -0.139415 45
-1.00934 -2.24261 -0.0423221 45
-1.51043 -2.22 -0.324929 45
-1.01248 -2.25064 -0.212453 49
-1.50867 -2.21577 -0.513307 45
-1.00684 -2.24111 -0.384078 47
-1.5149 -2.22161 -0.710642 50
-1.00423 -2.24147 -0.558158 49
-2.47921 -5.56158 1.62004 14
-3.75816 -5.50761 1.04814 4
-2.4778 -5.53253 1.17052 15
-3.73445 -5.47491 0.576753 9
-2.4865 -5.53132 0.739304 26
-1.51385 -2.22002 0.0462925 45
-1.01332 -2.24306 0.127176 45
-1.51522 -2.22119 -0.139546 45
-1.01428 -2.24313 -0.0423657 45
-1.5157 -2.21941 -0.325233 45
-1.01539 -2.2466 -0.212236 47
-1.51669 -2.21921 -0.514735 45
-1.01277 -2.24386 -0.384861 47
-1.52151 -2.22295 -0.711935 50
-1.00814 -2.23972 -0.558158 49
-2.50231 -5.53268 1.61551 14
-3.76966 -5.46078 1.04307 8
-2.51175 -5.52798 1.17242 18
-3.75836 -5.44642 0.575882 9
-2.52872 -5.54489 0.742955 24
-1.52868 -2.21591 0.0463798 45
-1.02854 -2.24436 0.127569 45
-1.53147 -2.21912 -0.13994 45
-1.02848 -2.24216 -0.042453 45
-1.53051 -2.21526 -0.325841 45
-1.02959 -2.24561 -0.212671 49
-1.53426 -2.21904 -0.51664 45
-1.02655 -2.24302 -0.385644 47
-1.53764 -2.22064 -0.713875 50
-1.02226 -2.23866 -0.559281 50
-2.50697 -5.51731 1.61228 14
-3.80496 -5.49341 1.05048 8
-2.54479 -5.57495 1.18338 15
-3.81467 -5.50741 0.583072 9
-2.57559 -5.62441 0.754212 30
-1.53397 -2.21529 0.0464234 47
-1.03207 -2.24274 0.127569 45
-1.53677 -2.2185 -0.140071 44
-1.03447 -2.2449 -0.0425402 45
-1.53823 -2.21897 -0.326754 44
-1.03559 -2.24834 -0.213106 49
-1.53953 -2.21838 -0.517116 45
-1.03149 -2.24347 -0.386036 47
-1.54427 -2.22192 -0.715168 50
-1.02779 -2.24149 -0.560404 49
-2.54596 -5.52869 1.61939 14
-3.86343 -5.51588 1.05868 9
-2.58841 -5.59543 1.19053 18
-3.88107 -5.5431 0.588955 11
-2.60709 -5.61535 0.75482 27
-1.54947 -2.21364 0.0465543 44
-1.04485 -2.23957 0.1277 45
-1.54979 -2.21246 -0.140202 45
-1.04477 -2.23737 -0.0424966 45
-1.05049 -2.24966 -0.213758 49
-1.55639 -2.21859 -0.519021 45
-1.04323 -2.23804 -0.386036 47
-1.55967 -2.22 -0.717108 50
-1.04054 -2.23829 -0.560966 50
-2.57484 -5.56589 1.63167 14
-3.89578 -5.54145 1.06492 9
-2.61051 -5.61493 1.19577 18
-3.88215 -5.5241 0.587648 11
-2.60118 -5.57705 0.750256 18
-1.55659 -2.21475 0.0466416 45
-1.05087 -2.24227 0.127961 44
-1.5594 -2.21792 -0.140727 44
-1.05185 -2.24234 -0.0426275 45
-1.05336 -2.24556 -0.21354 45
-1.56025 -2.21587 -0.519021 47
-1.05026 -2.24293 -0.38721 45
-1.56671 -2.22094 -0.718402 50
-1.04444 -2.23647 -0.560966 49
-3.35706 -4.71929 1.32689 3
-2.62949 -5.60437 1.64718 14
-3.92284 -5.51627 1.06414 9
-2.62838 -5.57676 1.19053 15
-3.91054 -5.50098 0.58743 11
-2.61013 -5.51801 0.744172 15
-1.57251 -2.21268 0.0467724 45
-1.06512 -2.24106 0.128223 44
-1.06503 -2.23887 -0.0426711 45
-1.06617 -2.24227 -0.213758 45
-1.5765 -2.21339 -0.520449 45
-1.06515 -2.24409 -0.388385 47
-1.58253 -2.21861 -0.720341 50
-1.05757 -2.23299 -0.561527 50
-3.4126 -4.78142 1.34598 4
-2.62179 -5.56262 1.63619 14
-3.92289 -5.49804 1.0618 8
-2.62343 -5.5411 1.18386 14
-3.91579 -5.48807 0.586776 9
-2.61667 -5.50942 0.743563 20
-1.06971 -2.24164 0.128354 45
-1.07001 -2.23927 -0.0427148 47
-1.07115 -2.24266 -0.213975 45
-1.07118 -2.24669 -0.389168 47
-1.58921 -2.21977 -0.721635 50
-1.06003 -2.22912 -0.560966 49
-3.44044 -4.76744 1.3471 9
-2.64264 -5.53402 1.63167 14
-3.93573 -5.4554 1.05751 4
-2.64191 -5.50783 1.17957 15
-3.92457 -5.44192 0.583943 11
-2.64763 -5.50012 0.744172 23
-1.08251 -2.23826 0.128485 44
-1.08459 -2.24058 -0.0428457 47
-1.08396 -2.23926 -0.214193 44
-1.08507 -2.2455 -0.389951 47
-1.60326 -2.21561 -0.722928 50
-1.07485 -2.23013 -0.56265 49
-3.47735 -4.80088 1.35833 11
-2.65647 -5.53812 1.63425 14
-2.65141 -5.50053 1.17909 15
-2.65291 -5.48655 0.742955 23
-1.0875 -2.23862 0.128616 44
-1.09067 -2.24319 -0.0429329 47
-1.09221 -2.24633 -0.215063 47
-1.09006 -2.24583 -0.390343 49
-1.61035 -2.21643 -0.724221 50
-1.08191 -2.23484 -0.564335 49
-3.33621 -4.55407 1.2932 2
-2.67374 -5.49759 1.6265 14
-2.68878 -5.50422 1.18291 15
-2.69128 -5.48995 0.745389 26
-1.1018 -2.23718 0.128877 44
-1.10279 -2.23725 -0.0429329 45
-1.10286 -2.23835 -0.214845 47
-1.10181 -2.24009 -0.390343 47
-1.6248 -2.21186 -0.725514 50
-1.09399 -2.22895 -0.564335 47
-3.32893 -4.5292 1.28758 2
-2.69285 -5.51245 1.63231 15
-2.69623 -5.49511 1.18195 17
-2.69771 -5.48126 0.74478 24
-1.10641 -2.23769 0.129008 44
-1.16761 -1.58952 -0.10187 12
-1.1089 -2.23981 -0.0430202 45
-1.11116 -2.24536 -0.215715 49
-1.10898 -2.24481 -0.391517 47
-1.63439 -2.21679 -0.728101 49
-1.10071 -2.23379 -0.56602 49
-3.31335 -4.45892 1.27242 3
-2.72072 -5.49875 1.63231 14
-2.736 -5.50558 1.1872 18
-2.74296 -5.50038 0.749344 21
-1.22002 -1.64389 0.035123 11
-1.12145 -2.23857 0.129401 44
-1.16548 -1.56936 -0.100951 14
-1.12246 -2.23864 -0.0431074 45
-1.12291 -2.23951 -0.215715 45
-1.12072 -2.23898 -0.391517 47
-1.64703 -2.21043 -0.728748 49
-1.11455 -2.23236 -0.567143 47
-3.30365 -4.4297 1.26568 4
-2.74212 -5.51779 1.63942 14
-2.77393 -5.55523 1.19911 18
-2.77142 -5.53332 0.754516 21
-1.2157 -1.63152 0.0349048 11
-1.12648 -2.23884 0.129531 44
-1.16971 -1.56932 -0.101082 14
-1.12861 -2.24115 -0.0431947 45
-1.12904 -2.242 -0.21615 49
-1.12794 -2.24364 -0.392692 49
-1.65707 -2.21499 -0.731334 49
-1.11736 -2.22823 -0.566581 47
-2.77736 -5.51367 1.64265 14
-2.80409 -5.54282 1.19959 15
-2.84954 -5.61342 0.767598 35
-1.22724 -1.62913 0.0349921 11
-1.1397 -2.23494 0.129662 44
-1.1734 -1.5572 -0.100688 14
-1.14298 -2.23946 -0.043282 45
-1.14528 -2.24494 -0.21702 49
-1.13967 -2.2377 -0.392692 47
-1.67593 -2.21591 -0.734567 49
-1.1327 -2.22868 -0.568266 47
-2.82072 -5.57564 1.66268 14
-2.85149 -5.61234 1.21579 20
-2.84935 -5.59125 0.765164 26
-1.23008 -1.62698 0.0349921 11
-1.14548 -2.2376 0.129924 44
-1.17461 -1.55316 -0.100557 15
-1.14916 -2.24192 -0.0433692 44
-1.15146 -2.24737 -0.217455 49
-1.14358 -2.23571 -0.392692 47
-1.13951 -2.23341 -0.56995 47
-2.86869 -5.6 1.67432 15
-2.8709 -5.58037 1.21198 17
-2.8695 -5.55861 0.76273 23
-1.23678 -1.61875 0.0349484 11
-1.16176 -2.24044 0.130447 44
-1.17942 -1.54323 -0.100295 15
-1.15934 -2.23385 -0.0433256 45
-1.16282 -2.24151 -0.217455 47
-1.15753 -2.23408 -0.393475 47
-1.1523 -2.22958 -0.570512 47
-2.87295 -5.58424 1.67109 14
-2.87388 -5.56226 1.20912 17
-2.86323 -5.52273 0.758471 21
-1.24112 -1.61857 0.0349921 11
-1.16567 -2.23841 0.130447 44
-1.18364 -1.54315 -0.100426 14
-1.16669 -2.23848 -0.0434565 45
-1.16902 -2.2439 -0.21789 45
-1.15775 -1.50674 -0.361886 17
-1.16256 -2.23425 -0.393866 45
-1.15731 -2.22973 -0.571073 47
-2.88989 -5.54555 1.66398 14
-2.8882 -5.51886 1.20292 15
-2.88289 -5.49008 0.756037 21
-1.25265 -1.616 0.0350793 11
-1.18086 -2.23891 0.13084 44
-1.19476 -1.54087 -0.100688 14
-1.18189 -2.23898 -0.0435874 44
-1.18235 -1.52325 -0.232135 17
-1.1796 -2.23555 -0.217672 45
-1.16411 -1.49872 -0.36141 17
-1.17539 -2.23032 -0.394258 45
-1.17123 -2.22796 -0.572196 47
-2.88503 -5.51267 1.65558 14
-2.8944 -5.50729 1.20149 15
-2.92021 -5.53774 0.763339 21
-1.257 -1.61578 0.035123 11
-1.18593 -2.23905 0.130971 44
-1.19438 -1.53485 -0.100426 14
-1.18696 -2.23913 -0.043631 44
-1.18806 -1.5251 -0.232744 15
-1.18698 -2.24009 -0.218324 45
-1.15615 -1.48315 -0.358077 18
-1.18159 -2.23264 -0.395041 45
-1.17738 -2.23022 -0.573319 47
-2.92627 -5.52097 1.66268 14
-3.03373 -5.70012 1.24725 14
-1.72738 -2.19656 0.241421 12
-3.03087 -5.67566 0.784636 15
-1.27472 -1.62096 0.0353848 11
-1.19881 -2.23501 0.131102 44
-1.21348 -1.54209 -0.101345 14
-1.19867 -2.23288 -0.043631 45
-1.19295 -1.51496 -0.232135 14
-1.20026 -2.23583 -0.218542 45
-1.15934 -1.47129 -0.356648 18
-1.19442 -2.2286 -0.395432 45
-1.19133 -2.22833 -0.574442 45
-3.03901 -5.70994 1.72149 18
-3.03658 -5.67913 1.24391 15
-1.73276 -2.1955 0.241639 12
-3.02086 -5.63317 0.779464 17
-1.28248 -1.62439 0.0355156 11
-1.20625 -2.23952 0.131494 44
-1.21772 -1.54193 -0.101476 14
-1.20493 -2.23519 -0.0437183 44
-1.20638 -1.5265 -0.234265 14
-1.20651 -2.23813 -0.218977 47
-1.15886 -1.46542 -0.355696 17
-1.20181 -2.23304 -0.396607 44
-1.19522 -2.22624 -0.574442 44
-3.04697 -5.65088 1.70856 14
-3.04411 -5.62213 1.23486 18
-3.04775 -5.6102 0.778551 35
-1.29409 -1.62156 0.0356029 11
-1.21835 -2.23296 0.131494 44
-1.23513 -1.54723 -0.102264 14
-1.21581 -2.22644 -0.0436746 44
-1.21152 -1.51607 -0.233657 14
-1.21941 -2.23397 -0.219194 44
-1.15757 -1.44763 -0.352839 15
-1.21584 -2.23105 -0.39739 45
-1.2084 -2.22189 -0.575004 44
-3.04649 -5.62643 1.70275 24
-3.0586 -5.62544 1.23676 33
-3.06249 -5.6163 0.780072 35
-1.30005 -1.6232 0.0356902 11
-1.22305 -2.23323 0.131625 44
-1.23627 -1.54312 -0.102132 14
-1.22328 -2.2309 -0.0438055 44
-1.22011 -1.52191 -0.234873 14
-1.2245 -2.23402 -0.219412 44
-1.15394 -1.43796 -0.350934 17
-1.21973 -2.22893 -0.39739 44
-1.21771 -2.23069 -0.577812 45
-3.07957 -5.61941 1.70533 32
-3.09057 -5.61634 1.23819 36
-3.08946 -5.59584 0.779464 21
-1.30982 -1.61854 0.0357338 12
-1.23472 -2.2268 0.131625 44
-1.25664 -1.55236 -0.103183 14
-1.23698 -2.22905 -0.0438928 44
-1.2265 -1.51357 -0.234569 14
-1.23699 -2.22997 -0.219629 44
-1.15811 -1.42829 -0.349982 14
-1.23616 -2.23116 -0.398956 44
-1.23172 -2.22855 -0.578935 45
-3.09286 -5.62038 1.70727 30
-3.10037 -5.61093 1.23819 21
-3.11003 -5.60998 0.782202 33
-1.32526 -1.63177 0.0360828 12
-1.24103 -2.22901 0.131887 44
-1.25777 -1.54823 -0.103051 14
-1.24208 -2.22908 -0.0439364 44
-1.23384 -1.5172 -0.235482 14
-1.24209 -2.22999 -0.219847 44
-1.1544 -1.41866 -0.348077 14
-1.24124 -2.23116 -0.399347 44
-1.23561 -2.2264 -0.578935 44
-3.12557 -5.60779 1.70856 27
-3.14026 -5.61122 1.242 32
-3.1452 -5.60173 0.783419 32
-1.33248 -1.62264 0.0360392 12
-1.25429 -2.22444 0.132017 44
-1.27882 -1.55683 -0.104102 14
-1.25535 -2.2245 -0.0439801 44
-1.24203 -1.5105 -0.235482 14
-1.2578 -2.22975 -0.220499 44
-1.15894 -1.4086 -0.347125 15
-1.25532 -2.22894 -0.40013 44
-1.25001 -2.22393 -0.580058 45
-3.14478 -5.61919 1.71373 32
-3.15845 -5.62071 1.24534 32
-3.16372 -5.61409 0.785853 32
-1.3369 -1.62224 0.0360828 12
-1.26024 -2.22682 0.132279 44
-1.2863 -1.56037 -0.104495 14
-1.26291 -2.22884 -0.044111 44
-1.2523 -1.51811 -0.237003 14
-1.26413 -2.23189 -0.220934 44
-1.1567 -1.4009 -0.345696 14
-1.26164 -2.23105 -0.400914 44
-1.25708 -2.22834 -0.581742 45
-3.17674 -5.60951 1.71567 32
-3.19292 -5.61532 1.24772 30
-3.19553 -5.60176 0.786461 32
-1.3563 -1.62889 0.0363883 12
-1.27683 -2.22886 0.132802 45
-1.29765 -1.55745 -0.104758 14
-1.27789 -2.22893 -0.0442418 44
-1.26501 -1.51725 -0.237916 14
-1.27827 -2.22957 -0.221369 44
-1.16535 -1.39692 -0.346173 14
-1.27575 -2.2287 -0.401697 44
-1.83914 -2.20024 -0.758492 11
-1.27235 -2.22808 -0.583427 44
-4.55744 -5.44703 1.62899 12
-3.19249 -5.61446 1.7189 32
-4.56291 -5.45548 1.11838 11
-3.2122 -5.62411 1.25106 33
-4.49216 -5.37282 0.609654 1
-3.21023 -5.60479 0.787678 30
-1.35943 -1.62629 0.0363883 12
-1.2832 -2.23096 0.133064 44
-1.30838 -1.56475 -0.105414 14
-1.28302 -2.22887 -0.0442855 44
-1.27722 -1.52645 -0.239741 14
-1.2834 -2.22949 -0.221586 44
-1.16306 -1.38924 -0.344744 12
-1.28331 -2.2329 -0.402871 44
-1.84958 -2.2041 -0.761079 11
-1.27503 -2.22374 -0.582865 45
-4.63877 -5.48366 1.64752 9
-3.22643 -5.60338 1.72084 30
-4.65934 -5.5099 1.13477 12
-3.24651 -5.61571 1.25297 32
-4.65303 -5.50437 0.627521 14
-3.24548 -5.59593 0.788895 32
-1.37438 -1.62678 0.0365628 12
-1.29525 -2.22399 0.133064 44
-1.31817 -1.55978 -0.105546 14
-1.29757 -2.22622 -0.0443727 44
-1.28866 -1.52331 -0.24035 14
-1.30005 -2.23136 -0.222456 44
-1.1658 -1.37731 -0.343316 12
-1.29499 -2.22615 -0.402871 44
-1.86578 -2.19991 -0.763019 9
-1.2907 -2.22314 -0.58455 44
-4.68522 -5.52094 1.661 11
-3.24828 -5.61866 1.72731 29
-4.67118 -5.50634 1.13555 12
-3.25631 -5.61004 1.25297 32
-4.67553 -5.51143 0.629264 14
-3.25302 -5.58868 0.788591 24
-1.38207 -1.6301 0.0366937 12
-1.30125 -2.22626 0.133326 44
-1.32574 -1.56319 -0.105939 14
-1.30272 -2.22611 -0.0444164 44
-1.29909 -1.53073 -0.241871 14
-1.3052 -2.23124 -0.222674 44
-1.1682 -1.37527 -0.343316 14
-1.30383 -2.23242 -0.404437 44
-1.86648 -2.19297 -0.761726 8
-1.29663 -2.22532 -0.585673 44
-4.70772 -5.48894 1.65875 11
-3.28276 -5.61257 1.73054 29
-4.70156 -5.48368 1.13594 12
-3.28839 -5.59984 1.2544 12
-4.69039 -5.47257 0.627521 12
-3.27343 -5.5566 0.786461 2
-1.4017 -1.63636 0.0369991 12
-1.31669 -2.22587 0.133718 44
-1.34041 -1.5638 -0.106465 14
-1.31651 -2.22379 -0.0445036 42
-1.31517 -1.53332 -0.243392 14
-1.31813 -2.22652 -0.222891 42
-1.16555 -1.35817 -0.340459 14
-1.31801 -2.22982 -0.40522 44
-1.88544 -2.19265 -0.764959 9
-1.3095 -2.2206 -0.586235 44
-4.72206 -5.48625 1.66044 11
-3.28156 -5.58809 1.72472 8
-4.71434 -5.47921 1.13672 12
-3.29913 -5.59351 1.2544 1
-4.69994 -5.46438 0.627521 12
-3.27682 -5.54019 0.78494 1
-1.40484 -1.63367 0.0369991 12
-1.32312 -2.22787 0.13398 44
-1.35128 -1.57092 -0.107121 14
-1.3242 -2.22794 -0.0446345 42
-1.32919 -1.54418 -0.245522 14
-1.32582 -2.23065 -0.223543 44
-1.16631 -1.35428 -0.339982 12
-1.3219 -2.22752 -0.40522 42
-1.88806 -2.1872 -0.764312 9
-1.31585 -2.22251 -0.587358 44
-4.74687 -5.45511 1.65875 11
-3.29326 -5.5391 1.71503 1
-4.74716 -5.45734 1.1375 11
-3.33591 -5.58881 1.25726 1
-4.73924 -5.45014 0.628829 12
-3.29529 -5.50321 0.782202 1
-1.42322 -1.6376 0.0372609 12
-1.33772 -2.22496 0.134242 44
-1.36113 -1.56571 -0.107252 15
-1.33881 -2.22504 -0.0447218 42
-1.34078 -1.54071 -0.24613 14
-1.34004 -2.22795 -0.223978 42
-1.16878 -1.3424 -0.338554 14
-1.33861 -2.22904 -0.406786 44
-1.90108 -2.1791 -0.764959 11
-1.33035 -2.21954 -0.588481 44
-4.76826 -5.46232 1.66324 9
-3.30416 -5.53542 1.71567 2
-4.75573 -5.44988 1.1375 11
-3.3444 -5.58088 1.25678 2
-4.7422 -5.43436 0.627957 12
-3.30393 -5.49803 0.782202 2
-1.42443 -1.63323 0.0372173 12
-1.34507 -2.22928 0.134634 44
-1.36879 -1.56897 -0.107646 14
-1.34527 -2.22698 -0.0448091 42
-1.3481 -1.54421 -0.247043 14
-1.34649 -2.22987 -0.224413 42
-1.34377 -2.22882 -0.407178 42
-1.90647 -2.17759 -0.765605 11
-1.33634 -2.22163 -0.589604 44
-4.79034 -5.42998 1.661 8
-3.33338 -5.52069 1.71632 14
-4.78583 -5.42676 1.13789 9
-3.3726 -5.56388 1.25678 2
-4.79764 -5.44204 0.631661 8
-3.38675 -5.56974 0.79498 11
-1.43764 -1.63163 0.0373481 12
-1.35931 -2.22647 0.134896 42
-1.38359 -1.56927 -0.108171 14
-1.35912 -2.22441 -0.0448963 42
-1.35945 -1.54085 -0.247652 14
-1.35944 -2.22492 -0.224631 42
-1.35927 -2.22808 -0.408352 42
-1.92547 -2.17696 -0.768838 12
-1.35048 -2.21877 -0.590727 44
-4.80143 -5.42343 1.66156 4
-3.3305 -5.4942 1.70986 14
-4.82149 -5.44798 1.14414 4
-3.40495 -5.59304 1.26488 11
-4.8352 -5.46536 0.635365 8
-3.38355 -5.54263 0.791937 12
-1.4474 -1.63635 0.0375227 12
-1.3671 -2.23049 0.135288 42
-1.38964 -1.57059 -0.108434 14
-1.36691 -2.22844 -0.0450272 42
-1.36872 -1.5459 -0.248869 14
-1.36852 -2.23105 -0.2255 42
-1.36573 -2.22992 -0.409135 42
-1.92323 -2.16604 -0.766252 12
-1.35435 -2.21641 -0.590727 44
-4.87945 -5.45182 1.67841 3
-3.34126 -5.44521 1.70016 12
-4.93159 -5.51197 1.16326 8
-3.40976 -5.53542 1.25583 12
-4.92116 -5.50223 0.642774 9
-3.40046 -5.50313 0.788895 12
-1.46261 -1.6362 0.0376972 12
-1.38177 -2.22731 0.13555 42
-1.40118 -1.56701 -0.108696 14
-1.37895 -2.22101 -0.0450272 42
-1.38038 -1.54217 -0.249477 14
-1.38018 -2.22385 -0.2255 42
-1.37479 -2.21854 -0.408352 42
-1.93939 -2.16133 -0.768192 11
-1.37143 -2.21734 -0.592973 44
-4.97754 -5.54383 1.70929 12
-3.32672 -5.40028 1.68789 12
-4.97489 -5.5428 1.17145 11
-3.41039 -5.51484 1.25249 12
-4.97568 -5.54366 0.648657 11
-3.39996 -5.48301 0.786765 14
-1.46547 -1.63364 0.0376972 12
-1.38659 -2.22726 0.135681 39
-1.40892 -1.57013 -0.10909 14
-1.38546 -2.22285 -0.0451145 41
-1.3911 -1.54922 -0.250998 14
-1.388 -2.22779 -0.226153 42
-1.38256 -2.22243 -0.409527 42
-1.94801 -2.16332 -0.770132 9
-1.37363 -2.21311 -0.592411 44
-5.02124 -5.53393 1.71434 11
-3.33233 -5.34851 1.6769 11
-5.01877 -5.53314 1.17497 11
-3.44086 -5.50167 1.25344 12
-5.02542 -5.54239 0.651489 11
-3.43389 -5.47354 0.787982 12
-1.47539 -1.62805 0.0377408 12
-1.39956 -2.22208 0.135812 38
-1.42551 -1.57197 -0.109746 14
-1.40068 -2.22216 -0.0452454 41
-1.39919 -1.54192 -0.250998 14
-1.40097 -2.2226 -0.22637 42
-1.40074 -2.22563 -0.411485 42
-1.96543 -2.16057 -0.772718 8
-1.39166 -2.21622 -0.595219 44
-5.04073 -5.53596 1.71771 12
-3.31863 -5.30582 1.66527 11
-5.04006 -5.53715 1.1777 9
-3.50748 -5.58446 1.27394 11
-5.04515 -5.54466 0.652797 11
-3.5108 -5.57468 0.803499 12
-1.4802 -1.62707 0.0377845 12
-1.40742 -2.22597 0.136204 36
-1.42321 -1.56395 -0.109353 14
-1.40589 -2.22182 -0.045289 41
-1.40883 -2.22647 -0.227023 41
-1.40462 -2.22318 -0.411485 42
-1.9761 -2.16393 -0.775305 3
-1.39423 -2.21172 -0.594657 42
-5.09041 -5.53011 1.72445 9
-3.32794 -5.25716 1.65558 11
-5.08667 -5.52797 1.1816 9
-3.54587 -5.58053 1.27727 9
-5.08688 -5.53011 0.654322 11
-3.53692 -5.54932 0.802586 12
-1.49209 -1.62297 0.0378717 12
-1.42213 -2.22254 0.136466 35
-1.4449 -1.57117 -0.110403 14
-1.42326 -2.22261 -0.0454635 41
-1.42449 -2.22536 -0.227675 42
-1.42022 -2.22204 -0.412659 41
-1.99232 -2.15887 -0.777245 3
-1.41271 -2.21443 -0.597465 44
-5.11562 -5.54001 1.73007 9
-3.319 -5.22279 1.64653 11
-5.11378 -5.53993 1.18589 11
-3.54638 -5.55984 1.27394 9
-5.11004 -5.53586 0.656065 12
-3.54162 -5.53748 0.801673 9
-1.50509 -1.63138 0.0381335 12
-1.42562 -2.2203 0.136466 30
-1.44595 -1.56681 -0.110272 14
-1.42849 -2.22223 -0.0455071 41
-1.42971 -2.22497 -0.227892 42
-1.42676 -2.22372 -0.413442 42
-2.00101 -2.1607 -0.779185 2
-1.4188 -2.21632 -0.598588 44
-5.15121 -5.52027 1.73231 9
-3.32583 -5.17544 1.63684 11
-5.16461 -5.53654 1.19096 11
-3.56916 -5.53357 1.27203 11
-5.15328 -5.52632 0.658026 11
-3.56922 -5.51678 0.801369 9
-1.51163 -1.62192 0.0380899 12
-1.44265 -2.22119 0.136989 29
-1.46436 -1.57016 -0.111059 14
-1.44515 -2.22337 -0.0456817 41
-1.44675 -2.22582 -0.228762 42
-1.43838 -2.21622 -0.413442 42
-2.02512 -2.16465 -0.784357 2
-1.43567 -2.21705 -0.600834 44
-5.18082 -5.5326 1.73905 11
-3.31133 -5.13308 1.6252 11
-5.18102 -5.53473 1.19253 9
-3.57311 -5.5164 1.26965 4
-5.16973 -5.52459 0.658897 4
-3.56804 -5.49389 0.798935 9
-1.52157 -1.62631 0.0382644 12
-1.44516 -2.21657 0.136859 26
-1.46368 -1.56396 -0.110797 14
-1.44903 -2.22084 -0.0456817 41
-1.45199 -2.22538 -0.22898 42
-1.44359 -2.21578 -0.413834 42
-2.03258 -2.16428 -0.785651 1
-1.44086 -2.21658 -0.601396 44
-5.23916 -5.53456 1.7486 1
-3.32323 -5.0908 1.61745 11
-5.23975 -5.53711 1.19916 1
-3.59389 -5.48529 1.26679 4
-5.19098 -5.48749 0.657808 9
-3.59812 -5.4772 0.799239 8
-1.45988 -2.21289 0.13712 24
-1.46652 -2.22132 -0.0458562 42
-1.46636 -2.22191 -0.229415 42
-1.45924 -2.21438 -0.415008 42
-2.05387 -2.16411 -0.789531 2
-1.45245 -2.20901 -0.601396 42
-5.21764 -5.49453 1.73849 8
-3.30831 -5.04862 1.60582 11
-5.21443 -5.49306 1.19135 9
-3.59807 -5.47081 1.26488 4
-5.19102 -5.4703 0.656718 9
-3.67454 -5.57247 0.814147 8
-1.4661 -2.21477 0.137382 21
-1.47138 -2.2211 -0.0458998 42
-1.47259 -2.22376 -0.22985 42
-1.17524 -1.23702 -0.324269 14
-1.46582 -2.21595 -0.415791 42
-1.46299 -2.21665 -0.604203 44
-5.23189 -5.45399 1.734 9
-3.32096 -5.01426 1.6 11
-5.22165 -5.44521 1.18667 11
-3.70754 -5.57789 1.29395 4
-3.71507 -5.57239 0.816885 9
-1.48006 -2.21147 0.137644 18
-1.48538 -2.21778 -0.0459871 42
-1.48521 -2.21835 -0.230067 41
-1.18319 -1.23282 -0.324745 14
-1.47975 -2.21262 -0.416574 42
-1.47554 -2.21124 -0.604765 44
-3.307 -4.97425 1.58902 11
-3.72135 -5.57754 1.29538 4
-3.70825 -5.54114 0.813234 8
-1.48808 -2.21511 0.138036 15
-1.49064 -2.21727 -0.0460307 41
-1.49324 -2.22196 -0.230719 42
-1.18023 -1.22546 -0.323317 14
-1.48635 -2.21414 -0.417357 41
-1.48616 -2.2188 -0.607573 42
-3.31281 -4.92678 1.57932 12
-3.74913 -5.55594 1.29491 4
-3.73443 -5.51754 0.812626 9
-1.49966 -2.20729 0.138036 15
-1.50503 -2.21357 -0.046118 41
-1.50764 -2.21824 -0.231154 42
-1.1832 -1.21575 -0.322364 12
-1.50208 -2.21246 -0.418532 41
-1.49912 -2.213 -0.608134 44
-3.30386 -4.89496 1.57092 11
-3.75058 -5.53719 1.29205 8
-3.75102 -5.52128 0.814147 8
-1.50772 -2.21086 0.138429 14
-1.5117 -2.21507 -0.0462052 41
-1.51431 -2.21972 -0.231589 41
-1.19047 -1.21894 -0.323793 12
-1.50871 -2.21392 -0.419315 41
-1.50571 -2.21442 -0.609257 42
-3.21995 -3.26495 1.04893 2
-3.31177 -4.85165 1.56252 12
-3.77536 -5.5114 1.29062 4
-3.22018 -3.26744 0.398302 4
-3.74338 -5.44836 0.806237 9
-2.13885 -2.17014 0.0525754 36
-1.52069 -2.205 0.138559 14
-1.52611 -2.21125 -0.0462925 41
-1.52733 -2.21382 -0.231807 41
-1.19166 -1.20746 -0.322364 9
-1.52447 -2.2121 -0.420489 41
-1.52004 -2.21052 -0.61038 42
-3.21822 -3.25296 1.04669 3
-3.30387 -4.82194 1.55477 12
-3.14889 -3.18291 0.702013 1
-3.76692 -5.4785 1.28442 4
-3.21012 -3.24588 0.396341 12
-3.78384 -5.48678 0.81293 8
-2.16901 -2.19305 0.0532298 39
-1.53446 -2.21673 0.139475 14
-1.53543 -2.2173 -0.232459 41
-1.19722 -1.20886 -0.323317 9
-1.53254 -2.21553 -0.421664 41
-1.52665 -2.21188 -0.611503 42
-3.23749 -3.23723 1.04725 4
-3.30572 -4.77081 1.54378 11
-3.2441 -3.24494 0.719573 8
-3.82914 -5.50709 1.29586 4
-3.23763 -3.23959 0.397648 8
-3.8664 -5.54428 0.824491 9
-2.18753 -2.18873 0.0534044 39
-1.54604 -2.20866 0.139475 12
-1.54883 -2.211 -0.232677 41
-1.20006 -1.19911 -0.322364 8
-1.54694 -2.21153 -0.422447 41
-1.5396 -2.20586 -0.612065 41
-3.29751 -4.74123 1.53603 12
-3.88181 -5.56012 1.31016 8
-3.87607 -5.53752 0.824491 9
-2.19882 -2.19158 0.0535789 39
-1.55419 -2.2121 0.139868 12
-1.55697 -2.21441 -0.233329 41
-1.20041 -1.19528 -0.321888 8
-1.55504 -2.2149 -0.423622 41
-1.55182 -2.21515 -0.615434 45
-3.30369 -4.69565 1.52698 12
-3.91087 -5.53972 1.31016 8
-3.90311 -5.51241 0.823883 9
-2.21738 -2.18706 0.0537534 39
-1.56036 -2.1955 0.139344 11
-1.55559 -1.53277 -0.263472 15
-1.57286 -2.21233 -0.233981 41
-1.21386 -1.19565 -0.323793 8
-1.56378 -2.20673 -0.615434 41
-5.50089 -5.40392 1.76937 12
-3.29379 -4.66421 1.51858 12
-5.49458 -5.3977 1.21165 12
-3.92337 -5.5369 1.31111 4
-5.49248 -5.3975 0.670663 14
-3.90842 -5.49952 0.82297 9
-2.23012 -2.19194 0.0539716 39
-1.57143 -2.20295 0.139999 11
-1.56713 -1.53874 -0.264993 15
-1.21244 -1.1901 -0.32284 4
-1.57185 -2.20996 -0.617118 42
-5.60694 -5.44876 1.79408 11
-3.30415 -4.62724 1.51212 12
-5.60246 -5.4463 1.22921 11
-3.93231 -5.48833 1.30444 4
-5.61352 -5.45894 0.681994 12
-3.9227 -5.45882 0.819928 8
-2.24873 -2.1872 0.0541461 38
-1.58294 -2.19469 0.139999 9
-1.16969 -1.61842 -0.0342503 11
-1.57872 -1.53397 -0.265602 15
-1.22746 -1.19227 -0.325221 4
-1.59192 -2.21358 -0.620488 44
-5.65224 -5.47554 1.80587 12
-3.29676 -4.59985 1.50501 12
-5.65453 -5.47774 1.23857 12
-3.92614 -5.45953 1.2992 3
-5.52287 -5.35209 0.669792 1
-2.25793 -2.18849 0.054277 38
-1.59261 -2.20003 0.140522 9
-1.15935 -1.59813 -0.0338577 12
-1.57783 -1.52776 -0.264993 14
-1.22954 -1.19013 -0.325221 8
-1.60004 -2.21673 -0.622172 44
-5.69409 -5.45667 1.8098 11
-3.3024 -4.55709 1.49661 11
-5.69026 -5.45489 1.24013 12
-5.67846 -5.44547 0.685262 14
-2.27658 -2.18356 0.0544515 38
-1.61146 -2.20175 0.141176 8
-1.17359 -1.60011 -0.0340322 12
-1.59477 -1.52805 -0.266514 15
-1.23398 -1.18198 -0.324745 4
-1.61306 -2.21029 -0.622734 44
-5.70266 -5.44772 1.8098 12
-3.29758 -4.53373 1.49079 4
-5.7087 -5.45348 1.24208 12
-5.68796 -5.43555 0.685262 14
-2.28943 -2.18821 0.0546697 36
-1.17491 -1.59605 -0.0339886 12
-1.24493 -1.18829 -0.327126 8
-1.62122 -2.21338 -0.624418 44
-5.74445 -5.4285 1.81373 12
-3.30127 -4.48915 1.48175 4
-5.72821 -5.41503 1.24013 12
-5.72539 -5.41425 0.686351 14
-3.28629 -4.43958 0.672979 1
-2.30812 -2.18306 0.0548442 36
-1.18176 -1.58786 -0.0339449 14
-1.16395 -1.56436 -0.167223 12
-1.24578 -1.1767 -0.325697 4
-1.15485 -1.55372 -0.301468 12
-1.63568 -2.20878 -0.625541 44
-5.737 -5.40444 1.80868 12
-3.28904 -4.45616 1.4727 2
-5.73765 -5.40503 1.24013 12
-5.72577 -5.39571 0.685262 12
-3.30143 -4.4438 0.674501 1
-2.32102 -2.1876 0.0550623 36
-1.18304 -1.58379 -0.0339013 14
-1.16222 -1.55633 -0.16657 12
-1.25319 -1.17957 -0.327126 4
-1.15903 -1.55368 -0.30186 14
-2.26977 -2.13191 -0.824448 11
-1.64534 -2.21375 -0.627787 44
-5.80003 -5.40487 1.81935 9
-3.30079 -4.42338 1.46753 3
-5.76948 -5.37828 1.24091 9
-5.78673 -5.39622 0.689184 11
-2.33976 -2.18223 0.0552369 36
-1.19432 -1.58157 -0.0339886 14
-1.26295 -1.17633 -0.328078 8
-1.16566 -1.54562 -0.301468 14
-2.26498 -2.10521 -0.818629 8
-1.65836 -2.20706 -0.628349 42
-5.85136 -5.43553 1.83283 8
-3.28826 -4.39053 1.45848 14
-5.88381 -5.46566 1.26355 11
-5.84541 -5.43188 0.695067 11
-2.35272 -2.18665 0.055455 36
-1.19708 -1.57949 -0.0339886 14
-1.2668 -1.1758 -0.328554 8
-1.16836 -1.54358 -0.301468 14
-2.26156 -2.09469 -0.816042 8
-1.66807 -2.21195 -0.630595 44
-5.92194 -5.4417 1.84574 9
-3.29373 -4.35014 1.45073 14
-5.91599 -5.43812 1.26433 9
-5.90677 -5.43154 0.698989 11
-2.37334 -2.18276 0.0556732 36
-1.20533 -1.5732 -0.0339886 14
-1.15548 -1.50834 -0.162874 3
-1.27294 -1.16915 -0.328554 8
-1.17493 -1.53548 -0.301077 15
-2.27784 -2.08771 -0.817982 8
-1.67963 -2.20318 -0.630595 42
-5.93048 -5.43239 1.84574 9
-3.28964 -4.32899 1.44556 14
-5.93093 -5.43279 1.2655 9
-5.92726 -5.43131 0.700296 11
-2.38452 -2.18536 0.0558477 36
-1.20959 -1.57308 -0.0340322 14
-1.14752 -1.49247 -0.161351 3
-1.27498 -1.16692 -0.328554 9
-1.18061 -1.53735 -0.30186 14
-2.28326 -2.08536 -0.818629 4
-5.9616 -5.40186 1.8463 9
-5.95564 -5.39834 1.26472 9
-5.9427 -5.38849 0.698771 11
-2.40334 -2.17956 0.0560222 36
-0.628284 -0.570763 -0.0427959 11
-1.22087 -1.57068 -0.0341195 14
-2.40409 -2.17719 -0.393383 35
-1.14644 -1.47442 -0.160047 3
-1.28471 -1.16352 -0.329507 11
-1.18864 -1.53115 -0.30186 14
-2.29236 -2.07176 -0.817982 8
-5.96016 -5.38165 1.84293 8
-5.95405 -5.37801 1.26238 9
-5.94471 -5.37144 0.6979 9
-2.4168 -2.18332 0.0562404 35
-1.70667 -2.19242 0.143793 8
-0.631132 -0.571338 -0.0429271 12
-1.23281 -1.58039 -0.0343812 14
-2.4171 -2.1813 -0.394904 36
-1.1429 -1.46455 -0.159177 3
-1.28309 -1.15799 -0.328554 11
-1.19282 -1.53102 -0.302251 14
-2.29992 -2.07058 -0.819275 4
-5.98675 -5.349 1.26316 3
-2.43752 -2.17896 0.0564585 35
-1.72159 -2.18709 0.144055 9
-0.628529 -0.563038 -0.0425333 11
-1.24443 -1.57763 -0.0344685 14
-2.43628 -2.1748 -0.396121 36
-1.14287 -1.44875 -0.15809 3
-1.29117 -1.15267 -0.329031 11
-1.20387 -1.52864 -0.303034 14
-2.31253 -2.06012 -0.819922 8
-1.73169 -2.20932 0.741843 9
-2.44879 -2.18135 0.0566331 36
-0.631375 -0.563599 -0.0426646 11
-1.24873 -1.57742 -0.0345121 14
-2.44896 -2.17921 -0.397642 36
-1.30236 -1.15856 -0.331411 12
-1.20501 -1.5246 -0.302643 14
-2.31793 -2.05768 -0.820569 8
-1.74136 -2.19863 0.741197 8
-6.55173 -5.77594 0.761088 3
-1.74307 -2.18677 0.338619 9
-2.46918 -2.17719 0.0568512 35
-0.630473 -0.557096 -0.042402 11
-1.26603 -1.58281 -0.0347739 14
-2.46965 -2.17455 -0.399163 36
-1.3082 -1.15196 -0.331411 9
-1.21758 -1.52407 -0.303817 14
-2.32469 -2.04274 -0.819275 8
-6.46768 -5.67987 1.97601 3
-6.3329 -5.56153 1.32637 2
-6.57116 -5.77271 0.762177 3
-1.74379 -2.17984 0.338011 9
-2.48049 -2.17947 0.0570257 35
-0.631444 -0.555995 -0.042402 11
-1.27192 -1.58451 -0.0348612 14
-2.48091 -2.17678 -0.40038 35
-1.31021 -1.14967 -0.331411 9
-1.22332 -1.5258 -0.3046 14
-2.32462 -2.0355 -0.817982 8
-6.46337 -5.61445 1.96535 3
-6.36752 -5.53315 1.32754 2
-6.57685 -5.71699 0.759344 3
-2.5013 -2.17465 0.0572439 33
-0.630577 -0.549408 -0.0421395 11
-1.28334 -1.58171 -0.0349484 14
-2.50164 -2.17189 -0.401901 35
-1.32178 -1.14762 -0.33284 9
-1.23439 -1.52322 -0.305383 12
-2.33524 -2.0233 -0.817982 8
-6.43903 -5.57559 1.95524 3
-6.38837 -5.53173 1.32988 2
-6.60941 -5.72507 0.761959 3
-2.51265 -2.17682 0.0574184 33
-0.629647 -0.546673 -0.0420082 11
-1.29239 -1.58724 -0.035123 14
-2.5167 -2.17726 -0.403727 35
-1.32749 -1.14852 -0.333792 9
-1.24016 -1.5249 -0.306166 12
-2.3406 -2.02079 -0.818629 8
-6.45985 -5.53275 1.95243 2
-6.45663 -5.53194 1.33808 2
-6.62795 -5.68066 0.760652 3
-2.53578 -2.17295 0.0576802 35
-0.632595 -0.543258 -0.0420082 12
-1.30571 -1.58602 -0.0352539 14
-2.53938 -2.17373 -0.405552 35
-1.33369 -1.14132 -0.333792 9
-1.2575 -1.52985 -0.308515 12
-2.3515 -2.0081 -0.818629 9
-6.501 -5.54835 1.96198 3
-6.48603 -5.53556 1.34198 1
-6.54223 -5.58547 0.749539 2
-2.54756 -2.17457 0.0578547 33
-0.635537 -0.543662 -0.0421395 12
-1.3151 -1.59124 -0.0354284 14
-2.54921 -2.17368 -0.406465 35
-1.34522 -1.14671 -0.336173 9
-1.26671 -1.53507 -0.310082 12
-2.35903 -2.00671 -0.819922 9
-6.57478 -5.54421 1.97433 8
-6.565 -5.53791 1.35174 3
-6.56668 -5.54127 0.748668 2
-2.57113 -2.16997 0.0581165 35
-0.630928 -0.533668 -0.0416144 11
-1.32557 -1.58579 -0.035472 14
-2.57687 -2.17175 -0.408899 35
-1.34973 -1.1376 -0.335697 11
-1.28026 -1.53344 -0.311256 12
-2.37575 -1.99816 -0.821862 9
-6.62825 -5.57149 1.98781 12
-6.55386 -5.50897 1.34744 1
-6.60494 -5.55384 0.751936 2
-4.55275 -5.45688 0.867085 11
-2.58257 -2.17192 0.058291 35
-0.629947 -0.53096 -0.0414831 12
-1.33154 -1.58731 -0.0355593 14
-2.58636 -2.17203 -0.409812 35
-1.35735 -1.13997 -0.337125 11
-1.29242 -1.54259 -0.313605 12
-2.37182 -1.98781 -0.819275 8
-1.17264 -1.40184 -0.413284 8
-6.68265 -5.55579 1.99511 14
-6.66046 -5.5393 1.36344 11
-4.58685 -5.455 1.37736 11
-6.66265 -5.54307 0.755204 12
-4.64839 -5.51269 0.879863 12
-2.60736 -2.16955 0.0585965 35
-1.83983 -2.17435 0.147457 9
-0.630798 -0.526059 -0.0413518 12
-1.3495 -1.59178 -0.0358211 14
-2.60724 -2.16639 -0.411333 35
-1.36708 -1.13598 -0.338078 11
-1.30658 -1.54358 -0.315171 12
-2.38964 -1.98153 -0.821862 8
-1.17212 -1.38636 -0.410476 8
-6.71201 -5.56238 2.00128 14
-4.66278 -5.5258 1.39737 11
-6.67999 -5.53779 0.756076 14
-4.66665 -5.51675 0.881688 14
-2.62077 -2.17297 0.0588146 35
-1.84808 -2.17718 0.147849 4
-0.635561 -0.528142 -0.0416144 11
-1.35551 -1.59324 -0.0359083 14
-2.6202 -2.1702 -0.412854 35
-1.36906 -1.13359 -0.338078 12
-1.31246 -1.54507 -0.315954 14
-2.39682 -1.98043 -0.823155 8
-1.16487 -1.37334 -0.407107 8
-6.65437 -5.45612 1.97545 12
-4.70183 -5.51521 1.40071 12
-6.69638 -5.49443 0.754769 14
-4.69225 -5.48847 0.88108 14
-2.63946 -2.16602 0.0589891 35
-1.86919 -2.17886 0.148634 4
-0.630503 -0.518587 -0.0410893 12
-1.37331 -1.59775 -0.0361701 14
-2.64305 -2.16588 -0.414679 35
-1.31472 -1.52979 -0.173094 12
-1.38238 -1.13287 -0.339982 11
-1.32988 -1.54967 -0.318303 14
-2.41242 -1.97286 -0.825095 8
-1.16573 -1.35981 -0.404861 9
-6.61954 -5.41021 1.96254 11
-6.63972 -5.42861 1.34979 12
-4.71145 -5.507 1.40071 11
-6.68667 -5.46698 0.75259 12
-4.7041 -5.48486 0.881688 12
-2.65485 -2.1709 0.0592509 33
-1.87748 -2.1816 0.149027 3
-0.62754 -0.514328 -0.0408267 12
-1.3761 -1.59535 -0.0361701 14
-2.65991 -2.17271 -0.416809 35
-1.32874 -1.54073 -0.174616 12
-1.38245 -1.1289 -0.339506 12
-1.3358 -1.5511 -0.319086 14
-2.40837 -1.96255 -0.822508 8
-1.15836 -1.34687 -0.401492 9
-6.63641 -5.36629 1.95917 11
-6.64885 -5.37825 1.34588 12
-4.74086 -5.48494 1.40119 11
-6.67166 -5.3986 0.747796 12
-4.72463 -5.45077 0.880167 11
-2.67553 -2.16529 0.0594691 33
-1.88398 -2.16608 0.148634 3
-0.628193 -0.509575 -0.0406954 12
-1.39234 -1.59781 -0.0363883 14
-2.67704 -2.16343 -0.417722 36
-1.34142 -1.53962 -0.175268 14
-1.38624 -1.12035 -0.33903 12
-1.3501 -1.55178 -0.320653 14
-2.42203 -1.95336 -0.823802 8
-1.16858 -1.34447 -0.402615 9
-6.63155 -5.34516 1.95524 11
-6.63229 -5.34765 1.34081 14
-4.75204 -5.47851 1.40166 8
-6.64229 -5.35569 0.743438 12
-4.73156 -5.44147 0.879863 11
-2.68903 -2.16846 0.0596872 33
-0.629082 -0.508478 -0.0406954 12
-1.39513 -1.59537 -0.0363883 14
-2.69396 -2.17011 -0.419852 35
-1.35228 -1.54668 -0.176356 14
-1.39202 -1.121 -0.339982 12
-1.35604 -1.55315 -0.321436 14
-2.42544 -1.94913 -0.823802 8
-1.15633 -1.32607 -0.397561 11
-6.68421 -5.33011 1.96254 9
-6.6602 -5.31285 1.34081 12
-4.77001 -5.44331 1.3988 8
-6.65374 -5.30958 0.741695 12
-4.77308 -5.43154 0.882297 8
-2.70974 -2.16261 0.0599054 33
-0.631647 -0.505288 -0.0406954 12
-1.41309 -1.59955 -0.0366501 14
-2.71694 -2.16525 -0.421677 35
-1.36666 -1.54729 -0.177226 14
-1.40151 -1.117 -0.340935 12
-1.36877 -1.55183 -0.32261 14
-1.15523 -1.31084 -0.394754 4
-6.72691 -5.34688 1.97265 9
-6.6956 -5.32389 1.34627 14
-4.78598 -5.44235 1.40071 8
-6.67664 -5.30881 0.743221 12
-4.79636 -5.4408 0.885035 4
-2.7233 -2.16565 0.0601235 35
-0.632528 -0.504185 -0.0406954 12
-1.42084 -1.60271 -0.0367809 14
-2.732 -2.17024 -0.423502 35
-1.37474 -1.55315 -0.323393 14
-1.14442 -1.29438 -0.390261 3
-6.78163 -5.33266 1.98051 8
-3.31223 -3.73904 1.3273 2
-6.75444 -5.31318 1.35252 14
-4.83464 -5.44192 1.40691 4
-6.76215 -5.32114 0.749757 11
-4.88086 -5.47865 0.895379 4
-2.74798 -2.16266 0.060429 33
-0.633197 -0.499323 -0.0405642 12
-1.4306 -1.59736 -0.0368246 14
-2.76284 -2.17123 -0.426545 32
-1.14309 -1.27927 -0.387454 4
-6.97504 -5.46502 2.03441 9
-3.27227 -3.68087 1.30856 1
-6.92115 -5.42475 1.38413 11
-4.93648 -5.53526 1.4336 8
-4.93669 -5.52195 0.903898 9
-2.76394 -2.16663 0.0606907 33
-0.624239 -0.490522 -0.0399078 12
-1.43672 -1.59859 -0.0369118 14
-2.77053 -2.16946 -0.427153 15
-1.13884 -1.27 -0.385208 3
-3.30826 -3.68109 1.31503 4
-4.99495 -5.54217 1.44217 11
-4.99975 -5.532 0.909983 9
-2.78512 -2.15978 0.0609089 33
-0.628772 -0.488775 -0.0400391 12
-1.4487 -1.5945 -0.0369991 14
-1.14895 -1.26744 -0.386331 4
-3.29045 -3.64838 1.30533 4
-5.01777 -5.54801 1.44599 11
-5.02009 -5.53701 0.912112 9
-2.80076 -2.16408 0.0611707 33
-0.625672 -0.484627 -0.0397765 12
-1.45484 -1.59567 -0.0370864 14
-1.15094 -1.26563 -0.386331 4
-2.86233 -2.18859 0.563874 3
-5.05075 -5.52798 1.44742 11
-2.85653 -2.18494 0.311582 9
-5.06577 -5.52896 0.915155 9
-2.81763 -2.15443 0.0613016 44
-0.626216 -0.479829 -0.0396452 12
-1.46966 -1.59566 -0.0372609 14
-1.16084 -1.26318 -0.387454 3
-2.84769 -2.16877 0.817022 9
-2.84453 -2.16714 0.559582 9
-5.08954 -5.54904 1.45552 9
-2.84251 -2.16637 0.309621 11
-5.09219 -5.53838 0.918197 9
-2.82574 -2.15204 0.0613888 38
-0.62904 -0.480247 -0.0397765 12
-1.47244 -1.59309 -0.0372609 14
-1.1581 -1.25577 -0.385769 4
-2.86716 -2.15919 0.819268 9
-2.85621 -2.15172 0.559582 11
-5.12686 -5.53132 1.4579 9
-2.84225 -2.14197 0.308313 14
-5.13559 -5.5253 0.920631 9
-2.84896 -2.14624 0.0616506 26
-0.631545 -0.476947 -0.0397765 12
-1.48955 -1.59425 -0.037479 14
-1.15991 -1.24413 -0.384085 12
-2.87445 -2.15761 0.820391 8
-2.87144 -2.15612 0.561923 15
-5.15488 -5.54214 1.46314 9
-2.86391 -2.15046 0.310274 21
-5.15779 -5.53175 0.923065 9
-2.8507 -2.13976 0.061607 11
-0.622389 -0.468356 -0.0391201 12
-1.49574 -1.5953 -0.0375663 14
-1.15191 -1.2316 -0.380715 12
-2.87592 -2.13527 0.817584 2
-2.90054 -2.1543 0.565435 1
-5.1963 -5.5303 1.46696 8
-2.85876 -2.12406 0.308531 21
-5.20029 -5.51913 0.925499 1
-2.88558 -2.14318 0.0621306 2
-0.628762 -0.468174 -0.0393827 12
-1.5038 -1.58771 -0.0375663 14
-1.15668 -1.22377 -0.380154 14
-2.89299 -2.14089 0.821514 2
-2.87451 -2.12721 0.559582 2
-5.21267 -5.52837 1.46886 1
-2.86247 -2.11906 0.308531 2
-5.19288 -5.492 0.922457 11
-2.90137 -2.14706 0.0623923 2
-0.627571 -0.465592 -0.0392514 12
-1.51344 -1.59235 -0.0377408 14
-0.86722 -0.640661 -0.279342 44
-1.1538 -1.21644 -0.378469 14
-2.9108 -2.12901 0.823199 2
-2.89993 -2.12183 0.562313 2
-5.23574 -5.49297 1.46696 8
-2.8558 -2.09031 0.30657 1
-5.21395 -5.45485 0.920935 8
-2.93716 -2.14903 0.0629159 1
-0.630081 -0.46219 -0.0392514 12
-1.52376 -1.58594 -0.0377845 14
-0.875184 -0.640621 -0.128694 41
-0.864132 -0.632097 -0.200942 41
-0.870673 -0.63596 -0.279342 42
-1.15196 -1.20136 -0.375662 14
-2.95505 -2.15421 0.0632213 15
-0.62685 -0.458151 -0.0389889 12
-1.52652 -1.58328 -0.0377845 14
-0.862144 -0.629026 -0.126564 41
-0.859278 -0.626259 -0.199513 39
-0.867873 -0.631602 -0.278049 42
-1.15216 -1.19779 -0.3751 14
-2.9862 -2.15384 0.0636576 21
-0.633292 -0.45778 -0.0392514 12
-1.53974 -1.58091 -0.0379153 14
-0.869454 -0.627401 -0.127172 42
-0.866422 -0.624767 -0.200466 41
-0.867136 -0.624385 -0.276756 41
-1.15334 -1.18648 -0.373416 14
-3.00048 -2.15539 0.0638758 20
-0.632061 -0.455219 -0.0391201 12
