# .PCD v0.7 - Point Cloud Data file format
VERSION 0.7
FIELDS x y z intensity
SIZE 4 4 4 4
TYPE F F F F
COUNT 1 1 1 1
WIDTH 1578
HEIGHT 1
VIEWPOINT 0 0 0 1 0 0 0
POINTS 1578
DATA ascii
-1.06202 -5.54643 1.50178 14
-2.12893 -5.5154 0.928734 24
-1.07676 -5.57119 1.09521 15
-0.847658 -2.19832 0.203073 3
-1.09686 -5.6387 0.700057 17
-0.864626 -2.24109 0.0413186 50
-0.867571 -2.24754 -0.124843 52
-0.446991 -2.26819 -0.0397479 49
-0.867634 -2.24539 -0.290854 53
-0.447403 -2.27235 -0.199188 47
-0.870055 -2.24816 -0.460928 53
-0.445409 -2.2704 -0.36137 45
-0.873569 -2.25261 -0.637573 71
-0.441449 -2.26244 -0.523343 45
-2.16632 -5.52315 1.35946 14
-1.0924 -5.55283 1.50501 14
-2.18033 -5.56165 0.938489 15
-1.11018 -5.59215 1.10046 15
-0.861501 -2.20096 0.203727 3
-1.11862 -5.59394 0.695189 15
-0.877784 -2.24134 0.0414058 50
-0.88024 -2.24529 -0.124974 50
-0.458956 -2.26835 -0.0397915 49
-0.881194 -2.24543 -0.291462 53
-0.459295 -2.26998 -0.199188 45
-0.881423 -2.24373 -0.460928 52
-0.45729 -2.26804 -0.36137 45
-0.884074 -2.24592 -0.636927 61
-0.453289 -2.2601 -0.523343 45
-2.20099 -5.58281 1.37518 15
-1.10817 -5.58172 1.51341 14
-2.21901 -5.63135 0.950976 27
-1.11563 -5.56353 1.09521 14
-0.864428 -2.19714 0.203509 3
-0.882086 -2.23965 0.0414058 50
-0.886907 -2.25072 -0.125368 50
-0.462914 -2.26754 -0.0397915 49
-0.886936 -2.24851 -0.292071 53
-0.463256 -2.26917 -0.199188 45
-0.887143 -2.24675 -0.461881 52
-0.460274 -2.2624 -0.360587 42
-0.891055 -2.25095 -0.638867 61
-0.456755 -2.25692 -0.522782 44
-2.2511 -5.62057 1.38753 20
-1.13258 -5.54724 1.50566 14
-2.24945 -5.61926 0.950976 27
-0.878155 -2.19705 0.203944 3
-0.897518 -2.24428 0.0415804 52
-0.899608 -2.24836 -0.125499 50
-0.475684 -2.26745 -0.0398351 47
-0.900937 -2.24828 -0.292679 53
-0.476143 -2.27159 -0.199623 45
-0.900201 -2.2442 -0.462357 52
-0.473613 -2.26721 -0.361762 45
-0.901927 -2.24401 -0.63822 59
-0.46945 -2.2568 -0.523343 44
-2.24992 -5.59217 1.38136 17
-2.25274 -5.60197 0.948635 26
-1.21113 -5.82958 1.14955 2
-0.881058 -2.1932 0.203727 2
-0.901434 -2.24271 0.0415804 50
-0.903531 -2.24679 -0.125499 50
-0.480666 -2.27151 -0.0399224 47
-0.904467 -2.24686 -0.292679 52
-0.480107 -2.27076 -0.199623 45
-0.905954 -2.24718 -0.463309 52
-0.477065 -2.26396 -0.36137 42
-0.906747 -2.24468 -0.638867 59
-0.47349 -2.25845 -0.523905 45
-2.27364 -5.56678 1.37799 15
-1.22302 -5.78992 1.57415 8
-2.27271 -5.56724 0.944733 24
-1.23603 -5.80177 1.14526 11
-0.897796 -2.20255 0.205034 2
-0.913719 -2.24043 0.041624 52
-0.916228 -2.24434 -0.125631 50
-0.492157 -2.26905 -0.0399224 47
-0.918099 -2.24669 -0.293288 53
-0.49199 -2.26821 -0.199623 44
-0.918247 -2.24483 -0.463785 52
-0.488912 -2.26143 -0.36137 42
-0.921766 -2.24899 -0.641453 61
-0.484801 -2.25355 -0.523343 44
-2.2778 -5.54928 1.37462 15
-1.23312 -5.78777 1.57415 24
-2.27585 -5.54728 0.942001 26
-1.23586 -5.74659 1.13477 14
-0.899748 -2.19637 0.204598 3
-0.918968 -2.24099 0.0416676 52
-0.92299 -2.24966 -0.126025 50
-0.495587 -2.26574 -0.0398787 47
-0.919187 -2.2382 -0.292375 50
-0.495948 -2.26735 -0.199623 44
-0.923098 -2.2455 -0.464262 52
-0.49338 -2.26299 -0.361762 42
-0.926082 -2.24722 -0.641453 61
-0.489245 -2.25509 -0.523905 45
-2.30404 -5.52788 1.37237 18
-1.25311 -5.7291 1.55994 12
-2.30203 -5.52576 0.94044 26
-1.25698 -5.69929 1.12667 23
-0.912576 -2.19377 0.204816 3
-0.932613 -2.24076 0.0417549 53
-0.935718 -2.2471 -0.126156 49
-0.507839 -2.26303 -0.0398787 47
-0.934153 -2.24006 -0.293288 53
-0.507813 -2.26472 -0.199623 44
-0.936181 -2.24273 -0.464738 52
-0.505616 -2.26029 -0.361762 41
-0.938768 -2.24457 -0.6421 59
-0.50039 -2.24765 -0.522782 36
-2.30895 -5.51527 1.37013 18
-1.25481 -5.68917 1.5496 21
-2.30977 -5.51718 0.93966 24
-0.922175 -2.20596 0.206123 3
-0.93942 -2.24604 0.0418858 52
-0.942533 -2.25237 -0.12655 52
-0.511241 -2.2597 -0.0398351 36
-0.937101 -2.23614 -0.292983 50
-0.510132 -2.25654 -0.198971 18
-0.941044 -2.24336 -0.465214 52
-0.507946 -2.25217 -0.360587 11
-0.944559 -2.24738 -0.643393 62
-0.503784 -2.24439 -0.52222 36
-2.34067 -5.50718 1.37125 14
-2.34056 -5.50956 0.94044 15
-0.933713 -2.2011 0.206123 3
-0.951167 -2.24109 0.0418858 50
-0.95236 -2.24281 -0.126287 50
-0.520828 -2.24725 -0.0396606 36
-0.952686 -2.24034 -0.2942 50
-0.52027 -2.24656 -0.198319 18
-0.954702 -2.24292 -0.466166 52
-0.518238 -2.24476 -0.359804 11
-0.957261 -2.24462 -0.64404 59
-0.512824 -2.22985 -0.519413 3
-2.37802 -5.57071 1.3881 14
-2.39381 -5.61034 0.958391 27
-0.942443 -2.21092 0.207213 3
-0.956059 -2.24173 0.0419294 52
-0.957254 -2.24344 -0.126418 50
-0.525313 -2.24877 -0.0397042 9
-0.958155 -2.2434 -0.294809 53
-0.522507 -2.23837 -0.197666 9
-0.959582 -2.2435 -0.466643 52
-0.519936 -2.23423 -0.358238 9
-0.96213 -2.24517 -0.644686 59
-0.518504 -2.23854 -0.521659 8
-2.43041 -5.61183 1.40157 20
-2.42217 -5.59547 0.958 27
-0.953621 -2.20612 0.207213 3
-0.968387 -2.23915 0.041973 52
-0.53355 -2.23628 0.118672 11
-0.970973 -2.24298 -0.126681 50
-0.534385 -2.23635 -0.0395297 12
-0.971864 -2.2429 -0.295417 52
-0.533072 -2.23075 -0.197231 9
-0.973859 -2.24537 -0.468071 52
-0.531628 -2.23147 -0.358238 9
-0.973481 -2.24027 -0.644686 59
-0.528547 -2.22868 -0.519974 8
-2.4402 -5.60757 1.40157 17
-2.42996 -5.5867 0.95722 26
-0.962437 -2.21587 0.208302 3
-0.533879 -2.22717 0.276554 9
-0.973682 -2.23958 0.0420167 52
-0.536873 -2.23292 0.118541 12
-0.975884 -2.24357 -0.126812 50
-0.538287 -2.23542 -0.0395297 11
-0.974786 -2.23893 -0.295113 52
-0.539277 -2.23951 -0.198101 11
-0.976794 -2.24142 -0.467595 50
-0.53495 -2.22814 -0.357847 9
-0.977781 -2.23839 -0.644686 59
-0.532436 -2.22775 -0.519974 8
-2.46459 -5.58092 1.3982 17
-2.45616 -5.56444 0.955659 24
-0.976424 -2.21519 0.208738 3
-0.546508 -2.22666 0.276859 8
-0.986405 -2.23674 0.0420603 52
-0.549538 -2.23241 0.118672 11
-0.990645 -2.24528 -0.127206 50
-0.548594 -2.22519 -0.0393988 12
-0.987889 -2.23589 -0.295417 52
-0.549814 -2.23182 -0.197666 11
-0.988907 -2.2361 -0.467595 52
-0.546025 -2.22291 -0.357455 9
-0.992426 -2.23987 -0.646626 58
-0.546778 -2.23431 -0.52222 8
-2.46545 -5.55923 1.39371 15
-2.45589 -5.54026 0.952147 23
-0.979279 -2.2112 0.20852 3
-0.550004 -2.2258 0.276859 8
-0.992335 -2.23958 0.0421476 52
-0.552449 -2.22911 0.118541 11
-0.994562 -2.24355 -0.127206 50
-0.55427 -2.23151 -0.0395297 12
-0.995431 -2.24341 -0.296634 52
-0.554303 -2.23327 -0.197884 11
-0.993806 -2.23661 -0.468071 50
-0.551668 -2.22915 -0.35863 9
-0.997317 -2.24034 -0.647273 59
-0.549709 -2.23108 -0.521659 8
-2.49153 -5.53958 1.39203 14
-2.4798 -5.51606 0.950196 18
-0.993522 -2.21303 0.209174 3
-0.560445 -2.21807 0.27625 9
-1.00571 -2.23909 0.0422348 52
-0.564113 -2.22619 0.118541 11
-1.00835 -2.24286 -0.127469 49
-0.563728 -2.2214 -0.0393988 12
-1.00512 -2.23364 -0.296026 52
-0.564774 -2.22551 -0.197449 11
-1.00814 -2.23826 -0.469499 50
-0.565735 -2.23581 -0.360196 8
-1.00964 -2.23746 -0.647919 59
-0.561383 -2.22817 -0.521659 4
-2.49617 -5.52412 1.38922 15
-2.49654 -5.52748 0.952928 26
-0.995332 -2.20676 0.208738 3
-0.564923 -2.2195 0.276554 9
-1.01104 -2.23944 0.0422784 50
-0.567385 -2.22278 0.11841 11
-1.01535 -2.24792 -0.127862 50
-0.569446 -2.22768 -0.0395297 12
-1.01107 -2.2364 -0.296634 52
-0.571104 -2.23418 -0.198319 11
-1.01509 -2.24321 -0.470928 53
-0.569637 -2.23482 -0.360196 8
-1.01693 -2.24211 -0.649859 58
-0.565865 -2.22955 -0.52222 4
-2.52806 -5.51497 1.39034 15
-2.53053 -5.52287 0.954488 23
-1.01245 -2.21266 0.209827 3
-0.578783 -2.22362 0.277467 8
-1.02483 -2.23866 0.0423657 50
-0.580654 -2.22451 0.118672 9
-1.0271 -2.24258 -0.127862 49
-0.582745 -2.22941 -0.039617 11
-1.02315 -2.2309 -0.296634 50
-0.581546 -2.22633 -0.197884 9
-1.02823 -2.23991 -0.471404 49
-0.581102 -2.22931 -0.359804 8
-1.02865 -2.23676 -0.649859 58
-0.578527 -2.22881 -0.522782 3
-2.54793 -5.53533 1.39652 14
-2.58665 -5.61937 0.972049 26
-1.01631 -2.21089 0.209827 3
-0.582663 -2.2226 0.277467 4
-1.03083 -2.2414 0.042453 50
-0.584536 -2.2235 0.118672 9
-1.03206 -2.24305 -0.127994 50
-0.585373 -2.22355 -0.0395297 11
-1.0312 -2.23812 -0.297851 52
-0.586688 -2.23013 -0.198319 9
-1.03317 -2.24034 -0.47188 49
-0.58437 -2.2259 -0.359413 4
-1.0356 -2.24153 -0.651799 58
-0.581194 -2.22309 -0.521659 3
-2.6181 -5.6102 1.41898 15
-2.61506 -5.60621 0.972049 26
-1.02959 -2.21023 0.210263 3
-0.594542 -2.22202 0.277771 4
-1.04004 -2.23163 0.0423657 50
-0.595782 -2.22051 0.118672 8
-1.04445 -2.24006 -0.128125 50
-0.596619 -2.22056 -0.0395297 11
-1.04462 -2.23737 -0.29846 52
-0.597968 -2.22714 -0.198319 8
-1.04658 -2.23953 -0.472833 49
-0.596897 -2.22769 -0.360196 4
-1.04693 -2.23626 -0.651799 58
-0.593062 -2.22247 -0.52222 2
-2.61864 -5.58844 1.41449 15
-2.61436 -5.57928 0.968146 18
-1.03873 -2.21971 0.211353 3
-0.597779 -2.21859 0.277467 4
-1.04606 -2.23434 0.042453 47
-0.599011 -2.21706 0.118541 9
-1.05048 -2.24275 -0.128388 50
-0.600494 -2.21951 -0.0395297 9
-1.04958 -2.23779 -0.298764 50
-0.599274 -2.21647 -0.197449 3
-1.05153 -2.23992 -0.473309 50
-0.598231 -2.2171 -0.35863 4
-1.05289 -2.2388 -0.653092 58
-0.595058 -2.21437 -0.520536 2
-2.62791 -5.53019 1.40326 14
-2.62233 -5.52091 0.960342 15
-1.05141 -2.21649 0.211571 3
-0.611346 -2.22261 0.27838 3
-1.06204 -2.23786 0.0426275 52
-0.611929 -2.21871 0.118803 12
-1.06153 -2.23478 -0.128256 50
-0.611447 -2.21393 -0.0394861 4
-1.06448 -2.23899 -0.299677 49
-0.610599 -2.21079 -0.197231 4
-1.06535 -2.23882 -0.474261 50
-0.60788 -2.2068 -0.357455 4
-1.06772 -2.2398 -0.655032 56
-0.605365 -2.20652 -0.519413 4
-2.63756 -5.52559 1.40326 14
-2.64473 -5.54306 0.965025 17
-1.05527 -2.21465 0.211571 3
-0.612595 -2.21197 0.277163 3
-1.06633 -2.23581 0.0426275 50
-0.613811 -2.21041 0.11841 9
-1.06866 -2.23968 -0.12865 52
-0.609993 -2.19358 -0.039137 11
-1.07053 -2.2416 -0.300285 52
-0.61247 -2.20252 -0.196579 11
-1.06926 -2.23695 -0.474261 50
-0.610421 -2.20097 -0.356672 9
-1.07306 -2.23992 -0.655679 56
-0.608572 -2.20311 -0.518851 4
-2.66105 -5.49809 1.39989 14
-2.65747 -5.49311 0.958781 20
-1.07158 -2.21787 0.212442 3
-0.625224 -2.21101 0.277467 8
-1.08129 -2.23695 0.0427584 50
-0.621029 -2.19024 0.117494 11
-1.08255 -2.23855 -0.128913 50
-0.62253 -2.19265 -0.0391806 9
-1.08264 -2.23578 -0.300285 52
-0.62332 -2.19688 -0.196362 9
-1.08563 -2.23997 -0.476166 50
-0.622604 -2.20012 -0.357064 8
-1.08689 -2.23862 -0.656972 55
-0.620483 -2.19979 -0.518851 4
-2.66862 -5.49171 1.39933 15
-2.67365 -5.50447 0.961513 24
-1.07436 -2.21376 0.212224 3
-0.625327 -2.19808 0.275946 9
-1.08519 -2.23506 0.0427584 52
-0.626509 -2.19647 0.117887 9
-1.08645 -2.23666 -0.128913 50
-0.62431 -2.18435 -0.0390498 9
-1.08833 -2.23854 -0.300894 52
-0.627153 -2.19579 -0.196362 9
-1.08739 -2.23366 -0.475213 49
-0.631143 -2.21566 -0.359804 8
-1.09291 -2.24105 -0.658265 55
-0.628557 -2.21523 -0.522782 4
-2.70379 -5.49077 1.4027 15
-2.69807 -5.48154 0.959952 26
-1.09435 -2.22617 0.213967 3
-1.0987 -2.23402 0.0428457 49
-0.639385 -2.19795 0.118148 9
-1.09925 -2.23318 -0.129044 49
-0.64091 -2.20037 -0.0393988 9
-1.10113 -2.23503 -0.301198 52
-0.639333 -2.19487 -0.196579 9
-1.10194 -2.23473 -0.476642 49
-0.639316 -2.20047 -0.357847 4
-1.10531 -2.23766 -0.658912 56
-0.641492 -2.21659 -0.523905 4
-2.70905 -5.47731 1.40045 14
-2.71092 -5.48346 0.961122 24
-1.10044 -2.22872 0.214403 4
-1.1041 -2.23415 0.0428893 52
-0.649489 -2.21841 0.119326 9
-1.10647 -2.23797 -0.129438 52
-0.643353 -2.19445 -0.0393115 9
-1.10833 -2.23978 -0.302111 52
-0.653598 -2.22962 -0.199841 8
-1.10693 -2.235 -0.477118 49
-0.654164 -2.23729 -0.364111 4
-1.11283 -2.24202 -0.660852 56
-0.652124 -2.23887 -0.52952 8
-2.76049 -5.50612 1.41168 15
-2.75604 -5.49962 0.966585 21
-1.11471 -2.22719 0.214839 4
-1.11802 -2.23281 0.0429765 50
-0.665739 -2.22922 0.120111 8
-1.12041 -2.23661 -0.1297 50
-0.666596 -2.22928 -0.0400096 11
-1.12155 -2.23597 -0.302415 52
-0.665263 -2.22617 -0.199841 14
-1.12231 -2.23555 -0.478547 50
-0.664469 -2.2291 -0.363328 17
-1.12455 -2.23616 -0.660852 56
-0.666295 -2.24232 -0.531205 29
-2.77023 -5.50396 1.41224 14
-2.77689 -5.51954 0.970878 20
-1.1242 -2.23636 0.215928 4
-1.12529 -2.23755 0.0431074 52
-0.673519 -2.24253 0.120896 15
-1.12881 -2.24356 -0.130225 50
-0.678355 -2.25446 -0.0404896 36
-1.12506 -2.2342 -0.302415 52
-0.679833 -2.2608 -0.203103 52
-1.12621 -2.23359 -0.478547 50
-0.676813 -2.25633 -0.368026 52
-1.13064 -2.23851 -0.662145 56
-0.67328 -2.25295 -0.534012 50
-2.85437 -5.59788 1.44032 17
-2.85624 -5.60392 0.988438 29
-1.13324 -2.2262 0.215493 4
-1.13773 -2.23405 0.0431511 52
-0.691784 -2.26047 0.122074 47
-1.1394 -2.2354 -0.130094 50
-0.691939 -2.25817 -0.0406205 52
-1.14013 -2.23491 -0.303328 52
-0.691661 -2.25721 -0.203103 52
-1.14086 -2.23442 -0.479975 50
-0.690052 -2.25748 -0.368809 52
-1.14415 -2.23705 -0.663438 56
-0.685067 -2.24939 -0.534012 50
-2.85969 -5.58421 1.43807 17
-2.86038 -5.58794 0.986487 24
-1.14053 -2.23087 0.216146 4
-1.1443 -2.23631 0.0432383 52
-0.694998 -2.25688 0.121943 47
-1.14672 -2.24007 -0.130488 47
-0.697343 -2.26174 -0.0407077 53
-1.14629 -2.23733 -0.303936 52
-0.697786 -2.26315 -0.203755 52
-1.14812 -2.23897 -0.481404 50
-0.694712 -2.25864 -0.369201 56
-1.15066 -2.23915 -0.664732 55
-0.689701 -2.25052 -0.534574 50
-2.88088 -5.55136 1.43358 15
-2.87579 -5.54389 0.981414 20
-1.15717 -2.23351 0.217018 4
-1.74752 -5.60484 0.715573 20
-1.15715 -2.23251 0.043282 52
-0.708684 -2.25785 0.122204 47
-1.15613 -2.22961 -0.130225 49
-0.708825 -2.25555 -0.0406641 52
-1.15953 -2.2333 -0.30424 52
-0.709626 -2.25946 -0.203755 50
-1.16021 -2.23273 -0.481404 50
-0.706529 -2.25497 -0.369201 58
-1.16236 -2.23309 -0.664732 56
-0.701146 -2.24443 -0.534012 49
-2.88172 -5.53171 1.42965 15
-2.87194 -5.51527 0.977121 20
-1.74869 -5.60156 1.13286 15
-1.16107 -2.23149 0.217018 4
-1.76669 -5.63524 0.719832 21
-1.16104 -2.23049 0.043282 52
-0.712977 -2.25911 0.122335 47
-1.16464 -2.23644 -0.130751 50
-0.71351 -2.25669 -0.0407077 49
-1.16418 -2.23367 -0.304545 50
-0.714314 -2.2606 -0.203972 52
-1.16638 -2.23505 -0.482356 50
-0.711201 -2.25609 -0.369592 52
-1.17074 -2.23962 -0.667318 55
-0.706846 -2.2503 -0.535697 49
-2.897 -5.49069 1.42291 15
-1.70093 -5.38494 1.50178 1
-2.88926 -5.47832 0.973219 20
-1.79036 -5.63475 1.14144 17
-1.17467 -2.22999 0.217454 4
-1.80746 -5.66138 0.724396 26
-1.17232 -2.22458 0.043282 50
-0.726314 -2.26011 0.122597 47
-1.1775 -2.23252 -0.130882 49
-0.725683 -2.25543 -0.0407514 49
-1.17818 -2.23194 -0.305153 50
-0.727657 -2.26157 -0.204407 65
-1.17883 -2.23129 -0.482832 49
-0.723004 -2.25233 -0.369592 53
-1.18206 -2.23366 -0.667318 56
-0.719356 -2.24889 -0.536259 49
-2.95792 -5.58248 1.44818 11
-3.00287 -5.66964 1.00834 35
-1.80788 -5.65234 1.14573 18
-1.17856 -2.22794 0.217454 4
-1.81583 -5.65349 0.723788 26
-1.1801 -2.22895 0.0434129 50
-0.729494 -2.25646 0.122466 47
-1.18256 -2.23267 -0.131013 50
-0.730384 -2.25654 -0.040795 50
-1.18207 -2.22988 -0.305153 50
-0.731603 -2.2603 -0.204407 53
-1.18387 -2.2314 -0.483308 49
-0.727688 -2.25342 -0.369984 55
-1.18748 -2.23352 -0.667965 55
-0.72328 -2.24763 -0.536259 49
-3.04802 -5.678 1.47738 15
-3.04285 -5.67072 1.01146 15
-1.8367 -5.64046 1.14526 20
-1.1906 -2.22153 0.217454 4
-1.84562 -5.64123 0.723483 24
-1.19648 -2.23155 0.0435874 50
-0.741692 -2.25248 0.122466 49
-1.19896 -2.23524 -0.131538 50
-0.74336 -2.25493 -0.0408386 50
-1.19647 -2.22782 -0.305761 50
-0.744203 -2.2588 -0.204625 49
-1.19825 -2.22928 -0.484261 49
-0.740243 -2.25192 -0.370375 53
-1.20145 -2.23153 -0.669258 55
-0.737692 -2.25064 -0.537943 56
-3.03382 -5.63032 1.46615 15
-1.83681 -5.64063 1.57803 15
-3.03184 -5.62898 1.00483 15
-1.78481 -5.44829 1.10665 1
-1.19684 -2.22383 0.217889 4
-1.84984 -5.62417 0.721658 23
-1.20037 -2.22946 0.0435874 50
-0.748348 -2.2608 0.122989 50
-1.20405 -2.23534 -0.131669 49
-0.748858 -2.25838 -0.0409259 50
-1.20233 -2.2303 -0.30637 49
-0.748922 -2.25986 -0.204842 50
-1.20448 -2.2315 -0.485213 49
-0.743402 -2.24828 -0.369984 53
-1.20879 -2.2358 -0.671198 53
-0.740469 -2.24716 -0.537382 49
-3.06325 -5.61436 1.46615 33
-1.86306 -5.62438 1.57609 15
-3.06009 -5.61086 1.00444 38
-1.8085 -5.42754 1.10427 1
-1.20808 -2.21775 0.217889 4
-1.87612 -5.60499 0.720441 20
-1.21284 -2.22555 0.043631 50
-0.759383 -2.25448 0.122859 44
-1.21693 -2.2312 -0.131801 47
-0.760279 -2.25456 -0.0409259 52
-1.21637 -2.22833 -0.306978 49
-0.762327 -2.26064 -0.205277 52
-1.21811 -2.22968 -0.486165 49
-0.758294 -2.25373 -0.37155 61
-1.22125 -2.23177 -0.671844 55
-0.752995 -2.24556 -0.537943 49
-3.07773 -5.61755 1.46839 36
-1.86831 -5.60737 1.57222 15
-3.07344 -5.61201 1.00561 39
-1.81891 -5.42406 1.10427 1
-1.87721 -5.57584 0.717094 18
-1.22071 -2.22979 0.0437619 50
-0.76491 -2.25789 0.12312 47
-1.22202 -2.23126 -0.131932 47
-0.765011 -2.2556 -0.0409695 49
-1.22264 -2.23056 -0.307587 47
-0.765476 -2.25694 -0.20506 53
-1.22318 -2.22971 -0.486641 49
-0.76144 -2.25006 -0.371158 50
-1.22903 -2.23577 -0.673784 53
-0.75846 -2.24886 -0.539066 49
-3.1069 -5.59868 1.46783 23
-1.89552 -5.58803 1.56963 15
-3.09657 -5.58234 1.00327 21
-1.84729 -5.41446 1.10427 1
-1.82629 -5.32844 0.686366 1
-1.23359 -2.22556 0.0438055 50
-0.777115 -2.25371 0.12312 47
-1.23733 -2.23138 -0.132326 45
-0.778015 -2.25379 -0.0410132 50
-1.23711 -2.22825 -0.308195 47
-0.779706 -2.25997 -0.205712 52
-1.23881 -2.22949 -0.48807 49
-0.774402 -2.24824 -0.37155 50
-1.24307 -2.23352 -0.675078 55
-0.771403 -2.24703 -0.539628 49
-3.13111 -5.62146 1.47513 33
-1.89983 -5.56871 1.56511 14
-3.12313 -5.60713 1.00873 35
-1.90679 -5.55751 1.13429 15
-1.84124 -5.34167 0.688496 1
-1.23869 -2.22558 0.0438492 50
-0.782673 -2.25707 0.123382 47
-1.24243 -2.2314 -0.132457 45
-0.781947 -2.25243 -0.0410132 49
-1.24462 -2.23258 -0.309108 47
-0.783649 -2.25861 -0.205712 50
-1.24509 -2.23161 -0.489022 49
-0.778325 -2.24689 -0.37155 50
-1.24933 -2.23556 -0.676371 55
-0.776114 -2.24799 -0.540189 49
-3.16028 -5.60231 1.47457 33
-1.9258 -5.54956 1.56252 14
-3.15366 -5.59285 1.00912 33
-1.94232 -5.56599 1.13811 15
-1.8831 -5.37178 0.693668 1
-1.25155 -2.22125 0.0438928 49
-0.795306 -2.2553 0.123513 47
-1.25778 -2.23138 -0.132851 45
-0.795385 -2.25302 -0.0411004 50
-1.25629 -2.22604 -0.309108 47
-0.797112 -2.25917 -0.206147 49
-1.25797 -2.22719 -0.489498 47
-0.79171 -2.24744 -0.372333 50
-1.2634 -2.23319 -0.677664 55
-0.787874 -2.24389 -0.540189 49
-3.17868 -5.6143 1.47906 33
-1.93866 -5.55531 1.56511 14
-3.1695 -5.59808 1.01107 33
-1.95933 -5.58344 1.1424 15
-1.90564 -5.40594 0.698536 1
-1.26035 -2.22776 0.0440673 49
-0.799241 -2.25391 0.123513 47
-1.26291 -2.23136 -0.132982 45
-0.799316 -2.25163 -0.0411004 49
-1.26508 -2.23247 -0.310325 49
-0.801054 -2.25778 -0.206147 59
-1.26428 -2.22926 -0.490451 49
-0.796451 -2.24839 -0.372724 50
-1.26729 -2.23098 -0.677664 55
-0.792595 -2.24481 -0.540751 49
-3.21288 -5.60603 1.48131 33
-1.97883 -5.57958 1.5748 14
-3.21008 -5.60339 1.01497 33
-1.9999 -5.60814 1.14955 15
-1.93966 -5.41492 0.70097 1
-1.2741 -2.22569 0.0441546 49
-0.811481 -2.25219 0.123644 47
-1.2783 -2.23121 -0.133376 47
-0.812389 -2.25226 -0.0411877 49
-1.27636 -2.22604 -0.310325 49
-0.813705 -2.2559 -0.206364 90
-1.27799 -2.22709 -0.491403 49
-0.809484 -2.24898 -0.373507 52
-1.28098 -2.22873 -0.678957 55
-0.804765 -2.24307 -0.541312 49
-3.22752 -5.60886 1.48356 33
-1.99747 -5.60115 1.58191 14
-3.22478 -5.60634 1.01653 35
-2.0272 -5.6505 1.15908 18
-1.94911 -5.41153 0.70097 1
-1.28086 -2.22757 0.0442418 49
-0.817947 -2.25781 0.124036 47
-1.28219 -2.22898 -0.133376 45
-0.816319 -2.25084 -0.0411877 49
-1.28396 -2.23026 -0.311238 49
-0.818485 -2.25682 -0.206582 49
-1.28555 -2.23124 -0.492832 49
-0.812572 -2.24524 -0.373116 50
-1.28646 -2.22835 -0.679604 55
-0.811145 -2.24854 -0.542997 50
-3.26764 -5.60815 1.48805 36
-2.04418 -5.63568 1.59483 15
-3.26377 -5.60374 1.01927 35
-2.06347 -5.65826 1.16289 24
-1.9758 -5.39391 0.700057 1
-1.29503 -2.22515 0.0443291 49
-0.831009 -2.2557 0.124167 47
-1.29887 -2.23086 -0.133901 47
-0.829345 -2.24874 -0.0412313 49
-1.29726 -2.22542 -0.311542 49
-0.831147 -2.25484 -0.206799 52
-1.29884 -2.22637 -0.493308 47
-0.82686 -2.24791 -0.37429 49
-1.30177 -2.22784 -0.681544 53
-0.823299 -2.24412 -0.542997 49
-3.2789 -5.60722 1.48917 32
-2.05814 -5.64345 1.59806 15
-3.2601 -5.57729 1.01536 15
-2.06913 -5.64313 1.16051 21
-1.98256 -5.38614 0.699448 1
-1.30017 -2.22505 0.0443727 49
-0.831966 -2.24736 0.123775 42
-1.30529 -2.2329 -0.134164 47
-0.834133 -2.24963 -0.0412749 49
-1.30326 -2.22767 -0.312151 47
-0.835082 -2.25338 -0.206799 50
-1.30397 -2.22621 -0.493784 47
-0.832486 -2.2511 -0.375073 49
-1.3081 -2.22973 -0.682837 53
-0.828499 -2.2474 -0.54412 49
-3.2958 -5.56901 1.48356 3
-2.08416 -5.62616 1.59613 15
-3.26662 -5.5219 1.00834 1
-2.09253 -5.61878 1.15765 20
-2.00813 -5.36871 0.698536 1
-1.31523 -2.22489 0.0445036 49
-0.84547 -2.24765 0.124036 47
-1.31696 -2.22603 -0.134164 47
-0.844632 -2.24304 -0.0412313 49
-1.31491 -2.22081 -0.312151 47
-0.849488 -2.25598 -0.207452 59
-1.32023 -2.22803 -0.495689 47
-0.845125 -2.24902 -0.375465 49
-1.31937 -2.22308 -0.682837 53
-0.839405 -2.24075 -0.543558 49
-3.29556 -5.5465 1.47906 2
-2.08978 -5.6112 1.59289 15
-3.2485 -5.46948 0.999754 1
-2.09473 -5.59176 1.15288 17
-2.01227 -5.35126 0.69671 1
-1.32334 -2.22881 0.0446345 49
-0.85027 -2.24851 0.124167 47
-1.32084 -2.22373 -0.134164 45
-0.851187 -2.24858 -0.0413622 47
-1.32259 -2.22491 -0.313063 47
-0.852547 -2.25216 -0.207234 55
-1.32537 -2.22783 -0.496165 47
-0.849917 -2.24985 -0.375856 47
-1.32859 -2.22884 -0.685424 53
-0.845876 -2.24612 -0.545243 50
-3.32175 -5.52233 1.47738 3
-2.11669 -5.59077 1.59031 15
-3.2895 -5.47087 1.00327 3
-2.12136 -5.57383 1.15145 17
-2.1181 -5.54201 0.723179 21
-1.33628 -2.22399 0.0446782 47
-0.864205 -2.24854 0.124429 45
-1.33891 -2.22748 -0.13482 47
-0.86334 -2.24394 -0.0413622 47
-1.33717 -2.22197 -0.313672 47
-0.865217 -2.24999 -0.207452 50
-1.34121 -2.22693 -0.497593 47
-0.861686 -2.24537 -0.375856 47
-1.34398 -2.22805 -0.687364 52
-0.858883 -2.24379 -0.545805 49
-3.32664 -5.51084 1.47569 14
-2.1213 -5.57352 1.58643 14
-3.26235 -5.40651 0.99234 2
-2.11971 -5.54032 1.14526 15
-2.11971 -5.52014 0.720745 21
-1.34145 -2.22379 0.0447218 47
-0.867736 -2.24718 0.124429 45
-1.34408 -2.22728 -0.134951 47
-0.869049 -2.2471 -0.0414495 47
-1.34451 -2.22624 -0.314584 47
-0.870036 -2.2508 -0.207669 47
-1.34636 -2.22669 -0.498069 47
-0.865603 -2.24387 -0.375856 47
-1.34662 -2.22364 -0.686717 52
-0.864146 -2.24699 -0.546928 50
-3.33005 -5.45178 1.46446 12
-2.14254 -5.54469 1.58126 14
-3.3936 -5.55793 1.02356 9
-2.14418 -5.52036 1.14335 15
-2.15848 -5.53441 0.724092 17
-1.35529 -2.22124 0.0448091 47
-0.880397 -2.24493 0.12456 45
-1.35963 -2.2266 -0.135345 47
-0.880412 -2.24267 -0.0414495 47
-1.35615 -2.21917 -0.314584 47
-0.880903 -2.2439 -0.207452 47
-1.36018 -2.22403 -0.499022 47
-0.880028 -2.24621 -0.377031 49
-1.36203 -2.22273 -0.688657 52
-0.875899 -2.24243 -0.546928 49
-3.32172 -5.41689 1.4566 14
-2.14794 -5.52705 1.57739 14
-3.39297 -5.53516 1.02044 12
-2.17794 -5.57569 1.15574 15
-3.40494 -5.55466 0.566948 11
-2.21061 -5.63925 0.738391 23
-1.36217 -2.2229 0.0448963 47
-0.885617 -2.24556 0.12469 45
-1.36613 -2.22848 -0.135608 47
-0.884716 -2.24098 -0.0414495 47
-1.3656 -2.22502 -0.315801 47
-0.887547 -2.24931 -0.208104 47
-1.36702 -2.22559 -0.499974 45
-0.883947 -2.24467 -0.377031 49
-1.36844 -2.22446 -0.68995 53
-0.880203 -2.24075 -0.546928 47
-3.33264 -5.36721 1.44818 12
-2.19551 -5.56029 1.59031 14
-3.41992 -5.50983 1.01927 12
-2.23879 -5.64141 1.17195 23
-3.37058 -5.43247 0.556271 1
-2.23841 -5.61759 0.737174 32
-1.37549 -2.21762 0.0449399 47
-0.899601 -2.24538 0.124952 44
-1.37948 -2.22317 -0.135739 47
-0.899605 -2.24312 -0.0415804 49
-1.37893 -2.2197 -0.316106 47
-0.899704 -2.24448 -0.208104 47
-1.38034 -2.22025 -0.50045 47
-0.898296 -2.24428 -0.377814 49
-1.38429 -2.22317 -0.69189 53
-0.89411 -2.24048 -0.548051 47
-3.32302 -5.33303 1.44032 12
-2.23011 -5.61932 1.6084 15
-3.41647 -5.4829 1.01536 14
-2.24047 -5.61697 1.16766 20
-3.35108 -5.38008 0.551478 1
-2.24084 -5.59524 0.73474 29
-1.38333 -2.22158 0.0450708 47
-0.903519 -2.2438 0.124952 45
-1.38468 -2.22288 -0.13587 45
-0.905379 -2.24619 -0.0416676 47
-1.38675 -2.22361 -0.317018 45
-0.906398 -2.24984 -0.208756 49
-1.38811 -2.22408 -0.501879 45
-0.903129 -2.245 -0.378206 50
-1.39073 -2.22485 -0.693183 53
-0.899824 -2.24344 -0.549174 47
-3.32583 -5.27376 1.42909 12
-2.2568 -5.60085 1.60646 15
-3.46094 -5.49 1.02005 12
-2.26709 -5.59833 1.16623 20
-3.43632 -5.45305 0.560847 12
-2.26638 -5.57423 0.733523 26
-1.39761 -2.21853 0.0451581 45
-0.917135 -2.24367 0.125214 45
-1.4003 -2.22194 -0.136264 47
-0.918069 -2.24373 -0.0417112 47
-1.39969 -2.21841 -0.317323 47
-0.918166 -2.24506 -0.208756 47
-1.40105 -2.21886 -0.502355 45
-0.917266 -2.24727 -0.37938 47
-1.40494 -2.22162 -0.694476 52
-0.911558 -2.2387 -0.549174 47
-3.31587 -5.23972 1.42123 12
-2.26024 -5.58122 1.60194 15
-3.51842 -5.56176 1.03448 12
-2.2704 -5.57845 1.16289 18
-3.51642 -5.55858 0.572395 12
-2.26857 -5.55458 0.731394 27
-1.40549 -2.22242 0.045289 47
-0.921602 -2.24454 0.125345 45
-1.40685 -2.22371 -0.136527 47
-0.92293 -2.24444 -0.0417549 47
-1.40716 -2.2225 -0.318235 45
-0.92491 -2.25037 -0.209409 49
-1.40755 -2.22055 -0.503307 45
-0.921187 -2.24566 -0.37938 47
-1.41271 -2.22528 -0.696416 52
-0.917827 -2.24404 -0.550858 52
-3.32355 -5.19151 1.4128 12
-2.28296 -5.55631 1.59806 15
-3.54882 -5.54534 1.03487 12
-2.29206 -5.551 1.15955 18
-3.54585 -5.54281 0.572613 11
-2.29194 -5.52887 0.729568 27
-1.42077 -2.2216 0.0454199 47
-0.935253 -2.24429 0.125606 44
-1.41943 -2.21866 -0.136658 45
-0.935236 -2.24205 -0.0417985 45
-1.4228 -2.22137 -0.319148 47
-0.935334 -2.24336 -0.209191 47
-1.41877 -2.2134 -0.503307 45
-0.935373 -2.24782 -0.380555 49
-1.42917 -2.22622 -0.699003 52
-0.930493 -2.24145 -0.55142 50
-3.30404 -5.14325 1.40101 12
-2.28806 -5.54115 1.59483 15
-3.55219 -5.53145 1.03331 11
-2.29893 -5.54019 1.15812 18
-3.54744 -5.52404 0.571306 11
-2.29871 -5.52068 0.72896 30
-1.42869 -2.22542 0.0455508 47
-0.939737 -2.24512 0.125737 44
-1.43005 -2.22668 -0.137314 47
-0.941071 -2.24503 -0.0418858 45
-1.42763 -2.22122 -0.319452 45
-0.943079 -2.25092 -0.210061 47
-1.42795 -2.21917 -0.505212 45
-0.938347 -2.2439 -0.380163 49
-1.43437 -2.22575 -0.699649 52
-0.934946 -2.24224 -0.551981 47
-3.31233 -5.09729 1.39315 12
-2.31328 -5.52281 1.59289 15
-3.57841 -5.50863 1.03253 9
-2.32029 -5.51265 1.15479 15
-3.56586 -5.49139 0.569781 11
-2.33048 -5.51542 0.729872 26
-1.44266 -2.22235 0.045638 49
-0.953422 -2.24477 0.125999 47
-1.44402 -2.2236 -0.137577 45
-0.953396 -2.24254 -0.0419294 45
-1.44059 -2.21579 -0.319757 45
-0.95543 -2.24841 -0.210279 49
-1.44318 -2.21809 -0.50664 44
-0.952003 -2.24351 -0.380946 49
-1.45221 -2.22858 -0.702883 52
-0.947618 -2.23956 -0.552543 47
-3.30569 -5.06963 1.38697 12
-2.32666 -5.52767 1.59548 14
-3.57993 -5.48997 1.03019 9
-2.34517 -5.54477 1.16241 14
-3.57408 -5.48307 0.569563 11
-2.38366 -5.61417 0.743563 26
-1.44791 -2.22193 0.0456817 47
-0.957339 -2.24311 0.125999 47
-1.45063 -2.22526 -0.137839 45
-0.959263 -2.24547 -0.0420167 45
-1.45124 -2.22366 -0.321278 47
-0.958379 -2.24445 -0.210061 47
-1.44839 -2.21762 -0.507117 44
-0.957845 -2.24639 -0.381729 47
-1.45742 -2.22806 -0.703529 52
-0.953423 -2.24239 -0.553666 50
-3.31697 -5.02728 1.38023 9
-2.38018 -5.57318 1.61228 12
-3.60454 -5.46497 1.02902 8
-2.40702 -5.60912 1.17862 18
-3.61234 -5.47884 0.571088 8
-2.41401 -5.60389 0.743867 29
-1.4609 -2.2164 0.0457253 47
-0.971045 -2.24265 0.12626 45
-1.46364 -2.21971 -0.137971 45
-0.971997 -2.24272 -0.0420603 45
-1.4656 -2.22017 -0.321886 47
-0.973074 -2.24626 -0.210714 47
-1.46675 -2.22024 -0.509497 45
-0.969594 -2.24134 -0.381729 47
-1.47173 -2.22443 -0.704822 52
-0.968032 -2.24408 -0.55535 50
-3.31275 -5.00378 1.37518 4
-2.40987 -5.61564 1.62585 14
-3.68499 -5.56572 1.04931 9
-2.41971 -5.61167 1.18005 18
-3.68927 -5.57427 0.581765 11
-2.41985 -5.59055 0.742651 27
-1.46614 -2.21593 0.0457689 45
-0.97595 -2.24324 0.126391 47
-1.46889 -2.21924 -0.138102 45
-0.976903 -2.24331 -0.0421039 45
-1.47222 -2.22175 -0.322495 47
-0.976993 -2.24456 -0.210714 49
-1.46927 -2.21563 -0.509021 44
-0.975464 -2.24418 -0.382512 47
-1.47829 -2.22588 -0.706116 52
-0.970983 -2.24015 -0.554789 50
-2.44212 -5.60959 1.62779 15
-3.72782 -5.56686 1.05322 9
-2.44513 -5.58993 1.17814 18
-3.71563 -5.55074 0.581329 11
-2.4461 -5.57099 0.741738 24
-1.48051 -2.21238 0.0458562 45
-0.990692 -2.24496 0.126784 45
-1.48466 -2.21774 -0.138496 44
-0.989641 -2.24045 -0.0421476 45
-1.48522 -2.21607 -0.322799 45
-0.991737 -2.24626 -0.211366 50
-1.48632 -2.21606 -0.510926 45
-0.990177 -2.24583 -0.383687 47
-1.49262 -2.22211 -0.707409 52
-0.984651 -2.2395 -0.555912 49
-2.44611 -5.59204 1.62391 14
-3.73064 -5.5501 1.05126 9
-2.45094 -5.57666 1.17623 17
-3.71976 -5.53598 0.580457 11
-2.45082 -5.55536 0.740217 24
-1.48855 -2.21601 0.0459871 45
-0.993601 -2.24094 0.126653 45
-1.4955 -2.2255 -0.139152 45
-0.995569 -2.2433 -0.0422348 45
-1.49463 -2.22171 -0.324016 45
-0.997666 -2.24908 -0.211801 49
-1.49293 -2.21753 -0.511878 45
-0.99509 -2.24635 -0.384078 47
-1.50055 -2.22551 -0.709349 52
-0.991498 -2.24447 -0.557597 50
-2.47145 -5.57032 1.62133 14
-3.7541 -5.52233 1.0497 8
-2.47811 -5.55927 1.17528 15
-3.73609 -5.49789 0.578496 11
-2.46976 -5.51979 0.737174 23
-1.50576 -2.21646 0.0461616 45
-1.00838 -2.24255 0.127046 45
-1.50853 -2.2197 -0.139283 45
-1.00832 -2.24033 -0.0422784 45
-1.50763 -2.2159 -0.32432 45
-1.01045 -2.2461 -0.212018 49
-1.50867 -2.21577 -0.513307 45
-1.00684 -2.24111 -0.384078 47
-1.51354 -2.21962 -0.709995 50
-1.00324 -2.23925 -0.557597 49
-2.48117 -5.566 1.62133 14
-3.76094 -5.51169 1.04892 4
-2.4798 -5.53701 1.17147 15
-3.73445 -5.47491 0.576753 9
-2.4865 -5.53132 0.739304 26
-1.50962 -2.21383 0.0461616 45
-1.01332 -2.24306 0.127176 45
-1.51522 -2.22119 -0.139546 45
-1.01223 -2.23857 -0.0422784 45
-1.5171 -2.22146 -0.325537 45
-1.01436 -2.24433 -0.212018 49
-1.51808 -2.22123 -0.515211 45
-1.01176 -2.2416 -0.38447 47
-1.52151 -2.22295 -0.711935 50
-1.01013 -2.24416 -0.559281 49
-2.50131 -5.53048 1.61487 14
-3.77808 -5.47297 1.04541 8
-2.50871 -5.52127 1.17099 18
-3.76119 -5.45052 0.576317 11
-2.52358 -5.53359 0.741434 24
-1.52584 -2.2118 0.0462925 45
-1.02647 -2.23982 0.127307 45
-1.53147 -2.21912 -0.13994 45
-1.02744 -2.23988 -0.0424093 45
-1.5291 -2.21322 -0.325537 45
-1.03063 -2.24787 -0.212888 49
-1.53147 -2.215 -0.515688 45
-1.02592 -2.24059 -0.385253 47
-1.53764 -2.22064 -0.713875 50
-1.02326 -2.24088 -0.559843 50
-2.50897 -5.52171 1.61357 14
-3.81576 -5.50696 1.05322 8
-2.53462 -5.55262 1.17862 15
-3.81325 -5.50536 0.582854 8
-2.57863 -5.62848 0.75482 30
-1.53397 -2.21529 0.0464234 45
-1.03246 -2.24256 0.127569 45
-1.53819 -2.22055 -0.140202 44
-1.03343 -2.24263 -0.0424966 47
-1.53437 -2.21258 -0.325841 42
-1.03455 -2.24607 -0.212888 49
-1.53953 -2.21838 -0.517116 45
-1.03188 -2.24329 -0.386036 47
-1.54427 -2.22192 -0.715168 50
-1.02717 -2.23909 -0.559843 49
-2.54692 -5.52824 1.61939 14
-3.88282 -5.5415 1.06375 9
-2.58733 -5.59052 1.18958 17
-3.87632 -5.53427 0.588083 11
-2.60494 -5.60814 0.753907 27
-1.54985 -2.21337 0.0465543 44
-1.04524 -2.23939 0.1277 45
-1.55123 -2.21451 -0.140334 45
-1.04621 -2.23946 -0.0425402 45
-1.0463 -2.24062 -0.212888 47
-1.55395 -2.2143 -0.518068 45
-1.04426 -2.24028 -0.386427 45
-1.56005 -2.21972 -0.717108 52
-1.04093 -2.23811 -0.560966 50
-2.57176 -5.55668 1.62908 14
-3.89436 -5.53943 1.06453 9
-2.61051 -5.61493 1.19577 20
-3.88741 -5.52953 0.588301 11
-2.60327 -5.58155 0.750865 18
-1.55515 -2.21271 0.0465979 45
-1.05087 -2.24227 0.127961 44
-1.5594 -2.21792 -0.140727 44
-1.05118 -2.23989 -0.0425839 45
-1.05442 -2.24782 -0.213758 49
-1.56206 -2.2176 -0.519497 45
-1.05026 -2.24293 -0.38721 45
-1.56532 -2.21897 -0.717755 50
-1.04444 -2.23647 -0.560966 49
-3.36047 -4.72583 1.32857 3
-2.62851 -5.60483 1.64718 14
-3.92045 -5.51494 1.06375 9
-2.62741 -5.57722 1.19053 15
-3.90958 -5.50167 0.58743 11
-2.61023 -5.52071 0.744476 15
-1.57213 -2.21295 0.0467724 45
-1.06366 -2.23899 0.128092 44
-1.06464 -2.23906 -0.0426711 45
-1.06724 -2.24452 -0.213975 47
-1.57896 -2.21766 -0.521402 45
-1.06304 -2.23963 -0.387602 47
-1.58074 -2.21692 -0.719695 50
-1.05718 -2.23317 -0.561527 49
-3.39136 -4.75168 1.33756 4
-2.62493 -5.57182 1.63877 14
-3.92002 -5.49402 1.06102 8
-2.62239 -5.53888 1.18338 14
-3.90905 -5.48064 0.585904 9
-2.61561 -5.50718 0.743259 20
-1.07078 -2.2439 0.128485 45
-1.07069 -2.24171 -0.0427584 47
-1.06902 -2.23816 -0.21354 45
-1.58568 -2.21889 -0.522354 45
-1.07012 -2.24446 -0.388776 47
-1.58781 -2.2178 -0.720988 50
-1.06212 -2.23353 -0.562089 49
-3.44698 -4.77473 1.34935 9
-2.64153 -5.5292 1.63037 14
-3.93524 -5.45271 1.05712 4
-2.65771 -5.53835 1.18624 15
-3.92698 -5.44326 0.584161 9
-2.64644 -5.49518 0.743563 21
-1.0829 -2.23807 0.128485 44
-1.08389 -2.23814 -0.042802 47
-1.08504 -2.2415 -0.21441 44
-1.08293 -2.24105 -0.389168 49
-1.60223 -2.21337 -0.722281 50
-1.0784 -2.23653 -0.564335 49
-2.65326 -5.52894 1.63167 14
-2.65141 -5.50053 1.17909 15
-2.65615 -5.49326 0.743867 23
-1.08642 -2.23637 0.128485 44
-1.08997 -2.24074 -0.0428893 47
-1.09112 -2.24409 -0.214845 45
-1.08791 -2.24138 -0.38956 49
-1.61035 -2.21643 -0.724221 49
-1.08085 -2.23264 -0.563773 49
-2.67173 -5.49588 1.62585 14
-2.6846 -5.49807 1.18148 15
-2.69141 -5.49265 0.745693 27
-1.10031 -2.23513 0.128746 44
-1.1035 -2.23969 -0.0429765 45
-1.10395 -2.24058 -0.215063 47
-1.10181 -2.24009 -0.390343 47
-1.62727 -2.21603 -0.726808 49
-1.09574 -2.23352 -0.565458 49
-2.68872 -5.50641 1.63037 15
-2.69623 -5.49511 1.18195 17
-2.69771 -5.48126 0.74478 24
-1.10751 -2.23993 0.129139 44
-1.16613 -1.58751 -0.101739 12
-1.11072 -2.24449 -0.0431074 45
-1.10896 -2.24089 -0.21528 45
-1.10789 -2.2426 -0.391126 47
-1.63439 -2.21679 -0.728101 49
-1.09963 -2.2316 -0.565458 49
-3.31558 -4.4603 1.27298 4
-2.72275 -5.50044 1.63296 14
-2.73696 -5.5051 1.1872 18
-3.28209 -4.41844 0.478485 8
-2.74392 -5.4999 0.749344 21
-1.22329 -1.64768 0.0352102 11
-1.12407 -2.24284 0.129662 44
-1.1625 -1.56535 -0.100688 14
-1.12508 -2.24292 -0.0431947 45
-1.12735 -2.24842 -0.216585 47
-1.12182 -2.24119 -0.391909 47
-1.64453 -2.20627 -0.727454 49
-1.11711 -2.23653 -0.568266 47
-3.31093 -4.43946 1.26849 4
-2.73986 -5.51083 1.63748 15
-2.75532 -5.51789 1.19101 18
-3.28384 -4.40472 0.477613 3
-2.76809 -5.52666 0.753603 21
-1.23065 -1.65156 0.0353411 11
-1.12536 -2.23661 0.129401 44
-1.12788 -2.23871 -0.0431511 45
-1.13016 -2.24422 -0.216367 49
-1.12573 -2.23923 -0.391909 47
-1.65417 -2.21113 -0.730041 49
-1.12062 -2.23477 -0.568266 47
-2.77856 -5.51847 1.64394 14
-2.80201 -5.54112 1.19911 15
-2.84856 -5.61392 0.767598 33
-1.1427 -2.24182 0.130055 44
-1.14598 -2.24635 -0.0434129 47
-1.17143 -1.55347 -0.234265 4
-1.14528 -2.24494 -0.21702 49
-1.13967 -2.2377 -0.392692 47
-1.66826 -2.20658 -0.731334 49
-1.13451 -2.23322 -0.569389 47
-2.81539 -5.56751 1.6601 14
-2.85704 -5.62328 1.21817 21
-2.84823 -5.58904 0.76486 26
-1.14775 -2.24204 0.130186 44
-1.17311 -1.55117 -0.100426 15
-1.14877 -2.24212 -0.0433692 45
-1.17564 -1.5534 -0.234569 4
-1.15033 -2.24515 -0.217237 49
-1.14358 -2.23571 -0.392692 47
-1.1384 -2.23124 -0.569389 47
-2.86967 -5.5995 1.67432 15
-2.87299 -5.58205 1.21246 17
-2.87047 -5.5581 0.76273 24
-1.23858 -1.62052 0.0349921 11
-1.15872 -2.23358 0.130055 44
-1.17666 -1.53906 -0.100032 15
-1.16088 -2.23587 -0.0433692 45
-1.17799 -1.53914 -0.233352 14
-1.15864 -2.23246 -0.216585 45
-1.1564 -2.23189 -0.393083 47
-1.15157 -2.22721 -0.56995 47
-2.86178 -5.56011 1.66398 14
-2.87148 -5.55522 1.20769 15
-2.86551 -5.52714 0.759079 21
-1.23836 -1.61439 0.0349048 11
-1.16567 -2.23841 0.130447 44
-1.18391 -1.54294 -0.100426 15
-1.16823 -2.2405 -0.0435001 44
-1.18192 -1.53926 -0.233657 23
-1.16827 -2.24149 -0.217672 47
-1.15951 -1.50848 -0.362362 17
-1.16256 -2.23425 -0.393866 45
-1.15731 -2.22973 -0.571073 47
-2.88766 -5.54127 1.66268 14
-2.88706 -5.51668 1.20245 15
-2.88635 -5.49668 0.75695 21
-1.25418 -1.61797 0.035123 11
-1.17853 -2.23449 0.130578 44
-1.19323 -1.5389 -0.100557 14
-1.18072 -2.23677 -0.0435437 45
-1.18692 -1.52913 -0.233048 15
-1.18191 -2.23996 -0.218107 45
-1.15658 -1.48904 -0.359029 17
-1.17539 -2.23032 -0.394258 45
-1.1701 -2.2258 -0.571635 47
-2.88726 -5.51695 1.65687 14
-2.89098 -5.50077 1.20006 15
-2.91905 -5.53555 0.763035 23
-1.25547 -1.61381 0.0350793 11
-1.18593 -2.23905 0.130971 44
-1.19438 -1.53485 -0.100426 14
-1.18579 -2.23692 -0.0435874 44
-1.18959 -1.52705 -0.233048 15
-1.18698 -2.24009 -0.218324 45
-1.15615 -1.48315 -0.358077 18
-1.18159 -2.23264 -0.395041 45
-1.17738 -2.23022 -0.573319 47
-2.9195 -5.50816 1.65881 14
-3.03143 -5.69579 1.24629 14
-1.732 -2.20243 0.242075 11
-3.0297 -5.67347 0.784331 15
-1.27318 -1.619 0.0353411 11
-1.19763 -2.23281 0.130971 44
-1.20704 -1.53446 -0.10082 14
-1.19867 -2.23288 -0.043631 44
-1.19603 -1.51886 -0.232744 14
-1.19987 -2.23604 -0.218542 45
-1.16086 -1.47322 -0.357124 18
-1.19559 -2.23077 -0.395824 45
-1.19018 -2.22618 -0.573881 45
-3.04014 -5.71207 1.72214 20
-3.03213 -5.67316 1.24248 15
-1.73121 -2.19354 0.241421 11
-3.02086 -5.63317 0.779464 17
-1.27755 -1.61873 0.0353848 11
-1.20507 -2.23732 0.131363 44
-1.21745 -1.54214 -0.101476 14
-1.20493 -2.23519 -0.0437183 44
-1.2033 -1.5226 -0.233657 14
-1.20612 -2.23834 -0.218977 47
-1.15734 -1.4635 -0.35522 17
-1.20297 -2.23521 -0.396998 44
-1.19292 -2.22195 -0.573319 44
-3.04369 -5.64716 1.70727 14
-3.04312 -5.62266 1.23486 17
-3.04677 -5.61073 0.778551 33
-1.29069 -1.61788 0.0355156 11
-1.21796 -2.23317 0.131494 44
-1.23202 -1.54333 -0.102001 14
-1.21661 -2.22885 -0.0437183 44
-1.21125 -1.51628 -0.233657 14
-1.21703 -2.22959 -0.218759 44
-1.16192 -1.45358 -0.354267 15
-1.21466 -2.22888 -0.396998 45
-1.20802 -2.2221 -0.575004 44
-3.04436 -5.62484 1.7021 24
-3.05743 -5.62328 1.23629 33
-3.06012 -5.61194 0.779464 35
-1.29692 -1.6193 0.0356029 11
-1.22305 -2.23323 0.131625 44
-1.23314 -1.53923 -0.10187 14
-1.22289 -2.23111 -0.0438055 44
-1.21856 -1.51997 -0.234569 14
-1.2233 -2.23183 -0.219194 44
-1.16138 -1.44773 -0.353315 15
-1.22091 -2.2311 -0.397781 44
-1.21538 -2.22641 -0.576689 45
-3.07939 -5.61676 1.70469 32
-3.09274 -5.61795 1.23867 36
-3.09163 -5.59748 0.779768 21
-1.31325 -1.6222 0.0358211 11
-1.23632 -2.22877 0.131756 44
-1.25062 -1.54439 -0.102658 14
-1.23737 -2.22884 -0.0438928 44
-1.22989 -1.51721 -0.235178 14
-1.23858 -2.23194 -0.219847 44
-1.15681 -1.42618 -0.349506 15
-1.23535 -2.22878 -0.398564 44
-1.23093 -2.2262 -0.578373 45
-3.095 -5.62196 1.70792 30
-3.10135 -5.61039 1.23819 21
-3.11222 -5.61161 0.782506 33
-1.32081 -1.62572 0.035952 12
-1.24021 -2.22661 0.131756 44
-1.26119 -1.55188 -0.103314 14
-1.24247 -2.22886 -0.0439364 44
-1.23097 -1.51314 -0.234873 14
-1.24248 -2.22977 -0.219847 44
-1.15465 -1.41846 -0.348077 15
-1.24163 -2.23094 -0.399347 44
-1.23364 -2.22192 -0.577812 44
-3.12577 -5.61044 1.70921 26
-3.13928 -5.61177 1.242 32
-3.14422 -5.60228 0.783419 33
-1.33061 -1.62094 0.0359956 12
-1.25268 -2.22248 0.131887 44
-1.27723 -1.5549 -0.10397 14
-1.25618 -2.2269 -0.0440237 44
-1.2465 -1.51647 -0.236395 14
-1.25901 -2.23192 -0.220716 44
-1.15557 -1.40502 -0.346173 15
-1.25532 -2.22894 -0.40013 44
-1.24725 -2.2199 -0.578935 45
-3.14262 -5.61763 1.71309 32
-3.16085 -5.62499 1.24629 33
-3.16129 -5.60976 0.785244 33
-1.34327 -1.62995 0.0362574 12
-1.26269 -2.23117 0.132541 44
-1.28789 -1.56229 -0.104627 14
-1.26252 -2.22906 -0.044111 44
-1.24914 -1.51429 -0.236395 14
-1.26536 -2.23406 -0.221151 44
-1.15802 -1.403 -0.346173 14
-1.26164 -2.23105 -0.400914 44
-1.82336 -2.20394 -0.756553 12
-1.25589 -2.22621 -0.581181 45
-3.17653 -5.60685 1.71503 32
-3.1939 -5.61477 1.24772 32
-3.19774 -5.60336 0.786765 32
-1.35178 -1.6229 0.0362574 12
-1.27474 -2.2243 0.132541 44
-1.29765 -1.55745 -0.104758 14
-1.2758 -2.22437 -0.0441546 44
-1.26527 -1.51703 -0.237916 14
-1.2795 -2.23173 -0.221586 44
-1.16245 -1.39295 -0.34522 12
-1.27452 -2.22656 -0.401305 44
-1.84108 -2.20177 -0.759139 11
-1.26912 -2.2215 -0.581742 45
-4.56056 -5.45077 1.63011 12
-3.19347 -5.6139 1.7189 32
-4.56291 -5.45548 1.11838 11
-3.2122 -5.62411 1.25106 32
-3.21146 -5.60694 0.787982 32
-1.36424 -1.63204 0.0365192 12
-1.28196 -2.2288 0.132933 44
-1.30838 -1.56475 -0.105414 14
-1.28217 -2.22648 -0.0442418 44
-1.27562 -1.52455 -0.239437 14
-1.2834 -2.22949 -0.221586 44
-1.16172 -1.38715 -0.344268 12
-1.28331 -2.2329 -0.402871 44
-1.84802 -2.20225 -0.760432 11
-1.27503 -2.22374 -0.582865 45
-4.63624 -5.48261 1.64696 9
-3.22545 -5.60394 1.72084 30
-4.65838 -5.51071 1.13477 12
-3.24308 -5.61203 1.25201 33
-4.6569 -5.51089 0.628175 14
-3.24699 -5.60079 0.789503 30
-1.37733 -1.63084 0.0366501 12
-1.29611 -2.22637 0.133195 44
-1.31656 -1.55788 -0.105414 14
-1.29719 -2.22644 -0.0443727 44
-1.29 -1.52543 -0.240654 14
-1.2988 -2.22921 -0.222239 44
-1.17032 -1.38313 -0.344744 14
-1.29499 -2.22615 -0.402871 44
-1.87008 -2.20576 -0.764959 9
-1.29153 -2.22547 -0.585111 44
-4.68995 -5.52651 1.66268 11
-3.24609 -5.61713 1.72666 29
-4.67278 -5.50822 1.13594 12
-3.26246 -5.62066 1.25535 30
-4.67134 -5.50845 0.628829 14
-3.23931 -5.56508 0.785244 26
-1.38693 -1.63581 0.0368246 12
-1.30502 -2.23274 0.133718 45
-1.32736 -1.56509 -0.106071 14
-1.30359 -2.2285 -0.04446 44
-1.3007 -1.53263 -0.242175 14
-1.3052 -2.23124 -0.222674 44
-1.16001 -1.36613 -0.340935 14
-1.30259 -2.23029 -0.404046 44
-1.87275 -2.20032 -0.764312 8
-1.29541 -2.22321 -0.585111 44
-4.71344 -5.49366 1.66044 11
-3.28374 -5.612 1.73054 29
-4.70412 -5.48473 1.13633 12
-3.28936 -5.59926 1.2544 14
-4.68811 -5.46797 0.627086 12
-3.27566 -5.55816 0.786765 2
-1.40035 -1.63422 0.0369555 12
-1.31455 -2.22134 0.133457 42
-1.34041 -1.5638 -0.106465 14
-1.31816 -2.22572 -0.0445473 42
-1.3122 -1.52933 -0.242784 14
-1.31813 -2.22652 -0.222891 44
-1.16738 -1.35983 -0.340935 14
-1.31425 -2.22344 -0.404046 44
-1.88897 -2.19598 -0.766252 9
-1.31112 -2.22247 -0.586796 44
-4.72683 -5.49179 1.66212 11
-3.28131 -5.58543 1.72407 4
-4.71434 -5.47921 1.13672 12
-3.32404 -5.63581 1.26393 1
-4.69927 -5.46167 0.627303 12
-3.26546 -5.52096 0.782202 1
-1.4081 -1.63746 0.0370864 12
-1.32312 -2.22787 0.13398 44
-1.34803 -1.56714 -0.106858 14
-1.32459 -2.22771 -0.0446345 42
-1.3227 -1.53666 -0.244305 14
-1.32455 -2.2285 -0.223326 44
-1.16334 -1.35036 -0.33903 12
-1.32316 -2.22964 -0.405612 44
-1.88806 -2.1872 -0.764312 9
-1.31708 -2.22461 -0.587919 44
-4.75392 -5.46513 1.66156 11
-3.30092 -5.55421 1.71955 1
-4.74621 -5.45817 1.1375 11
-3.3387 -5.59572 1.25869 1
-4.72685 -5.43781 0.627303 12
-3.26887 -5.46118 0.776117 1
-1.41473 -1.62842 0.0370427 12
-1.33605 -2.22305 0.134111 44
-1.36277 -1.56759 -0.107383 15
-1.33714 -2.22313 -0.0446782 42
-1.33888 -1.53907 -0.245826 14
-1.33876 -2.22581 -0.223761 44
-1.16371 -1.33705 -0.337125 14
-1.33735 -2.22692 -0.406395 44
-1.90387 -2.18307 -0.766252 11
-1.33121 -2.22186 -0.589042 44
-4.76826 -5.46232 1.66324 11
-3.31555 -5.55674 1.72214 2
-4.75411 -5.44802 1.13711 11
-3.32802 -5.5535 1.25058 3
-4.74288 -5.43706 0.628175 12
-3.3001 -5.49164 0.781289 3
-1.42607 -1.63512 0.0372609 12
-1.34249 -2.225 0.134373 42
-1.37043 -1.57085 -0.107777 14
-1.34488 -2.22721 -0.0448091 42
-1.3481 -1.54421 -0.247043 14
-1.34649 -2.22987 -0.224413 42
-1.16443 -1.33317 -0.336649 12
-1.34504 -2.23094 -0.407569 42
-1.9017 -2.17214 -0.763665 11
-1.33634 -2.22163 -0.589604 44
-4.79935 -5.43827 1.66381 8
-3.33683 -5.52424 1.71761 14
-4.78351 -5.42222 1.13711 8
-3.39518 -5.59898 1.26488 2
-4.79859 -5.4412 0.631661 4
-3.38515 -5.56491 0.794371 11
-1.43792 -1.63137 0.0373481 12
-1.361 -2.22837 0.135027 42
-1.38359 -1.56927 -0.108171 14
-1.35821 -2.22204 -0.0448527 42
-1.36465 -1.54619 -0.248564 14
-1.35944 -2.22492 -0.224631 42
-1.35671 -2.22386 -0.407569 42
-1.91464 -2.16397 -0.764312 12
-1.3496 -2.21645 -0.590165 44
-4.7982 -5.41978 1.66044 4
-3.33021 -5.49155 1.70921 14
-4.81494 -5.44058 1.14258 4
-3.4024 -5.58885 1.26393 11
-4.82955 -5.45706 0.634494 8
-3.38743 -5.54899 0.79285 12
-1.44574 -1.63448 0.037479 12
-1.3671 -2.23049 0.135288 42
-1.38964 -1.57059 -0.108434 14
-1.3673 -2.2282 -0.0450272 42
-1.37037 -1.54775 -0.249173 14
-1.36722 -2.22892 -0.225283 44
-1.36316 -2.22571 -0.408352 42
-1.92002 -2.16243 -0.764959 12
-1.35435 -2.21641 -0.590727 44
-4.88175 -5.45631 1.67953 3
-3.34157 -5.44785 1.70081 12
-4.94215 -5.52571 1.16599 8
-3.41137 -5.5402 1.25678 11
-4.94178 -5.52722 0.645606 9
-3.41383 -5.52695 0.792242 12
-1.45899 -1.63273 0.0376099 12
-1.37876 -2.2233 0.135288 41
-1.40451 -1.57073 -0.108959 14
-1.37725 -2.21912 -0.0449836 42
-1.38839 -1.55165 -0.250998 14
-1.37887 -2.22173 -0.225283 42
-1.37998 -2.22695 -0.409918 42
-1.93901 -2.16166 -0.768192 11
-1.37104 -2.21758 -0.592973 44
-4.9808 -5.54746 1.71041 12
-3.32957 -5.40704 1.68983 12
-4.97819 -5.54648 1.17223 11
-3.40652 -5.50858 1.25106 12
-4.97471 -5.54453 0.648657 11
-3.4078 -5.49567 0.788591 14
-1.4638 -1.63178 0.0376536 12
-1.38659 -2.22726 0.135681 41
-1.41225 -1.57385 -0.109353 14
-1.38507 -2.22309 -0.0451145 41
-1.39441 -1.55291 -0.251607 14
-1.388 -2.22779 -0.226153 42
-1.38516 -2.22663 -0.41031 42
-1.95124 -2.16691 -0.771425 9
-1.37619 -2.21726 -0.593534 44
-5.02712 -5.53846 1.71603 11
-3.33326 -5.34793 1.6769 11
-5.0214 -5.53409 1.17536 11
-3.44312 -5.50315 1.25392 12
-5.0197 -5.53413 0.650618 11
-3.44407 -5.48766 0.790112 12
-1.474 -1.62595 0.0376972 12
-1.39994 -2.22184 0.135812 38
-1.42719 -1.57382 -0.109878 14
-1.40107 -2.22191 -0.0452454 41
-1.4028 -1.54534 -0.251607 14
-1.40229 -2.22471 -0.226588 42
-1.3968 -2.21935 -0.41031 42
-1.96581 -2.16023 -0.772718 8
-1.38946 -2.21185 -0.594096 44
-5.04073 -5.53596 1.71771 12
-3.32084 -5.30729 1.66592 11
-5.04505 -5.54263 1.17887 9
-3.51269 -5.59278 1.27584 11
-5.0327 -5.52905 0.651053 12
-3.51344 -5.57888 0.804107 12
-1.48357 -1.63076 0.0378717 12
-1.40609 -2.22386 0.136073 36
-1.43161 -1.57317 -0.110009 14
-1.40627 -2.22158 -0.045289 41
-1.40617 -2.22226 -0.226588 41
-1.40594 -2.22527 -0.411876 42
-1.9761 -2.16393 -0.775305 3
-1.39811 -2.21791 -0.596342 44
-5.0845 -5.52562 1.72277 9
-3.32573 -5.2557 1.65493 11
-5.09574 -5.53976 1.18394 11
-3.54359 -5.57907 1.2768 11
-5.08254 -5.52733 0.653886 11
-3.53461 -5.54784 0.802282 12
-1.49688 -1.62875 0.0380026 12
-1.42174 -2.22278 0.136466 35
-1.4449 -1.57117 -0.110403 14
-1.42153 -2.22075 -0.0454199 41
-1.42449 -2.22536 -0.227675 42
-1.41889 -2.21996 -0.412268 41
-1.99194 -2.15922 -0.777245 2
-1.40971 -2.21056 -0.596342 42
-5.11232 -5.53643 1.72894 9
-3.3168 -5.22133 1.64588 11
-5.12048 -5.54718 1.18745 11
-3.54638 -5.55984 1.27394 9
-5.11921 -5.54773 0.657372 12
-3.54162 -5.53748 0.801673 9
-1.5034 -1.62955 0.0380899 12
-1.42696 -2.2224 0.136597 30
-1.44426 -1.56498 -0.11014 14
-1.4281 -2.22248 -0.0455071 41
-1.43374 -2.23126 -0.228545 42
-1.4241 -2.21956 -0.412659 42
-1.99936 -2.15893 -0.778538 2
-1.4188 -2.21632 -0.598588 44
-5.15882 -5.52649 1.73456 9
-3.32804 -5.17689 1.63748 11
-5.16221 -5.53203 1.19018 9
-3.57677 -5.54326 1.27441 9
-5.15765 -5.52906 0.658462 12
-3.56614 -5.5099 0.800456 9
-1.51532 -1.62531 0.0381771 12
-1.44304 -2.22094 0.136989 30
-1.45925 -1.56469 -0.110665 14
-1.44282 -2.21892 -0.0455944 41
-1.44405 -2.22164 -0.228327 42
-1.43704 -2.21415 -0.413051 42
-2.01229 -2.1502 -0.779185 2
-1.43341 -2.2127 -0.599711 42
-5.19082 -5.54327 1.74242 9
-3.31614 -5.13859 1.62714 11
-5.1844 -5.53834 1.19331 9
-3.57845 -5.52464 1.27155 4
-5.18431 -5.53823 0.660641 8
-3.55859 -5.47931 0.796805 9
-1.53012 -1.63543 0.0384826 12
-1.4438 -2.21448 0.136728 26
-1.46368 -1.56396 -0.110797 14
-1.44942 -2.22059 -0.0456817 41
-1.45199 -2.22538 -0.22898 42
-1.44359 -2.21578 -0.413834 42
-2.02762 -2.159 -0.783711 2
-1.43954 -2.21454 -0.600834 42
-5.25661 -5.55494 1.75477 1
-3.3197 -5.08734 1.61616 11
-5.21672 -5.5147 1.19409 1
-3.59562 -5.49003 1.26774 4
-5.19174 -5.49021 0.658026 9
-3.59172 -5.46953 0.798022 8
-1.46086 -2.21524 0.137251 23
-1.463 -1.54747 -0.11014 12
-1.46476 -2.21949 -0.0458126 41
-1.46324 -2.218 -0.22898 42
-1.45885 -2.21464 -0.415008 42
-2.04351 -2.15396 -0.785651 2
-1.4534 -2.2113 -0.601957 44
-5.22675 -5.50604 1.74186 8
-3.31272 -5.05728 1.6084 11
-5.20497 -5.48501 1.1894 11
-3.60115 -5.47759 1.26631 4
-5.18664 -5.46759 0.656283 9
-3.67356 -5.57311 0.814147 8
