# .PCD v0.7 - Point Cloud Data file format
VERSION 0.7
FIELDS x y z intensity
SIZE 4 4 4 4
TYPE F F F F
COUNT 1 1 1 1
WIDTH 1579
HEIGHT 1
VIEWPOINT 0 0 0 1 0 0 0
POINTS 1579
DATA ascii
-1.00462 -2.2413 -0.558158 49
-2.48018 -5.56115 1.62004 14
-3.7633 -5.51307 1.04931 4
-2.48077 -5.53657 1.17147 15
-3.73962 -5.48042 0.577407 9
-2.48644 -5.52862 0.739 26
-1.51283 -2.21769 0.0462489 45
-1.01371 -2.24288 0.127176 45
-1.51561 -2.22093 -0.139546 45
-1.01467 -2.24295 -0.0423657 45
-1.51609 -2.21915 -0.325233 45
-1.01578 -2.24643 -0.212236 49
-1.51847 -2.22097 -0.515211 45
-1.01316 -2.24368 -0.384861 47
-1.52053 -2.22069 -0.711289 52
-1.00953 -2.24176 -0.55872 49
-2.50631 -5.54412 1.61874 14
-3.77292 -5.46753 1.04424 4
-2.50572 -5.51724 1.17004 18
-3.76307 -5.45528 0.576753 9
-2.52467 -5.53855 0.742042 24
-1.52688 -2.21412 0.0463361 45
-1.02712 -2.24227 0.127438 45
-1.53147 -2.21912 -0.13994 45
-1.02809 -2.24234 -0.042453 45
-1.53295 -2.21961 -0.32645 45
-1.02959 -2.24561 -0.212671 49
-1.53248 -2.21729 -0.516164 45
-1.02553 -2.24077 -0.385253 47
-1.53588 -2.21892 -0.713229 50
-1.02287 -2.24106 -0.559843 49
-2.50701 -5.51994 1.61293 14
-3.81621 -5.50965 1.05361 8
-2.53564 -5.55485 1.17909 15
-3.81229 -5.50603 0.582854 8
-2.57559 -5.62441 0.754212 30
-1.53397 -2.21529 0.0464234 45
-1.03207 -2.24274 0.127569 45
-1.53819 -2.22055 -0.140202 45
-1.03304 -2.24281 -0.0424966 47
-1.53823 -2.21897 -0.326754 45
-1.03559 -2.24834 -0.213106 49
-1.54055 -2.22066 -0.517592 45
-1.03047 -2.24122 -0.385644 47
-1.54289 -2.21993 -0.714522 50
-1.02577 -2.23706 -0.559281 49
-2.54793 -5.53044 1.62004 14
-3.88707 -5.54756 1.06492 8
-2.58939 -5.59497 1.19053 17
-3.86632 -5.51999 0.586558 11
-2.60703 -5.61265 0.754516 27
-1.54842 -2.21132 0.0465107 44
-1.04629 -2.24165 0.127831 45
-1.55266 -2.21655 -0.140465 45
-1.04727 -2.24172 -0.0425839 45
-1.04944 -2.2474 -0.21354 49
-1.55395 -2.2143 -0.518068 45
-1.0453 -2.24252 -0.386819 47
-1.56005 -2.21972 -0.717108 52
-1.03991 -2.23589 -0.560404 49
-2.57581 -5.56545 1.63167 14
-3.90004 -5.54751 1.06609 9
-2.61051 -5.61493 1.19577 18
-3.88455 -5.52546 0.587865 11
-2.59699 -5.56805 0.74904 18
-1.55803 -2.21679 0.0466852 45
-1.05087 -2.24227 0.127961 44
-1.55796 -2.21588 -0.140596 44
-1.05224 -2.24216 -0.0426275 45
-1.05336 -2.24556 -0.21354 49
-1.56347 -2.21961 -0.519973 45
-1.0513 -2.24516 -0.387602 45
-1.56671 -2.22094 -0.718402 50
-1.04444 -2.23647 -0.560966 49
-3.35623 -4.71988 1.32689 3
-2.62954 -5.60702 1.64782 14
-3.92617 -5.52299 1.06531 9
-2.62741 -5.57722 1.19053 15
-3.90813 -5.49964 0.587212 11
-2.6134 -5.52745 0.745389 15
-1.57213 -2.21295 0.0467724 45
-1.06366 -2.23899 0.128092 44
-1.06464 -2.23906 -0.0426711 45
-1.06685 -2.24471 -0.213975 49
-1.57611 -2.21366 -0.520449 45
-1.06199 -2.2374 -0.38721 47
-1.57934 -2.21495 -0.719048 50
-1.05718 -2.23317 -0.561527 50
-3.38487 -4.74434 1.33531 4
-2.62596 -5.57401 1.63942 14
-3.92146 -5.49603 1.06141 8
-2.62037 -5.53712 1.18291 14
-3.91194 -5.4847 0.58634 9
-2.61773 -5.51167 0.743867 20
-1.07078 -2.2439 0.128485 45
-1.07069 -2.24171 -0.0427584 45
-1.0729 -2.24734 -0.21441 45
-1.5814 -2.21291 -0.520925 45
-1.06801 -2.24 -0.387993 47
-1.58742 -2.21808 -0.720988 50
-1.06212 -2.23353 -0.562089 49
-3.44472 -4.77336 1.34879 9
-2.64368 -5.5362 1.63231 14
-3.94006 -5.4614 1.05868 4
-2.65674 -5.53882 1.18624 15
-3.92312 -5.4399 0.583726 9
-2.64655 -5.49788 0.743867 23
-1.08143 -2.23601 0.128354 44
-1.08567 -2.24283 -0.0428893 47
-1.08504 -2.2415 -0.21441 44
-1.08293 -2.24105 -0.389168 47
-1.60326 -2.21561 -0.722928 50
-1.07696 -2.23452 -0.563773 49
-2.65751 -5.54029 1.6349 14
-2.65567 -5.50938 1.181 15
-2.65615 -5.49326 0.743867 23
-1.08642 -2.23637 0.128485 44
-1.09067 -2.24319 -0.0429329 47
-1.09112 -2.24409 -0.214845 47
-1.08791 -2.24138 -0.38956 49
-1.60893 -2.21448 -0.723575 50
-1.08085 -2.23264 -0.563773 49
-2.67479 -5.49976 1.62714 14
-2.68556 -5.49761 1.18148 17
-2.69128 -5.48995 0.745389 26
-1.1029 -2.23943 0.129008 44
-1.10389 -2.2395 -0.0429765 45
-1.10286 -2.23835 -0.214845 45
-1.10072 -2.23787 -0.389951 47
-1.62623 -2.2138 -0.726161 50
-1.09613 -2.23333 -0.565458 49
-2.68968 -5.50594 1.63037 15
-2.69731 -5.49732 1.18243 18
-2.69881 -5.48349 0.745084 24
-1.10751 -2.23993 0.129139 44
-1.16613 -1.58751 -0.101739 12
-1.1089 -2.23981 -0.0430202 45
-1.11226 -2.24759 -0.215932 49
-1.10789 -2.2426 -0.391126 47
-1.63439 -2.21679 -0.728101 49
-1.10071 -2.23379 -0.56602 49
-3.31917 -4.46674 1.27467 4
-2.72072 -5.49875 1.63231 14
-3.31479 -4.46246 0.872932 1
-2.736 -5.50558 1.1872 18
-3.27241 -4.40701 0.477178 8
-2.74628 -5.50705 0.750256 21
-1.22449 -1.6499 0.0352539 11
-1.12368 -2.24304 0.129662 44
-1.16101 -1.56335 -0.100557 14
-1.12469 -2.24311 -0.0431947 45
-1.12735 -2.24842 -0.216585 47
-1.12072 -2.23898 -0.391517 47
-1.64415 -2.20655 -0.727454 47
-1.11564 -2.23454 -0.567704 47
-3.32259 -4.45508 1.27298 3
-2.74212 -5.51779 1.63942 14
-3.30191 -4.42896 0.867468 1
-2.75642 -5.52009 1.19149 17
-3.29349 -4.41927 0.479139 3
-2.77031 -5.5311 0.754212 21
-1.21421 -1.62952 0.0348612 11
-1.1276 -2.24107 0.129662 44
-1.12749 -2.23891 -0.0431511 45
-1.12904 -2.242 -0.21615 49
-1.12794 -2.24364 -0.392692 49
-1.65562 -2.21306 -0.730688 49
-1.11954 -2.23259 -0.567704 47
-2.77519 -5.50935 1.64136 14
-2.80519 -5.54501 1.20006 15
-2.85066 -5.61564 0.767902 33
-1.14309 -2.24162 0.130055 44
-1.14411 -2.24169 -0.0433256 45
-1.1732 -1.55525 -0.234569 4
-1.14753 -2.24938 -0.217455 49
-1.15962 -1.53617 -0.366648 14
-1.13967 -2.2377 -0.392692 47
-1.66718 -2.20436 -0.730688 49
-1.1349 -2.23302 -0.569389 49
-2.81636 -5.56702 1.6601 14
-2.85704 -5.62328 1.21817 21
-2.8516 -5.59567 0.765773 27
-1.14548 -2.2376 0.129924 42
-1.17461 -1.55316 -0.100557 15
-1.14689 -2.23747 -0.043282 45
-1.17564 -1.5534 -0.234569 4
-1.15146 -2.24737 -0.217455 49
-1.15785 -1.52827 -0.365219 14
-1.14246 -2.23351 -0.3923 47
-1.13951 -2.23341 -0.56995 47
-2.87199 -5.60645 1.67625 15
-2.8709 -5.58037 1.21198 18
-2.86609 -5.55199 0.761818 24
-1.23526 -1.61676 0.0349048 11
-1.16176 -2.24044 0.130447 44
-1.17942 -1.54323 -0.100295 15
-1.16278 -2.24052 -0.0434565 45
-1.18376 -1.54723 -0.234569 14
-1.16282 -2.24151 -0.217455 45
-1.16258 -1.5185 -0.364267 17
-1.15827 -2.23648 -0.393866 47
-1.1523 -2.22958 -0.570512 47
-2.86081 -5.56061 1.66398 14
-2.87051 -5.55572 1.20769 15
-2.85999 -5.51883 0.757863 21
-1.24569 -1.62452 0.035123 11
-1.16528 -2.23861 0.130447 44
-1.18212 -1.54117 -0.100295 15
-1.16669 -2.23848 -0.0434565 45
-1.18316 -1.54143 -0.233961 23
-1.16902 -2.2439 -0.21789 45
-1.16074 -1.51063 -0.362838 15
-1.16104 -2.23226 -0.393475 45
-1.15692 -2.22993 -0.571073 47
-2.88558 -5.53963 1.66204 14
-2.88837 -5.52154 1.2034 15
-2.88424 -5.49498 0.756646 21
-1.2539 -1.61819 0.035123 11
-1.1793 -2.2369 0.130709 44
-1.19296 -1.53911 -0.100557 14
-1.17917 -2.23476 -0.0435001 45
-1.1897 -1.53325 -0.233657 15
-1.17921 -2.23575 -0.217672 47
-1.16234 -1.49699 -0.360934 18
-1.17615 -2.23271 -0.394649 45
-1.17084 -2.22816 -0.572196 47
-2.88742 -5.5196 1.65751 14
-2.89002 -5.50128 1.20006 15
-2.91924 -5.53825 0.763339 23
-1.26133 -1.62192 0.0352539 11
-1.18553 -2.23926 0.130971 44
-1.19565 -1.53703 -0.100557 14
-1.18657 -2.23933 -0.043631 44
-1.19084 -1.52922 -0.233352 15
-1.18659 -2.2403 -0.218324 45
-1.16043 -1.48915 -0.359505 18
-1.18005 -2.23066 -0.394649 45
-1.17699 -2.23043 -0.573319 47
-2.92192 -5.51508 1.66075 14
-3.03044 -5.69631 1.24629 14
-1.72238 -2.19099 0.240768 12
-3.03221 -5.68057 0.785244 15
-1.27135 -1.61726 0.0352975 11
-1.19842 -2.23522 0.131102 44
-1.20858 -1.53642 -0.100951 14
-1.19828 -2.23309 -0.043631 45
-1.19423 -1.51712 -0.23244 14
-1.20104 -2.23824 -0.218759 45
-1.16061 -1.47342 -0.357124 17
-1.19403 -2.2288 -0.395432 45
-1.19208 -2.23069 -0.575004 45
-3.03801 -5.71047 1.72149 20
-3.03328 -5.67533 1.24296 15
-1.72929 -2.19189 0.241204 12
-3.01988 -5.6337 0.779464 15
-1.27755 -1.61873 0.0353848 11
-1.2035 -2.23533 0.131232 44
-1.219 -1.5441 -0.101607 14
-1.20453 -2.2354 -0.0437183 44
-1.19995 -1.51892 -0.233048 14
-1.20612 -2.23834 -0.218977 47
-1.15251 -1.45793 -0.353791 15
-1.20025 -2.23107 -0.396215 44
-1.19368 -2.2243 -0.573881 44
-3.04713 -5.65354 1.70921 14
-3.04546 -5.62698 1.23581 17
-3.04795 -5.61291 0.778855 33
-1.29225 -1.61984 0.0355593 11
-1.21915 -2.23537 0.131625 44
-1.22863 -1.53964 -0.101739 14
-1.21781 -2.23105 -0.0437619 44
-1.2066 -1.51047 -0.232744 14
-1.21783 -2.23199 -0.218977 44
-1.16192 -1.45358 -0.354267 15
-1.21348 -2.22671 -0.396607 45
-1.20917 -2.22424 -0.575566 45
-3.04666 -5.62909 1.7034 23
-3.05761 -5.62597 1.23676 33
-3.0613 -5.61412 0.779768 35
-1.30133 -1.62538 0.0357338 11
-1.22305 -2.23323 0.131625 44
-1.236 -1.54334 -0.102132 14
-1.2217 -2.22892 -0.0437619 44
-1.22011 -1.52191 -0.234873 15
-1.22291 -2.23205 -0.219194 44
-1.15216 -1.43625 -0.350458 17
-1.22091 -2.2311 -0.397781 44
-1.21422 -2.22427 -0.576127 44
-3.07841 -5.6173 1.70469 30
-3.09176 -5.61849 1.23867 36
-3.09066 -5.59802 0.779768 21
-1.30982 -1.61854 0.0357338 11
-1.23593 -2.22899 0.131756 44
-1.25192 -1.54654 -0.102789 14
-1.23577 -2.22687 -0.0438492 44
-1.22806 -1.5155 -0.234873 14
-1.23579 -2.22779 -0.219412 44
-1.15966 -1.4302 -0.350458 14
-1.23496 -2.229 -0.398564 44
-1.22937 -2.22428 -0.577812 45
-3.09286 -5.62038 1.70727 32
-3.10037 -5.61093 1.23819 21
-3.10883 -5.60781 0.781897 33
-1.32053 -1.62595 0.035952 12
-1.23982 -2.22683 0.131756 44
-1.26408 -1.55598 -0.103576 14
-1.24208 -2.22908 -0.0439364 44
-1.22914 -1.51143 -0.234569 14
-1.2445 -2.23435 -0.220282 44
-1.15905 -1.42437 -0.349506 14
-1.24244 -2.23332 -0.399739 44
-1.23325 -2.22213 -0.577812 44
-3.12577 -5.61044 1.70921 26
-3.14048 -5.61391 1.24248 32
-3.14543 -5.60445 0.783723 32
-1.33537 -1.62674 0.0361265 12
-1.25757 -2.23119 0.13241 44
-1.27855 -1.55705 -0.104102 14
-1.25618 -2.2269 -0.0440237 44
-1.24334 -1.51263 -0.235786 14
-1.25863 -2.23214 -0.220716 44
-1.15557 -1.40502 -0.346173 15
-1.25532 -2.22894 -0.40013 44
-1.25082 -2.22628 -0.580619 45
-3.1438 -5.61974 1.71373 32
-3.15507 -5.61698 1.24439 32
-3.15764 -5.60327 0.784331 33
-1.34298 -1.63019 0.0362574 12
-1.26391 -2.23334 0.132672 44
-1.28921 -1.56444 -0.104758 14
-1.26129 -2.22688 -0.0440673 44
-1.2523 -1.51811 -0.237003 14
-1.26374 -2.23211 -0.220934 44
-1.15802 -1.403 -0.346173 14
-1.26042 -2.22889 -0.400522 44
-1.25708 -2.22834 -0.581742 45
-3.17674 -5.60951 1.71567 30
-3.19413 -5.61746 1.2482 32
-3.1943 -5.5996 0.786157 30
-1.3531 -1.62505 0.036301 12
-1.27559 -2.22669 0.132672 44
-1.30085 -1.56128 -0.105021 14
-1.27541 -2.22459 -0.0441546 44
-1.26183 -1.51344 -0.237307 14
-1.27827 -2.22957 -0.221369 44
-1.16221 -1.39315 -0.34522 14
-1.27452 -2.22656 -0.401305 44
-1.84379 -2.20579 -0.760432 11
-1.27114 -2.22596 -0.582865 44
-4.55587 -5.44516 1.62843 12
-3.1913 -5.61236 1.71826 32
-4.55815 -5.4498 1.11721 11
-3.20734 -5.61558 1.24915 30
-4.50335 -5.38619 0.61118 1
-3.209 -5.60263 0.787374 30
-1.36264 -1.63012 0.0364755 12
-1.28071 -2.22663 0.132802 44
-1.30838 -1.56475 -0.105414 14
-1.28178 -2.2267 -0.0442418 44
-1.27722 -1.52645 -0.239741 14
-1.28587 -2.23382 -0.222021 44
-1.16306 -1.38924 -0.344744 12
-1.28209 -2.23076 -0.40248 44
-1.84181 -2.19485 -0.757846 11
-1.27623 -2.22585 -0.583427 45
-4.6372 -5.4818 1.64696 9
-3.22523 -5.60129 1.7202 30
-4.65296 -5.50235 1.13321 12
-3.24651 -5.61571 1.25297 32
-4.65143 -5.50247 0.627303 14
-3.24672 -5.59808 0.789199 30
-1.37438 -1.62678 0.0365628 12
-1.29775 -2.22831 0.133326 44
-1.31656 -1.55788 -0.105414 14
-1.29883 -2.22838 -0.0444164 44
-1.28866 -1.52331 -0.24035 14
-1.30005 -2.23136 -0.222456 44
-1.16262 -1.37356 -0.342363 14
-1.29746 -2.23042 -0.403654 44
-1.86422 -2.19807 -0.762372 9
-1.2907 -2.22314 -0.58455 44
-4.68207 -5.51723 1.65987 11
-3.24948 -5.62075 1.72795 29
-4.67758 -5.51387 1.13711 12
-3.25385 -5.60579 1.25201 32
-4.66747 -5.50194 0.628175 14
-3.25676 -5.59511 0.789503 26
-1.38854 -1.63772 0.0368682 12
-1.30376 -2.23058 0.133588 42
-1.32897 -1.56699 -0.106202 14
-1.30146 -2.22395 -0.0443727 44
-1.3023 -1.53452 -0.242479 14
-1.3052 -2.23124 -0.222674 44
-1.15866 -1.36406 -0.340459 14
-1.30135 -2.22815 -0.403654 44
-1.86805 -2.19481 -0.762372 8
-1.29663 -2.22532 -0.585673 44
-4.71565 -5.49818 1.66156 12
-3.28154 -5.61049 1.72989 29
-4.70477 -5.48742 1.13672 14
-3.28466 -5.59349 1.25297 14
-4.68877 -5.47068 0.627303 12
-3.27972 -5.56729 0.787982 3
-1.40332 -1.63826 0.0370427 12
-1.31796 -2.22803 0.133849 42
-1.34366 -1.56759 -0.106727 14
-1.31778 -2.22595 -0.0445473 42
-1.32002 -1.53897 -0.244305 14
-1.31939 -2.22867 -0.223109 44
-1.16235 -1.35445 -0.339506 14
-1.31676 -2.22769 -0.404829 44
-1.88544 -2.19265 -0.764959 9
-1.3095 -2.2206 -0.586235 44
-4.71729 -5.48071 1.65875 11
-3.28767 -5.5985 1.72795 8
-4.71112 -5.47546 1.13594 12
-3.29664 -5.58928 1.25344 1
-4.69019 -5.45305 0.626214 12
-3.26925 -5.52737 0.783114 1
-1.4081 -1.63746 0.0370864 12
-1.32439 -2.23002 0.134111 45
-1.34966 -1.56903 -0.10699 14
-1.3242 -2.22794 -0.0446345 42
-1.3227 -1.53666 -0.244305 14
-1.32455 -2.2285 -0.223326 44
-1.16791 -1.35614 -0.340459 12
-1.3219 -2.22752 -0.40522 42
-1.88649 -2.18537 -0.763665 9
-1.31461 -2.22041 -0.586796 44
-4.75487 -5.4643 1.66156 11
-3.28709 -5.52871 1.7118 1
-4.74392 -5.45362 1.13672 11
-3.32963 -5.57827 1.25487 1
-4.7229 -5.43135 0.62665 12
-3.266 -5.45422 0.775204 1
-1.42157 -1.63572 0.0372173 12
-1.34028 -2.22925 0.134503 42
-1.36113 -1.56571 -0.107252 15
-1.33881 -2.22504 -0.0447218 42
-1.33915 -1.53884 -0.245826 14
-1.33876 -2.22581 -0.223761 44
-1.16556 -1.3387 -0.337602 14
-1.33861 -2.22904 -0.406786 44
-1.90426 -2.18274 -0.766252 11
-1.3316 -2.22163 -0.589042 44
-4.76826 -5.46232 1.66324 9
-3.32146 -5.56446 1.72472 3
-4.75411 -5.44802 1.13711 11
-3.33558 -5.56613 1.25344 3
-4.73892 -5.43061 0.627521 12
-3.29754 -5.48739 0.780681 2
-1.42607 -1.63512 0.0372609 12
-1.34764 -2.23356 0.134896 42
-1.37043 -1.57085 -0.107777 14
-1.34269 -2.2227 -0.0447218 42
-1.3481 -1.54421 -0.247043 14
-1.34649 -2.22987 -0.224413 42
-1.16304 -1.33112 -0.336173 14
-1.34377 -2.22882 -0.407178 42
-1.90647 -2.17759 -0.765605 11
-1.33634 -2.22163 -0.589604 44
-4.78873 -5.42815 1.66044 9
-3.33587 -5.52483 1.71761 14
-4.78257 -5.42305 1.13711 9
-3.38023 -5.57648 1.25964 2
-4.78117 -5.42336 0.629482 4
-3.39061 -5.57611 0.795893 11
-1.44094 -1.63537 0.0374354 12
-1.36191 -2.23074 0.135158 42
-1.38002 -1.56576 -0.107909 14
-1.36042 -2.22655 -0.0449399 42
-1.35945 -1.54085 -0.247652 14
-1.36164 -2.22941 -0.225066 42
-1.35671 -2.22386 -0.407569 42
-1.92387 -2.17515 -0.768192 12
-1.35048 -2.21877 -0.590727 44
-4.80048 -5.42427 1.66156 4
-3.32175 -5.47974 1.70533 14
-4.82149 -5.44798 1.14414 4
-3.40015 -5.58735 1.26345 11
-4.82859 -5.4579 0.634494 8
-3.38355 -5.54263 0.791937 12
-1.4438 -1.63286 0.0374354 12
-1.3645 -2.22623 0.135027 42
-1.38771 -1.56896 -0.108302 14
-1.3643 -2.22417 -0.0449399 42
-1.37366 -1.55147 -0.249781 14
-1.36553 -2.22703 -0.225066 42
-1.36444 -2.22782 -0.408744 42
-1.92606 -2.16998 -0.767545 12
-1.35561 -2.21849 -0.591288 44
-4.86225 -5.43452 1.67279 3
-3.33653 -5.43961 1.69823 12
-4.93886 -5.52203 1.16521 8
-3.41265 -5.54229 1.25726 11
-4.94344 -5.52907 0.645824 9
-3.3982 -5.50161 0.788591 12
-1.45733 -1.63086 0.0375663 12
-1.38138 -2.22755 0.13555 42
-1.40451 -1.57073 -0.108959 14
-1.37987 -2.22338 -0.0450708 42
-1.38839 -1.55165 -0.250998 14
-1.38018 -2.22385 -0.2255 42
-1.37609 -2.22064 -0.408744 42
-1.94385 -2.16705 -0.770132 11
-1.37104 -2.21758 -0.592973 44
-4.97592 -5.54202 1.70873 12
-3.32704 -5.40292 1.68853 11
-4.97159 -5.53913 1.17067 11
-3.4091 -5.51275 1.25201 12
-4.97637 -5.54639 0.648874 11
-3.40257 -5.48723 0.787374 14
-1.46881 -1.63736 0.0377845 12
-1.38659 -2.22726 0.135681 39
-1.40725 -1.56827 -0.108959 14
-1.38771 -2.22734 -0.0452017 41
-1.38944 -1.54738 -0.250694 14
-1.38406 -2.22144 -0.2255 42
-1.38386 -2.22453 -0.409918 42
-1.95609 -2.17229 -0.773365 9
-1.37363 -2.21311 -0.592411 44
-5.03203 -5.54387 1.71771 11
-3.33326 -5.34793 1.6769 11
-5.01808 -5.53043 1.17457 11
-3.44182 -5.50107 1.25344 12
-5.013 -5.52676 0.649746 11
-3.44012 -5.48136 0.789199 12
-1.47736 -1.62965 0.0377845 12
-1.4026 -2.22607 0.136073 39
-1.42383 -1.57013 -0.109615 14
-1.4024 -2.22403 -0.045289 41
-1.40097 -2.2226 -0.22637 42
-1.3968 -2.21935 -0.41031 42
-1.97069 -2.16559 -0.774658 8
-1.38946 -2.21185 -0.594096 44
-5.04237 -5.53776 1.71827 12
-3.3234 -5.31138 1.66721 11
-5.04339 -5.5408 1.17848 11
-3.5153 -5.59694 1.2768 11
-5.04109 -5.53826 0.652143 11
-3.51212 -5.57678 0.803803 12
-1.48188 -1.62892 0.0378281 12
-1.40609 -2.22386 0.136073 36
-1.42825 -1.56948 -0.109746 14
-1.40761 -2.22369 -0.0453326 41
-1.4075 -2.22436 -0.226805 41
-1.40725 -2.22736 -0.412268 42
-1.98261 -2.17106 -0.777891 3
-1.39552 -2.21379 -0.595219 42
-5.0878 -5.52921 1.72389 11
-3.32702 -5.25774 1.65558 11
-5.08738 -5.53067 1.18199 9
-3.5449 -5.58115 1.27727 12
-5.07917 -5.52367 0.65345 11
-3.53994 -5.55622 0.803499 12
-1.49688 -1.62875 0.0380026 12
-1.42308 -2.22489 0.136597 33
-1.44152 -1.56749 -0.11014 14
-1.42422 -2.22497 -0.0455071 41
-1.42181 -2.22116 -0.22724 42
-1.42022 -2.22204 -0.412659 42
-1.99685 -2.16454 -0.779185 3
-1.41232 -2.21468 -0.597465 44
-5.11728 -5.5418 1.73063 11
-3.3155 -5.21929 1.64524 11
-5.1121 -5.53811 1.1855 11
-3.54638 -5.55984 1.27394 9
-5.11414 -5.54224 0.656718 12
-3.53761 -5.53121 0.80076 9
-1.50509 -1.63138 0.0381335 12
-1.42562 -2.2203 0.136466 30
-1.44764 -1.56864 -0.110403 14
-1.4281 -2.22248 -0.0455071 42
-1.43105 -2.22707 -0.22811 42
-1.4241 -2.21956 -0.412659 42
-2.00265 -2.16248 -0.779831 2
-1.4188 -2.21632 -0.598588 44
-5.15217 -5.51937 1.73231 9
-3.32804 -5.17689 1.63748 11
-5.16053 -5.53023 1.18979 9
-3.57544 -5.54119 1.27394 9
-5.15595 -5.52724 0.658244 11
-3.56749 -5.51199 0.80076 9
-1.52044 -1.63079 0.038308 12
-1.44168 -2.21884 0.136859 30
-1.46436 -1.57016 -0.111059 14
-1.44282 -2.21892 -0.0455944 42
-1.4454 -2.22373 -0.228545 42
-1.43972 -2.21829 -0.413834 42
-2.01559 -2.15372 -0.780478 2
-1.43341 -2.2127 -0.599711 44
-5.18748 -5.53971 1.7413 11
-3.31484 -5.13656 1.6265 11
-5.18946 -5.54374 1.19448 9
-3.57711 -5.52258 1.27108 4
-5.18601 -5.54005 0.660858 4
-3.56804 -5.49389 0.798935 9
-1.52328 -1.62813 0.038308 12
-1.44652 -2.21867 0.136989 26
-1.46368 -1.56396 -0.110797 14
-1.45078 -2.22268 -0.0457253 41
-1.45064 -2.22329 -0.228762 42
-1.44493 -2.21785 -0.414225 42
-2.02927 -2.16076 -0.784357 2
-1.43954 -2.21454 -0.600834 42
-5.24656 -5.54432 1.7514 1
-3.3197 -5.08734 1.61616 11
-5.28122 -5.58286 1.20891 1
-3.59159 -5.48387 1.26631 8
-5.18831 -5.48659 0.65759 9
-3.59676 -5.47513 0.798935 8
-1.46223 -2.21732 0.137382 23
-1.46476 -2.21949 -0.0458126 41
-1.46734 -2.22424 -0.229632 42
-1.45885 -2.21464 -0.415008 42
-2.04517 -2.15571 -0.786297 2
-1.45111 -2.20697 -0.600834 42
-5.20494 -5.48308 1.73456 8
-3.30611 -5.04717 1.60517 11
-5.21177 -5.49217 1.19096 11
-3.60654 -5.4858 1.26822 4
-5.18931 -5.46849 0.656501 9
-3.6722 -5.57104 0.813843 8
-1.46846 -2.21919 0.137644 21
-1.46863 -2.21693 -0.0458126 42
-1.47534 -2.22792 -0.230285 42
-1.46543 -2.21621 -0.415791 42
-1.4626 -2.2169 -0.604203 44
-5.22009 -5.44169 1.73007 9
-3.31962 -5.01224 1.59936 11
-5.21653 -5.43986 1.1855 9
-3.71025 -5.58198 1.29491 8
-3.71094 -5.56619 0.815972 9
-1.48283 -2.21563 0.137905 18
-1.48538 -2.21778 -0.0459871 41
-1.48798 -2.22249 -0.230502 42
-1.48112 -2.21467 -0.416966 42
-1.47959 -2.21733 -0.606449 44
-3.30433 -4.97022 1.58772 11
-3.72815 -5.58775 1.29777 4
-3.70963 -5.5432 0.813538 8
-1.4867 -2.21304 0.137905 15
-1.49342 -2.22142 -0.046118 42
-1.49185 -2.21989 -0.230502 42
-1.17682 -1.22192 -0.322364 14
-1.48773 -2.21619 -0.417749 42
-1.48751 -2.22082 -0.608134 44
-3.31416 -4.92879 1.57997 11
-3.74502 -5.54984 1.29348 8
-3.7386 -5.5237 0.813538 9
-1.50246 -2.21142 0.138298 15
-1.50643 -2.21564 -0.0461616 41
-1.50625 -2.21618 -0.230937 42
-1.17635 -1.20872 -0.32046 12
-1.50208 -2.21246 -0.418532 41
-1.50048 -2.21502 -0.608696 44
-3.30521 -4.89696 1.57157 11
-3.7492 -5.53516 1.29157 4
-3.74545 -5.51306 0.81293 8
-1.50632 -2.2088 0.138298 14
-1.5117 -2.21507 -0.0462052 41
-1.51431 -2.21972 -0.231589 41
-1.18704 -1.21543 -0.32284 11
-1.50871 -2.21392 -0.419315 41
-1.50571 -2.21442 -0.609257 42
-3.21824 -3.26322 1.04837 2
-3.31177 -4.85165 1.56252 12
-3.21443 -3.26048 0.718013 2
-3.77675 -5.51343 1.29109 4
-3.21669 -3.26389 0.397866 3
-3.75461 -5.46473 0.808671 8
-2.1406 -2.17192 0.052619 38
-1.51928 -2.20294 0.138429 14
-1.52753 -2.21331 -0.0463361 41
-1.52591 -2.21176 -0.231589 41
-1.18994 -1.20571 -0.321888 9
-1.52587 -2.21413 -0.420881 41
-1.52279 -2.21454 -0.611503 44
-3.21822 -3.25296 1.04669 3
-3.30114 -4.81795 1.55348 12
-3.16279 -3.19695 0.705135 1
-3.77525 -5.49064 1.28728 4
-3.20311 -3.2388 0.395469 12
-3.79792 -5.50722 0.815972 8
-2.16901 -2.19305 0.0532298 39
-1.53021 -2.21056 0.139083 14
-1.53543 -2.2173 -0.232459 41
-1.1955 -1.20712 -0.32284 9
-1.53113 -2.2135 -0.421272 41
-1.52665 -2.21188 -0.611503 42
-3.24266 -3.24239 1.04893 3
-3.30434 -4.76882 1.54314 11
-3.24585 -3.24669 0.719964 8
-3.83334 -5.51313 1.29729 4
-3.23059 -3.23255 0.396776 9
-3.86782 -5.54631 0.824795 9
-2.18753 -2.18873 0.0534044 39
-1.54033 -2.20047 0.138952 12
-1.5531 -2.21713 -0.233329 41
-1.19832 -1.19737 -0.321888 8
-1.54694 -2.21153 -0.422447 41
-1.54517 -2.21386 -0.614311 44
-3.29751 -4.74123 1.53603 12
-3.88462 -5.56415 1.31111 8
-3.8775 -5.53955 0.824795 9
-2.19705 -2.18982 0.0535353 39
-1.55133 -2.20801 0.139606 12
-1.55697 -2.21441 -0.233329 41
-1.20215 -1.19701 -0.322364 8
-1.55646 -2.21692 -0.424013 41
-1.55182 -2.21515 -0.615434 44
-3.30369 -4.69565 1.52698 12
-3.91087 -5.53972 1.31016 8
-3.90455 -5.51444 0.824187 9
-2.2156 -2.1853 0.0537098 38
-1.56181 -2.19754 0.139475 11
-1.55913 -1.53625 -0.264081 15
-1.20861 -1.19049 -0.322364 8
-1.56985 -2.21048 -0.424405 41
-1.56659 -2.21071 -0.616557 42
-5.49568 -5.3988 1.76769 12
-3.29657 -4.66816 1.51987 12
-5.49282 -5.39597 1.21126 12
-3.91486 -5.52487 1.30825 4
-5.48715 -5.39227 0.67001 14
-3.91273 -5.50559 0.823883 8
-2.22655 -2.18844 0.0538843 38
-1.56998 -2.20092 0.139868 11
-1.56535 -1.537 -0.264689 15
-1.21069 -1.18838 -0.322364 4
-1.57608 -2.21592 -0.618803 44
-5.60694 -5.44876 1.79408 11
-3.30274 -4.62527 1.51147 12
-5.60777 -5.45146 1.23038 11
-3.93517 -5.49232 1.30539 4
-5.61709 -5.46241 0.682429 12
-3.92414 -5.46084 0.820232 8
-2.24873 -2.1872 0.0541461 38
-1.58585 -2.19875 0.14026 9
-1.17115 -1.62044 -0.034294 11
-1.57338 -1.52878 -0.264689 15
-1.21689 -1.18202 -0.322364 4
-1.58482 -2.20368 -0.61768 41
-5.65224 -5.47554 1.80587 12
-3.29676 -4.59985 1.50501 12
-5.64743 -5.47087 1.23701 12
-3.92614 -5.45953 1.2992 3
-5.54076 -5.36942 0.671971 1
-2.25973 -2.19023 0.0543206 38
-1.59407 -2.20205 0.140653 9
-1.16227 -1.60218 -0.0339449 12
-1.57605 -1.52603 -0.264689 14
-1.22425 -1.18501 -0.323793 4
-1.59862 -2.21475 -0.621611 44
-5.69761 -5.46004 1.81093 12
-3.3024 -4.55709 1.49661 11
-5.6867 -5.45147 1.23935 12
-5.67667 -5.44375 0.685044 14
-2.27658 -2.18356 0.0544515 38
-1.60852 -2.19771 0.140915 8
-1.17359 -1.60011 -0.0340322 12
-1.59298 -1.52634 -0.26621 15
-1.23044 -1.17859 -0.323793 4
-1.61449 -2.21226 -0.623295 44
-5.70185 -5.44504 1.80924 12
-3.29758 -4.53373 1.49079 4
-5.69442 -5.43983 1.23896 12
-5.69156 -5.43899 0.685698 14
-2.288 -2.18608 0.054626 36
-1.61972 -2.20497 0.141569 4
-1.17491 -1.59605 -0.0339886 12
-1.59564 -1.52356 -0.26621 14
-1.2396 -1.18321 -0.325697 9
-1.62122 -2.21338 -0.624418 44
-5.73654 -5.41913 1.81093 12
-3.30634 -4.49441 1.48369 4
-5.72736 -5.41234 1.23974 12
-5.72272 -5.40983 0.685916 12
-3.29002 -4.443 0.673588 3
-2.30668 -2.18094 0.0548006 36
-1.63163 -2.19618 0.141569 3
-1.18204 -1.58766 -0.0339449 14
-1.24955 -1.17985 -0.32665 9
-1.15485 -1.55372 -0.301468 12
-1.63462 -2.20653 -0.62498 44
-5.73972 -5.40511 1.80924 11
-3.29412 -4.46142 1.47464 2
-5.73765 -5.40503 1.24013 12
-5.71946 -5.38788 0.68439 12
-3.28369 -4.41989 0.67085 3
-2.31959 -2.18548 0.0550187 36
-1.63954 -2.19962 0.141961 3
-1.18332 -1.58359 -0.0339013 14
-1.25161 -1.17767 -0.32665 8
-1.15903 -1.55368 -0.30186 14
-2.27543 -2.13647 -0.826388 11
-1.64244 -2.20984 -0.626664 44
-5.77686 -5.38328 1.81205 9
-3.30511 -4.42919 1.46947 3
-5.78032 -5.38838 1.24325 9
-5.7758 -5.38603 0.687877 8
-2.34159 -2.18393 0.0552805 36
-1.64654 -2.18502 0.141569 3
-1.18981 -1.57558 -0.0338577 14
-1.25756 -1.17132 -0.32665 9
-1.16566 -1.54562 -0.301468 14
-2.26498 -2.10521 -0.818629 8
-1.65982 -2.20901 -0.628911 44
-5.8817 -5.46372 1.84237 8
-3.28681 -4.3886 1.45784 14
-5.87657 -5.45894 1.26199 9
-5.87825 -5.46239 0.698989 11
-2.35089 -2.18495 0.0554114 36
-1.65336 -2.18613 0.14183 2
-0.718138 -0.668525 -0.0497535 30
-1.19858 -1.58148 -0.0340322 14
-1.16106 -1.53227 -0.164831 11
-1.2668 -1.1758 -0.328554 9
-1.16985 -1.54555 -0.30186 15
-2.27042 -2.10289 -0.819275 8
-1.66514 -2.20805 -0.629472 42
-5.92374 -5.44335 1.8463 9
-3.29518 -4.35206 1.45138 14
-5.9178 -5.43979 1.26472 9
-5.91594 -5.43996 0.700079 11
-2.37334 -2.18276 0.0556732 36
-1.67235 -2.18737 0.142485 2
-0.716113 -0.659689 -0.0493596 30
-1.20533 -1.5732 -0.0339886 14
-1.15548 -1.50834 -0.162874 11
-1.27113 -1.16749 -0.328078 9
-1.17493 -1.53548 -0.301077 15
-2.27606 -2.08608 -0.817335 8
-1.67521 -2.19736 -0.628911 39
-5.93767 -5.43897 1.84799 9
-3.2911 -4.33091 1.44621 14
-5.92 -5.42278 1.26316 9
-5.91624 -5.42122 0.698989 9
-2.38268 -2.18367 0.0558041 36
-0.719105 -0.660124 -0.0494909 30
-1.20959 -1.57308 -0.0340322 14
-1.14904 -1.49445 -0.161569 3
-1.2786 -1.17023 -0.329507 11
-1.17911 -1.53539 -0.301468 14
-2.28148 -2.08373 -0.817982 8
-5.9634 -5.4035 1.84686 9
-5.95198 -5.39502 1.26394 9
-5.93901 -5.38515 0.698335 8
-2.40334 -2.17956 0.0560222 36
-0.715263 -0.649521 -0.0489658 30
-1.21934 -1.5687 -0.0340758 14
-2.40593 -2.17886 -0.393687 36
-1.14644 -1.47442 -0.160047 3
-1.28471 -1.16352 -0.329507 11
-1.18864 -1.53115 -0.30186 14
-2.29773 -2.07661 -0.819922 8
-5.9692 -5.38982 1.84574 9
-5.95039 -5.3747 1.26159 9
-2.41495 -2.18164 0.0561967 36
-0.721956 -0.653289 -0.0493596 32
-1.23128 -1.57842 -0.0343376 14
-2.4171 -2.1813 -0.394904 36
-1.14443 -1.46652 -0.159394 3
-1.28309 -1.15799 -0.328554 11
-1.1898 -1.52712 -0.301468 14
-2.29633 -2.06735 -0.817982 4
-5.99464 -5.35419 1.84462 8
-5.99964 -5.36052 1.26589 3
-2.43379 -2.17563 0.0563713 35
-0.71978 -0.644512 -0.0489658 32
-1.24751 -1.58156 -0.0345558 14
-2.43813 -2.17645 -0.396425 36
-1.14133 -1.44679 -0.157872 3
-1.29117 -1.15267 -0.329031 11
-1.20539 -1.53058 -0.303426 14
-2.31253 -2.06012 -0.819922 8
-1.73467 -2.21312 0.743135 9
-6.22752 -5.54649 1.31232 1
-2.44692 -2.17969 0.0565894 35
-0.715309 -0.638276 -0.048572 32
-1.25491 -1.58527 -0.0346867 14
-2.44896 -2.17921 -0.397642 36
-1.14077 -1.44088 -0.157437 3
-1.30052 -1.15693 -0.330935 12
-1.20806 -1.52848 -0.303426 14
-2.31071 -2.05127 -0.817982 8
-6.45509 -5.6868 1.97489 2
-1.74884 -2.20811 0.744428 4
-6.28612 -5.53993 1.31857 1
-2.47105 -2.17884 0.0568948 35
-0.720403 -0.636297 -0.0487033 32
-1.26292 -1.5789 -0.0346867 14
-2.47152 -2.17619 -0.399467 35
-1.13875 -1.42339 -0.156132 3
-1.30636 -1.15033 -0.330935 9
-1.21758 -1.52407 -0.303817 14
-2.32469 -2.04274 -0.819275 8
-6.44388 -5.65898 1.96871 2
-6.32547 -5.55501 1.32481 2
-2.47861 -2.17782 0.0569821 35
-0.712131 -0.626805 -0.0480469 32
-1.27348 -1.58646 -0.0349048 14
-2.47904 -2.17515 -0.400076 35
-1.14123 -1.42141 -0.156132 3
-1.31206 -1.15129 -0.331888 9
-1.22794 -1.53159 -0.305775 14
-2.32825 -2.03868 -0.819275 9
-6.45417 -5.60646 1.96254 3
-6.36939 -5.53477 1.32793 2
-2.49753 -2.17137 0.0571566 33
-0.719173 -0.626342 -0.0483094 32
-1.28334 -1.58171 -0.0349484 14
-2.50352 -2.17352 -0.402206 36
-1.31992 -1.14601 -0.332364 11
-1.23439 -1.52322 -0.305383 12
-2.33524 -2.0233 -0.817982 8
-6.43534 -5.5724 1.95412 3
-6.38464 -5.5285 1.3291 2
-2.50698 -2.17192 0.0572875 33
-0.718377 -0.623452 -0.0481782 32
-1.29396 -1.58918 -0.0351666 14
-2.51294 -2.17402 -0.403118 35
-1.32378 -1.14531 -0.33284 9
-1.24482 -1.53066 -0.307341 14
-2.3406 -2.02079 -0.818629 9
-6.46355 -5.53592 1.95355 2
-6.44163 -5.51908 1.33496 1
-2.53009 -2.16807 0.0575493 33
-0.72174 -0.619556 -0.0481782 30
-1.30413 -1.58409 -0.0352102 14
-2.53749 -2.17212 -0.405248 35
-1.33928 -1.1461 -0.335221 9
-1.25907 -1.53176 -0.308907 12
-2.34966 -2.00653 -0.817982 8
-6.48802 -5.53728 1.95805 3
-6.48227 -5.53235 1.3412 1
-2.54376 -2.17132 0.0577675 33
-0.719128 -0.61493 -0.0479156 32
-1.3151 -1.59124 -0.0354284 14
-2.54732 -2.17207 -0.406161 35
-1.33961 -1.14194 -0.334745 9
-1.27297 -1.5427 -0.311648 12
-2.35535 -2.00358 -0.818629 9
-6.57106 -5.54107 1.97321 8
-6.55745 -5.53154 1.35018 1
-2.57113 -2.16997 0.0581165 35
-0.716825 -0.606077 -0.0475218 32
-1.32877 -1.58963 -0.0355593 14
-2.57118 -2.16695 -0.407986 35
-1.3516 -1.13918 -0.336173 11
-1.28342 -1.53724 -0.312039 12
-2.37575 -1.99816 -0.821862 9
-6.62825 -5.57149 1.98781 12
-6.5652 -5.5185 1.34979 1
-4.55116 -5.45497 0.866781 12
-2.57874 -2.1687 0.0582038 35
-0.714059 -0.601613 -0.0472592 32
-1.33474 -1.59115 -0.0356465 14
-2.58066 -2.16725 -0.408899 35
-1.35359 -1.13682 -0.336173 11
-1.29242 -1.54259 -0.313605 12
-2.37367 -1.98936 -0.819922 9
-1.17575 -1.40559 -0.414407 4
-6.68265 -5.55579 1.99511 14
-6.66996 -5.54719 1.36539 11
-4.59 -5.45876 1.37831 11
-0.667442 -0.556908 0.0729929 29
-4.64839 -5.51269 0.879863 11
-2.60736 -2.16955 0.0585965 35
-1.83661 -2.17054 0.147195 9
-0.715279 -0.59627 -0.0471279 32
-1.3495 -1.59178 -0.0358211 14
-2.60915 -2.16797 -0.411637 35
-1.36519 -1.13441 -0.337602 11
-1.30499 -1.54169 -0.31478 14
-2.38406 -1.97691 -0.819922 8
-1.17212 -1.38636 -0.410476 8
-6.71013 -5.56083 2.00072 15
-6.69007 -5.54616 1.36774 14
-4.66278 -5.5258 1.39737 11
-0.656907 -0.546207 0.0716856 32
-4.66185 -5.51107 0.880776 12
-2.61884 -2.17137 0.058771 35
-1.8513 -2.18099 0.148111 4
-0.716318 -0.595021 -0.0471279 32
-1.35551 -1.59324 -0.0359083 14
-2.62211 -2.17178 -0.413158 35
-1.36717 -1.13203 -0.337602 11
-1.31564 -1.54884 -0.316737 14
-2.40054 -1.98351 -0.824448 8
-1.17273 -1.38265 -0.409915 8
-6.65814 -5.45921 1.97658 12
-6.70183 -5.49697 1.36422 12
-4.69705 -5.50961 1.39928 12
-0.661589 -0.544454 0.0719035 29
-4.69708 -5.49413 0.881993 12
-2.63753 -2.16443 0.0589455 33
-1.86919 -2.17886 0.148634 4
-0.715459 -0.588223 -0.0468654 32
-1.37168 -1.59585 -0.0361265 14
-2.64305 -2.16588 -0.414679 35
-1.37668 -1.1282 -0.338554 11
-1.32667 -1.54591 -0.31752 14
-2.40681 -1.96827 -0.823155 8
-1.17363 -1.36908 -0.407669 9
-6.62331 -5.4133 1.96366 11
-6.64163 -5.43017 1.35018 11
-4.71145 -5.507 1.40071 11
-0.656753 -0.538571 0.0712498 32
-4.69925 -5.47921 0.880776 12
-2.65485 -2.1709 0.0592509 30
-1.87423 -2.17781 0.148765 4
-0.706817 -0.579077 -0.046209 33
-1.37772 -1.59725 -0.0362137 14
-2.65798 -2.17114 -0.416505 35
-1.33198 -1.5445 -0.175051 12
-1.37484 -1.1227 -0.337602 12
-1.33901 -1.55485 -0.319869 14
-2.41211 -1.9656 -0.823802 8
-1.16311 -1.35242 -0.403177 9
-6.62883 -5.36016 1.95692 11
-6.64693 -5.37669 1.34549 11
-4.73445 -5.47751 1.39928 9
-0.66528 -0.539938 0.0719035 29
-4.73437 -5.46203 0.881993 11
-2.67164 -2.16215 0.0593818 26
-0.713622 -0.578631 -0.0464716 33
-1.39234 -1.59781 -0.0363883 14
-2.67897 -2.16499 -0.418026 35
-1.34305 -1.54151 -0.175486 14
-1.39006 -1.12343 -0.339982 12
-1.35171 -1.55365 -0.321044 14
-2.42203 -1.95336 -0.823802 8
-1.16699 -1.34263 -0.402054 9
-6.63345 -5.34669 1.9558 9
-6.63614 -5.35075 1.34159 11
-4.74561 -5.47109 1.39976 8
-0.654587 -0.529399 0.0705962 27
-4.73319 -5.44335 0.880167 11
-2.69292 -2.17159 0.0597745 17
-0.708798 -0.572686 -0.0460777 32
-1.39841 -1.59914 -0.0364755 14
-2.69203 -2.16856 -0.419547 35
-1.35228 -1.54668 -0.176356 14
-1.39393 -1.12254 -0.340459 12
-1.35442 -1.55129 -0.321044 14
-2.42355 -1.94762 -0.823155 8
-1.16271 -1.33343 -0.399807 9
-6.69374 -5.3377 1.96535 9
-6.66792 -5.31901 1.34237 8
-4.77809 -5.45254 1.40119 8
-4.76817 -5.42595 0.881384 9
-2.70779 -2.16105 0.0598617 14
-0.71364 -0.570648 -0.046209 33
-1.40979 -1.5958 -0.0365628 14
-2.715 -2.16371 -0.421373 35
-1.40727 -1.12158 -0.342363 12
-1.36714 -1.54998 -0.322219 14
-2.43527 -1.93683 -0.823802 8
-1.16005 -1.31633 -0.396438 4
-6.71165 -5.33475 1.96815 9
-6.72073 -5.34387 1.35135 4
-4.78598 -5.44235 1.40071 8
-4.80292 -5.44825 0.886252 4
-2.70764 -2.15321 0.0597745 9
-0.70877 -0.564743 -0.0458152 33
-1.41423 -1.59521 -0.0366064 14
-2.732 -2.17024 -0.423502 35
-1.37638 -1.555 -0.323785 14
-3.29784 -3.72276 1.32149 2
-6.75444 -5.31318 1.35252 3
-4.83301 -5.44009 1.40643 4
-4.88416 -5.48235 0.895988 4
-0.707791 -0.557939 -0.0455526 32
-1.4306 -1.59736 -0.0368246 14
-2.75698 -2.16663 -0.425632 32
-6.98079 -5.46953 2.0361 9
-3.2867 -3.69713 1.31438 3
-4.93811 -5.53709 1.43407 8
-4.94 -5.52565 0.904506 12
-0.708764 -0.556703 -0.0455526 33
-1.43505 -1.59673 -0.0368682 14
-2.77053 -2.16946 -0.427153 15
-1.13559 -1.26636 -0.384085 3
-3.30343 -3.6757 1.31309 4
-4.99495 -5.54217 1.44217 11
-5.0064 -5.53936 0.9112 11
-0.715616 -0.556042 -0.0458152 33
-1.45038 -1.59635 -0.0370427 14
-1.13917 -1.25658 -0.382962 4
-3.28399 -3.6412 1.30275 4
-5.02271 -5.55347 1.44742 12
-5.02176 -5.53885 0.912417 9
-0.712633 -0.551741 -0.0455526 33
-1.45652 -1.59752 -0.03713 14
-1.14277 -1.2566 -0.383523 4
-3.19514 -3.50661 1.2601 2
-5.05737 -5.53523 1.44932 11
-5.06744 -5.53079 0.915459 9
-0.715512 -0.548002 -0.0455526 33
-1.46966 -1.59566 -0.0372609 14
-1.14605 -1.247 -0.3824 3
-2.84575 -2.1673 0.816461 9
-3.28102 -3.58844 1.29176 8
-5.08622 -5.54542 1.45457 11
-5.09051 -5.53656 0.917893 9
-0.708519 -0.540707 -0.0450275 33
-1.47582 -1.59677 -0.0373481 14
-1.15316 -1.25038 -0.384085 4
-2.87495 -2.16505 0.821514 9
-5.13019 -5.53492 1.45885 8
-5.14234 -5.53258 0.921848 9
-0.711341 -0.536989 -0.0450275 33
-1.48785 -1.59242 -0.0374354 14
-1.1566 -1.24055 -0.382962 12
-2.87055 -2.15468 0.819268 8
-5.15655 -5.54394 1.46362 9
-5.16117 -5.53539 0.923673 9
-0.691029 -0.520005 0.0144855 20
-0.708282 -0.532752 -0.044765 33
-1.49233 -1.59165 -0.037479 14
-1.14859 -1.22803 -0.379592 12
-2.87201 -2.13237 0.816461 2
-5.19462 -5.52851 1.46648 8
-5.20879 -5.52817 0.92702 1
-0.689637 -0.513522 0.0143982 20
-0.710969 -0.52916 -0.044765 35
-1.5038 -1.58771 -0.0375663 14
-1.15501 -1.222 -0.379592 14
-2.86752 -2.12206 0.814215 2
-5.23118 -5.54802 1.47411 1
-0.635962 -0.472138 0.0662384 24
-5.19117 -5.4902 0.922152 11
-0.688523 -0.510831 0.0143546 20
-0.709884 -0.526435 -0.0446337 35
-1.51172 -1.59053 -0.0376972 14
-1.15045 -1.21289 -0.377346 14
-2.89703 -2.11895 0.819268 2
-0.585553 -0.429821 0.109263 44
-5.22558 -5.48231 1.4641 8
-0.628456 -0.46134 0.0651489 24
-5.20195 -5.44229 0.918806 8
-0.685223 -0.502673 0.0142237 20
-0.710706 -0.521113 -0.0445024 35
-1.52376 -1.58594 -0.0377845 14
-0.869172 -0.636231 -0.127781 41
-0.868097 -0.634989 -0.201894 41
-1.15532 -1.20489 -0.376785 14
-0.582236 -0.425992 0.108482 38
-0.627247 -0.458775 0.064931 24
-0.684079 -0.500004 0.0141801 21
-0.707578 -0.516933 -0.0442399 35
-1.52825 -1.58508 -0.0378281 14
-0.87017 -0.634865 -0.127781 41
-0.857292 -0.624816 -0.199037 41
-1.14879 -1.19427 -0.373977 14
-0.588465 -0.425825 0.109263 36
-0.623501 -0.451225 0.0642774 26
-0.686601 -0.496536 0.0141801 21
-0.708249 -0.511762 -0.0441086 35
-1.53974 -1.58091 -0.0379153 14
-0.86744 -0.625952 -0.126868 41
-0.864429 -0.623334 -0.19999 41
-0.861251 -0.620159 -0.274816 41
-1.15841 -1.19174 -0.3751 14
-0.581184 -0.419036 0.107702 30
-0.62631 -0.451589 0.0644953 26
-0.677399 -0.487929 0.0139619 21
-0.71117 -0.51198 -0.0442399 35
-1.54249 -1.57822 -0.0379153 14
-0.868531 -0.624437 -0.126868 41
-0.863521 -0.620396 -0.199513 41
-0.866368 -0.621314 -0.276109 42
-1.15032 -1.17922 -0.371731 14
-0.581429 -0.414456 0.107312 36
-0.626713 -0.446752 0.0642774 26
-3.18971 -3.24242 0.553413 3
-0.677907 -0.482928 0.0139183 21
-0.707733 -0.503915 -0.0438461 35
-1.55627 -1.5752 -0.0380462 14
-0.869873 -0.618294 -0.126564 41
-1.51901 -1.53785 -0.185706 15
-0.864862 -0.614296 -0.199037 41
-0.867638 -0.615375 -0.275463 41
-1.1618 -1.1782 -0.373416 14
-3.0907 -2.18764 0.864752 2
-3.19031 -3.25198 1.2097 2
-0.586111 -0.416395 0.108092 30
-3.20942 -3.26016 0.881699 1
-0.625459 -0.444219 0.0640595 26
-3.22091 -3.26392 0.557977 9
-0.674667 -0.478858 0.013831 21
-0.706573 -0.501238 -0.0437148 35
-1.56429 -1.57782 -0.0381771 14
-0.864763 -0.612631 -0.125651 42
-1.52694 -1.54051 -0.186359 15
-0.863927 -0.61137 -0.198561 41
-1.53036 -1.54609 -0.339445 14
-0.860815 -0.608295 -0.272876 42
-1.15681 -1.16943 -0.37117 14
-3.10411 -2.17282 0.865314 4
-3.2305 -3.25983 1.21874 1
-0.58019 -0.407658 0.106531 30
-3.20341 -3.22123 0.875503 1
-3.24496 -3.25405 0.559194 8
-0.66889 -0.469705 0.0136565 20
-0.707055 -0.496224 -0.0435835 35
-1.57578 -1.57342 -0.0382644 14
-0.859822 -0.60241 -0.124434 42
-1.53472 -1.53276 -0.186359 15
-0.873048 -0.611204 -0.19999 42
-1.54017 -1.53981 -0.339837 14
-0.865863 -0.605312 -0.273523 42
-1.15605 -1.15644 -0.368923 14
-3.08154 -2.14983 0.858014 9
-3.22938 -3.24733 1.21616 3
-0.580901 -0.406645 0.106531 30
-0.67381 -0.471395 0.0137438 21
-0.703823 -0.492135 -0.043321 36
-1.58029 -1.57244 -0.038308 14
-0.860872 -0.600909 -0.124434 42
-1.54091 -1.5336 -0.186794 15
-0.864039 -0.602673 -0.197609 42
-1.5446 -1.53886 -0.340228 14
-0.858985 -0.598289 -0.270936 42
-1.15635 -1.1527 -0.368362 14
-3.10717 -2.1428 0.861944 8
-0.580989 -0.402196 0.106141 30
-0.668036 -0.462186 0.0135692 21
-0.710502 -0.491276 -0.0435835 36
-0.857875 -0.592172 -0.123522 42
-1.55069 -1.52726 -0.187011 15
-0.865161 -0.59675 -0.197133 42
-1.55615 -1.53423 -0.341011 14
-0.860115 -0.592416 -0.27029 42
-1.16064 -1.14491 -0.3678 14
-3.10651 -2.13516 0.860821 2
-0.608944 -0.42004 0.0616627 27
-5.48732 -5.41204 0.940711 12
-0.668842 -0.461019 0.0135692 23
-0.7093 -0.488622 -0.0434522 38
-0.85686 -0.589271 -0.123217 42
-1.56045 -1.53155 -0.187881 15
-0.858103 -0.58969 -0.195228 42
-1.56761 -1.54018 -0.342969 14
-0.867127 -0.595005 -0.27223 42
-1.1609 -1.14117 -0.367239 14
-3.13213 -2.1279 0.864752 2
-5.49872 -5.40049 2.05299 11
-0.611135 -0.416846 0.0616627 27
-5.53865 -5.40578 0.944666 12
-0.675382 -0.46032 0.0136565 23
-0.705652 -0.480695 -0.0430584 38
-0.855826 -0.581991 -0.122609 41
-1.57023 -1.5251 -0.188098 15
-0.859147 -0.583812 -0.194752 42
-1.57389 -1.53023 -0.342577 12
-0.86223 -0.585044 -0.269643 42
-1.17034 -1.13848 -0.368362 14
-3.13547 -2.12298 0.864752 2
-5.53056 -5.41286 2.06139 11
-0.609799 -0.414383 0.0614448 29
-5.63163 -5.47748 0.958965 14
-0.669974 -0.454938 0.0135256 23
-0.708558 -0.480861 -0.0431897 38
-0.854785 -0.579108 -0.122305 41
-1.58003 -1.5293 -0.188968 15
-0.858131 -0.580939 -0.194276 42
-1.56771 -1.51887 -0.34062 11
-0.865252 -0.584888 -0.27029 42
-1.17756 -1.14154 -0.370046 15
-3.15906 -2.11411 0.868121 3
-5.65592 -5.47798 2.09758 8
-5.67202 -5.47451 1.52415 12
-0.611961 -0.411184 0.0614448 27
-5.67453 -5.46169 0.961399 14
-0.668191 -0.448644 0.0134384 23
-0.70484 -0.472982 -0.0427959 36
-1.58802 -1.521 -0.188968 15
-0.852995 -0.570988 -0.192371 41
-1.5703 -1.5055 -0.339445 11
-0.866293 -0.57901 -0.269643 42
-1.17651 -1.12859 -0.3678 15
-3.16846 -2.11319 0.869806 3
-5.69325 -5.49495 2.10792 11
-5.68864 -5.47141 1.52605 12
-0.606461 -0.405971 0.0607911 27
-5.68584 -5.45349 0.961703 14
-0.703587 -0.470367 -0.0426646 36
-1.59786 -1.52512 -0.189838 15
-0.85399 -0.569498 -0.192371 41
-1.56402 -1.49421 -0.337488 11
-0.859254 -0.572155 -0.267057 42
-1.18375 -1.1316 -0.369485 15
-3.18595 -2.10004 0.87149 4
-5.73242 -5.47508 2.1118 11
-5.72609 -5.45001 1.52844 12
-0.608578 -0.40279 0.0607911 27
-5.71792 -5.42707 0.962312 12
-0.704036 -0.46518 -0.0425333 36
-2.30651 -2.18069 -0.0548006 36
-0.851431 -0.561802 -0.120783 41
-1.61151 -1.5216 -0.19049 15
-0.856961 -0.565019 -0.192371 42
-1.56645 -1.4809 -0.336313 11
-0.856182 -0.563672 -0.265117 42
-1.18613 -1.12203 -0.368362 15
-5.75246 -5.47506 2.11567 11
-5.7312 -5.43394 1.52701 12
-0.60928 -0.401728 0.0607911 30
-5.75441 -5.44267 0.966876 11
-0.706935 -0.46532 -0.0426646 38
-2.3194 -2.18524 -0.0550187 36
-0.854485 -0.561676 -0.121088 41
-1.61779 -1.5222 -0.190925 15
-0.857945 -0.563522 -0.192371 42
-1.55827 -1.46798 -0.333964 11
-0.861305 -0.56467 -0.26641 42
-1.19515 -1.12666 -0.370608 14
-5.79078 -5.45214 2.11891 11
-5.75779 -5.40218 1.52653 11
-0.605177 -0.394358 0.0601375 29
-5.76928 -5.39789 0.964442 9
-0.700982 -0.456179 -0.0421395 38
-2.34032 -2.1812 -0.0552369 36
-0.855429 -0.555695 -0.120783 41
-1.62937 -1.51711 -0.19136 14
-0.85274 -0.553538 -0.190466 42
-1.56774 -1.46149 -0.334356 11
-0.860193 -0.557531 -0.265117 42
-1.1959 -1.11518 -0.368923 15
-5.79853 -5.44037 2.11826 9
-5.77975 -5.40386 1.52987 9
-0.603773 -0.391949 0.0599196 29
-5.81947 -5.42777 0.971439 8
-0.69968 -0.4536 -0.0420082 38
-2.35144 -2.18392 -0.0554114 36
-0.850046 -0.550314 -0.119871 41
-1.64659 -1.52785 -0.1931 14
-0.853705 -0.552049 -0.190466 42
-1.56668 -1.45538 -0.333573 11
-0.855073 -0.552108 -0.263177 42
-1.20299 -1.11829 -0.370608 14
-5.8649 -5.44714 2.13248 8
-5.90423 -5.46461 1.5556 11
-5.89337 -5.43933 0.979045 11
-0.702046 -0.449931 -0.0420082 38
-2.37165 -2.18047 -0.0556295 35
-0.852916 -0.545856 -0.119871 41
-1.65091 -1.51583 -0.192665 14
-0.854419 -0.546402 -0.18999 42
-1.57246 -1.44548 -0.333181 11
-0.861931 -0.550366 -0.26447 42
-1.20346 -1.10702 -0.368923 15
-5.96474 -5.52061 2.16543 12
-5.9093 -5.44827 1.55417 9
-5.90833 -5.43408 0.979958 11
-0.704936 -0.450045 -0.0421395 38
-2.38282 -2.18309 -0.0558041 36
-0.849679 -0.541704 -0.119262 41
-1.65722 -1.51632 -0.1931 4
-0.851228 -0.542278 -0.189038 42
-1.57135 -1.43939 -0.332398 11
-0.854828 -0.543539 -0.261884 42
-1.21077 -1.10987 -0.370608 14
-6.01945 -5.5111 2.17448 12
-5.94681 -5.42553 1.55656 9
-5.92847 -5.39368 0.978437 9
-0.703056 -0.44369 -0.0418769 38
-2.40199 -2.17689 -0.0559786 35
-0.852597 -0.537099 -0.119262 41
-0.858307 -0.540274 -0.18999 42
-1.58252 -1.43447 -0.333181 11
-0.863801 -0.542902 -0.263823 44
-1.21495 -1.10166 -0.370046 14
-6.0451 -5.51525 2.18029 12
-5.94538 -5.40523 1.5537 9
-5.93694 -5.38436 0.978437 8
-0.70383 -0.442462 -0.0418769 38
-2.41505 -2.18108 -0.0561967 35
-0.85344 -0.535759 -0.119262 42
-0.848843 -0.53227 -0.187609 41
-1.57953 -1.42673 -0.332007 11
-0.854504 -0.535001 -0.26059 42
-1.21849 -1.10139 -0.370608 14
-6.0819 -5.49268 2.18353 11
-7.3235 -4.53887 1.35603 42
-5.97448 -5.37672 1.55417 9
-0.643069 -0.400039 0.0126094 24
-0.70606 -0.438894 -0.0418769 39
-2.43536 -2.17718 -0.0564149 35
-0.847792 -0.526062 -0.118045 41
-0.853614 -0.529258 -0.188085 42
-1.58514 -1.41679 -0.331615 11
-0.857201 -0.530669 -0.26059 42
-1.23148 -1.10151 -0.372854 14
-7.30982 -4.51277 1.97208 41
-6.113 -5.50145 2.19128 9
-7.3146 -4.5157 1.35291 44
-0.645894 -0.400229 0.012653 26
-0.7047 -0.43635 -0.0417456 39
-2.44475 -2.17792 -0.0565458 35
-0.846597 -0.523279 -0.117741 41
-0.846177 -0.52262 -0.186181 41
-1.58762 -1.41402 -0.331615 11
-0.849897 -0.524113 -0.258004 42
-1.23159 -1.09773 -0.372293 14
-7.32867 -4.46807 1.9704 41
-6.16612 -5.48919 2.19968 11
-7.31151 -4.45935 1.34783 39
-7.39006 -4.50899 0.754333 20
-0.641647 -0.392825 0.0125221 26
-0.709183 -0.43383 -0.0418769 39
-2.46961 -2.17625 -0.0568512 35
-0.849415 -0.518691 -0.117741 42
-0.853186 -0.520585 -0.187133 41
-1.5913 -1.40242 -0.330832 11
-0.856848 -0.522014 -0.259297 42
-1.24115 -1.09429 -0.373416 14
-7.31277 -4.44264 1.96422 35
-6.21 -5.50889 2.21196 11
-7.2974 -4.43504 1.34393 36
-6.44847 -5.70067 1.66474 2
-7.38302 -4.48704 0.752808 26
-6.52309 -5.75257 1.0621 1
-0.640195 -0.390407 0.0124785 26
-0.70567 -0.430001 -0.0416144 39
-2.48466 -2.18184 -0.057113 35
-0.850229 -0.517356 -0.117741 41
-0.847796 -0.51528 -0.185705 42
-1.5956 -1.40127 -0.331223 12
-0.849493 -0.515518 -0.256711 42
-1.24287 -1.09234 -0.373416 14
-7.30669 -4.38674 1.95636 32
-6.26138 -5.49812 2.22036 11
-7.30782 -4.38914 1.34159 33
-6.51231 -5.69868 1.6738 2
-7.39282 -4.44192 0.7515 29
-6.56246 -5.7265 1.06362 1
-0.644306 -0.388448 0.0125221 26
-0.705771 -0.425016 -0.0414831 41
-2.50132 -2.17417 -0.0572439 33
-0.846541 -0.50907 -0.116828 41
-0.852498 -0.512243 -0.186181 41
-1.59733 -1.38802 -0.330049 12
-0.850019 -0.509973 -0.256064 41
-1.25224 -1.08902 -0.374539 14
-7.29552 -4.36273 1.95131 30
-6.28913 -5.50309 2.22682 11
-7.29428 -4.36371 1.33769 32
-6.57871 -5.73458 1.6881 4
-7.3856 -4.42006 0.749975 30
-0.634323 -0.380798 0.0123039 26
-0.704369 -0.422503 -0.0413518 41
-2.51644 -2.17964 -0.0575057 35
-0.849559 -0.508864 -0.117132 41
-2.48859 -2.15543 -0.284431 26
-0.851284 -0.509497 -0.185705 42
-1.59416 -1.38037 -0.328874 12
-0.853071 -0.509575 -0.256711 42
-1.26516 -1.09644 -0.377908 14
-7.29594 -4.30957 1.94513 29
-6.34254 -5.48955 2.23522 9
-7.30503 -4.31664 1.33535 33
-6.5845 -5.6792 1.6819 4
-7.40512 -4.3775 0.749539 32
-0.632004 -0.374929 0.0122167 26
-0.706572 -0.418809 -0.0413518 42
-2.54146 -2.17739 -0.0578111 35
-0.848025 -0.501739 -0.116524 41
-2.53195 -2.16997 -0.288127 30
-0.849799 -0.502392 -0.184752 41
-1.59763 -1.36879 -0.328091 12
-0.857809 -0.506326 -0.257357 42
-1.27107 -1.08958 -0.377908 14
-7.288 -4.28946 1.9412 29
-6.37039 -5.49425 2.24168 9
-7.29477 -4.29514 1.33223 33
-6.61301 -5.68371 1.68667 4
-7.38485 -4.34814 0.746707 32
-0.632657 -0.373825 0.0122167 26
-0.700846 -0.413778 -0.040958 44
-2.55096 -2.17783 -0.057942 35
-0.846673 -0.499149 -0.11622 41
-2.55087 -2.17851 -0.289867 32
-0.846441 -0.498423 -0.1838 41
-1.59814 -1.36439 -0.3277 12
-0.848273 -0.498723 -0.254124 41
-1.28017 -1.09393 -0.380154 14
-7.28509 -4.23655 1.93446 29
-6.433 -5.49175 2.25396 9
-7.30008 -4.24696 1.3291 33
-6.61366 -5.6263 1.67952 3
-7.396 -4.30445 0.745617 32
-0.634541 -0.370618 0.0122167 26
-0.705089 -0.41148 -0.0410893 42
-2.57339 -2.17459 -0.0582038 35
-0.842837 -0.490971 -0.115307 41
-2.57326 -2.17523 -0.291172 29
-0.848953 -0.494133 -0.1838 41
-1.59773 -1.34961 -0.326134 12
-0.850787 -0.494424 -0.254124 42
-1.28774 -1.08879 -0.380715 14
-7.2812 -4.219 1.93165 27
-6.46096 -5.49617 2.26042 9
-7.28612 -4.22183 1.3252 33
-6.57295 -5.57187 1.66665 2
-7.38841 -4.28279 0.744092 32
-0.703646 -0.408998 -0.040958 41
-2.58482 -2.17654 -0.0583783 35
-0.843692 -0.489499 -0.115307 41
-2.58466 -2.17717 -0.292042 24
-0.854064 -0.495106 -0.184752 41
-1.59254 -1.34044 -0.324568 12
-0.855832 -0.495351 -0.255417 42
-1.29893 -1.09442 -0.383523 14
-7.28066 -4.16623 1.92548 29
-6.5155 -5.48405 2.26947 8
-7.29526 -4.17627 1.32286 32
-6.55317 -5.49635 1.65426 2
-7.39777 -4.23663 0.742785 33
-0.701443 -0.402829 -0.0406954 42
-2.60193 -2.16779 -0.0585092 33
-0.844089 -0.483844 -0.115003 39
-2.60367 -2.16999 -0.292911 26
-0.852382 -0.488194 -0.1838 41
-1.59764 -1.3305 -0.324176 12
-0.856316 -0.489668 -0.254771 42
-1.30277 -1.08604 -0.382962 14
-7.27872 -4.14997 1.92323 26
-6.55281 -5.49597 2.27916 8
-7.27894 -4.15008 1.31857 33
-6.65875 -5.56522 1.67856 9
-7.38785 -4.21384 0.741042 33
-0.706484 -0.404076 -0.040958 41
-2.62108 -2.17604 -0.0588582 33
-0.840619 -0.479916 -0.114394 39
-2.61894 -2.17501 -0.294216 29
-0.848966 -0.48428 -0.182848 41
-1.59807 -1.32613 -0.323785 12
-0.852969 -0.485788 -0.253477 42
-1.30654 -1.08532 -0.383523 14
-7.27347 -4.09499 1.91593 23
-6.60564 -5.48165 2.28756 9
-7.28336 -4.10222 1.31545 33
-6.71804 -5.55532 1.68619 14
-7.38811 -4.16288 0.738863 33
-0.699887 -0.395473 -0.0404329 42
-2.64402 -2.17182 -0.05912 35
-0.845283 -0.476724 -0.114699 41
-2.64759 -2.17552 -0.296173 33
-0.842931 -0.475021 -0.180943 41
-1.59547 -1.30989 -0.321827 12
-0.851288 -0.478953 -0.252184 42
-1.32534 -1.08933 -0.387454 12
-7.26927 -4.07761 1.91312 21
-6.64497 -5.49475 2.2979 8
-7.27543 -4.08104 1.31271 33
-6.68418 -5.50766 1.67523 12
-7.38667 -4.1451 0.737991 33
-0.704932 -0.396693 -0.0406954 44
-2.65553 -2.17354 -0.0592945 33
-0.843949 -0.474035 -0.114394 41
-2.65331 -2.17248 -0.296391 32
-0.848042 -0.475945 -0.181895 41
-1.59203 -1.3024 -0.320653 12
-0.854231 -0.478644 -0.252831 44
-1.32724 -1.08702 -0.387454 12
-7.26352 -4.02288 1.90582 18
-6.6942 -5.47672 2.30501 8
-7.2859 -4.03691 1.31076 33
-6.65209 -5.42293 1.65998 11
-7.39085 -4.09671 0.736248 32
-0.677019 -0.544034 0.0437005 18
-0.702699 -0.390455 -0.0404329 44
-2.68046 -2.17064 -0.0596 33
-0.855106 -0.474413 -0.115611 42
-2.68242 -2.17222 -0.298348 33
-0.846226 -0.469124 -0.180943 42
