# .PCD v0.7 - Point Cloud Data file format
VERSION 0.7
FIELDS x y z intensity
SIZE 4 4 4 4
TYPE F F F F
COUNT 1 1 1 1
WIDTH 1577
HEIGHT 1
VIEWPOINT 0 0 0 1 0 0 0
POINTS 1577
DATA ascii
0.484336 -2.26415 -0.279597 11
1.77809 -4.36547 -0.741925 4
1.25644 -3.07938 -0.758623 4
2.01096 -4.96043 1.42294 2
0.472808 -2.26031 0.359397 8
2.67782 -6.63408 1.3826 32
0.470042 -2.24515 0.197626 8
1.13219 -2.8236 0.368739 8
0.471852 -2.25579 0.039617 12
1.14826 -2.86922 0.160148 30
1.10581 -2.76638 -0.0513973 9
0.472979 -2.26909 -0.279901 8
1.75428 -4.37243 -0.741533 8
1.23847 -3.0814 -0.7575 4
1.99958 -4.95722 1.421 2
0.467362 -2.25388 0.358226 9
2.66416 -6.63693 1.38212 32
0.465114 -2.24109 0.19719 8
1.12911 -2.83018 0.369348 8
0.465498 -2.2469 0.0394424 8
1.14604 -2.87818 0.160541 24
0.467068 -2.25649 -0.11933 8
1.10283 -2.77295 -0.0514846 9
0.467516 -2.26262 -0.278988 8
1.75032 -4.38465 -0.7431 8
1.23037 -3.07678 -0.755816 8
1.97005 -4.96123 1.41907 3
0.453213 -2.24669 0.356665 8
2.62214 -6.63253 1.37831 30
0.453965 -2.24845 0.197626 9
1.11287 -2.83394 0.369043 8
0.45422 -2.25175 0.0394861 8
1.13136 -2.88666 0.160671 23
0.454755 -2.25645 -0.119198 8
1.08964 -2.78353 -0.0515719 8
0.45478 -2.26268 -0.278684 4
1.72734 -4.39376 -0.7431 8
1.20923 -3.07206 -0.753008 11
1.95605 -4.95119 1.41519 3
0.450167 -2.24982 0.357055 4
2.60876 -6.63253 1.37736 32
0.448578 -2.24192 0.196972 9
1.12111 -2.86802 0.373303 8
0.449312 -2.24764 0.0393988 9
1.12683 -2.88843 0.160671 21
0.450816 -2.25724 -0.119198 8
1.09025 -2.79939 -0.0518336 8
0.451709 -2.26583 -0.278988 4
0.448068 -2.25365 -0.439025 3
1.71876 -4.39447 -0.742708 8
1.20529 -3.07622 -0.75357 9
1.93097 -4.96103 1.41519 2
0.438851 -2.25457 0.357445 4
2.56805 -6.62735 1.37354 32
0.439124 -2.25394 0.197844 4
1.10698 -2.87616 0.373607 8
0.436501 -2.24252 0.0392679 4
1.11259 -2.89662 0.160802 15
0.436143 -2.24487 -0.118411 4
1.07337 -2.79788 -0.0517027 11
0.438897 -2.26329 -0.27838 4
0.43712 -2.25829 -0.439501 3
1.69306 -4.39649 -0.741533 8
1.18301 -3.06659 -0.749639 11
1.91444 -4.94413 1.40937 2
0.433517 -2.24806 0.356275 4
2.55179 -6.62311 1.37164 32
0.433778 -2.24736 0.19719 4
0.434081 -2.25318 0.0394424 8
1.11469 -2.9172 0.161849 12
0.433635 -2.25298 -0.118804 4
1.07385 -2.81375 -0.0519645 14
0.433546 -2.25674 -0.277467 4
0.433178 -2.25905 -0.439501 4
1.68007 -4.38561 -0.739184 9
1.17327 -3.05729 -0.746831 9
1.8868 -4.95216 1.40873 3
0.421801 -2.2528 0.356665 4
2.51533 -6.63179 1.37068 32
0.421612 -2.24968 0.19719 8
0.419985 -2.24313 0.0392243 9
0.42046 -2.24786 -0.118411 4
1.05685 -2.81484 -0.0518773 12
0.420423 -2.25417 -0.276859 8
0.420054 -2.25654 -0.438549 4
1.66069 -4.40619 -0.741142 9
1.1619 -3.07726 -0.7502 3
1.87558 -4.94867 1.40679 2
0.416073 -2.24382 0.355104 3
2.49941 -6.6247 1.3683 32
0.416326 -2.24306 0.196536 8
2.48543 -6.61551 0.862217 33
0.416978 -2.24878 0.0393115 12
0.41563 -2.24368 -0.118148 4
1.0493 -2.80966 -0.0517464 11
0.417386 -2.25978 -0.277467 4
1.86629 -4.98408 -0.461656 47
0.416115 -2.25727 -0.438549 4
1.62953 -4.34668 -0.730571 3
0.41543 -2.26233 -0.606535 4
1.16254 -3.09523 -0.754131 4
1.84795 -4.9539 1.4055 2
0.405191 -2.25083 0.355884 3
2.45956 -6.62389 1.36544 32
0.404576 -2.24521 0.196536 11
2.44559 -6.61447 0.860391 33
0.403873 -2.24355 0.0391806 14
0.404757 -2.25074 -0.118411 9
1.0415 -2.83388 -0.0520954 11
0.404675 -2.25705 -0.276859 8
1.83758 -4.98677 -0.461004 45
0.405582 -2.26666 -0.439977 4
1.60579 -4.35024 -0.729788 9
0.404001 -2.26685 -0.607182 4
1.14971 -3.11041 -0.756377 4
1.83593 -4.94807 1.40291 3
0.401655 -2.25146 0.355884 4
2.44884 -6.63048 1.36592 32
0.398041 -2.2312 0.195229 11
2.43348 -6.61365 0.859783 33
0.39952 -2.24179 0.039137 12
0.400828 -2.25144 -0.118411 11
1.04173 -2.84977 -0.0523572 2
0.400697 -2.25524 -0.276554 9
1.82715 -4.9853 -0.460569 45
0.402052 -2.26979 -0.440453 4
1.5999 -4.35767 -0.730571 11
0.400462 -2.26993 -0.607829 4
1.14736 -3.11907 -0.758062 4
1.81086 -4.9573 1.40291 3
0.389861 -2.25353 0.355884 8
2.40937 -6.62665 1.36258 32
0.386743 -2.23319 0.195229 11
2.39374 -6.6123 0.857958 35
0.387319 -2.23886 0.0390498 11
0.389881 -2.25843 -0.118673 11
1.03069 -2.86441 -0.0525317 2
0.388043 -2.25242 -0.275946 9
0.392631 -2.28389 -0.442834 8
1.59809 -4.42402 -0.740359 12
0.390592 -2.28145 -0.610415 4
1.13101 -3.12504 -0.758062 8
1.79725 -4.94684 1.39903 2
0.385512 -2.25177 0.355494 9
2.39497 -6.62664 1.36163 32
0.382845 -2.23386 0.195229 11
2.38051 -6.61181 0.857349 35
0.385959 -2.25684 0.0393552 14
0.383844 -2.2468 -0.118017 11
1.02992 -2.87796 -0.0527499 2
0.385774 -2.26288 -0.277163 9
0.388644 -2.28457 -0.442834 8
1.59121 -4.42913 -0.74075 12
0.38581 -2.27981 -0.609768 4
1.12804 -3.13388 -0.759746 8
1.77209 -4.96103 1.40033 3
0.374931 -2.26357 0.357055 8
2.3553 -6.62522 1.35877 32
0.371971 -2.24327 0.195883 8
2.33972 -6.61056 0.855524 33
0.374137 -2.25883 0.0393552 4
1.75544 -4.9743 0.274633 4
0.374511 -2.26356 -0.118804 11
1.01766 -2.89292 -0.0529244 3
0.374329 -2.26983 -0.277771 4
1.67641 -4.75367 -0.437084 12
0.376278 -2.28664 -0.442834 4
1.57217 -4.45164 -0.7431 12
0.376202 -2.2961 -0.613648 4
1.11025 -3.13764 -0.759185 4
1.7618 -4.95957 1.39903 3
0.370184 -2.25935 0.356275 8
2.34128 -6.62238 1.35734 33
0.369661 -2.25375 0.196754 8
2.32488 -6.60527 0.854307 32
0.369791 -2.25702 0.0393115 11
1.74841 -4.98207 0.274895 8
0.370559 -2.26421 -0.118804 9
1.0209 -2.91827 -0.0533607 3
0.371561 -2.27783 -0.278684 4
1.7458 -4.97743 -0.457525 45
0.373464 -2.29456 -0.444263 4
1.57506 -4.48465 -0.748189 9
0.371039 -2.2896 -0.611708 4
1.10477 -3.13957 -0.759185 4
1.73422 -4.96417 1.39774 3
0.359889 -2.27101 0.357836 4
2.30173 -6.62065 1.35448 33
0.359411 -2.26549 0.197626 9
2.28701 -6.60797 0.85309 33
0.359138 -2.26633 0.0394424 9
1.71659 -4.97464 0.273979 9
0.359865 -2.27352 -0.119198 8
1.02031 -2.9661 -0.0541461 3
0.3604 -2.28464 -0.279293 4
1.71727 -4.97944 -0.456872 45
0.361065 -2.29406 -0.443787 4
1.54429 -4.47184 -0.744666 8
0.360163 -2.29867 -0.613648 4
1.08832 -3.14531 -0.759185 4
1.72316 -4.96034 1.3958 3
0.354783 -2.26432 0.356665 4
2.28535 -6.61074 1.35162 35
0.355072 -2.26365 0.197408 9
2.27466 -6.60961 0.852785 33
0.355567 -2.26942 0.0394861 8
1.70465 -4.96818 0.273455 9
0.354743 -2.26674 -0.118804 4
0.356031 -2.28282 -0.278988 3
1.70696 -4.97772 -0.456437 45
0.357061 -2.29469 -0.443787 4
1.5413 -4.48853 -0.747015 8
0.355782 -2.29691 -0.613002 4
1.08363 -3.14951 -0.759746 4
1.70117 -4.97814 1.39839 4
0.344791 -2.27585 0.358226 4
2.25027 -6.61758 1.35067 33
0.343982 -2.26789 0.197626 8
2.23719 -6.60929 0.851264 33
0.342584 -2.26131 0.0393115 8
1.68109 -4.98148 0.273717 9
0.343985 -2.27597 -0.119198 8
0.345209 -2.2895 -0.279597 3
1.67848 -4.97951 -0.455785 45
0.345078 -2.29404 -0.44331 8
1.51619 -4.48926 -0.74584 8
0.343084 -2.29152 -0.611062 4
1.06689 -3.15265 -0.759185 8
1.68469 -4.95824 1.39192 4
0.339362 -2.26668 0.356665 4
2.23363 -6.61026 1.34828 33
0.340023 -2.26848 0.197626 8
2.22328 -6.60613 0.850352 33
0.338979 -2.2669 0.0393988 9
1.6692 -4.97494 0.273194 9
0.33891 -2.26916 -0.118804 8
1.66552 -4.9697 -0.0908834 52
0.339756 -2.28028 -0.27838 3
1.66582 -4.97063 -0.454698 45
0.340355 -2.28978 -0.442358 8
1.50756 -4.48956 -0.745449 9
0.339035 -2.29456 -0.611708 8
1.06294 -3.15912 -0.760308 4
1.66167 -4.97874 1.39516 4
0.328497 -2.27826 0.358226 4
2.19744 -6.61721 1.34733 35
0.328099 -2.27275 0.197844 4
2.18594 -6.61335 0.849743 33
0.327815 -2.2736 0.0394861 9
1.64383 -4.98864 0.273455 9
0.32667 -2.26843 -0.118673 9
1.63469 -4.96677 -0.0906652 45
0.328817 -2.29191 -0.279597 4
1.63821 -4.97456 -0.454263 45
0.327269 -2.28673 -0.441406 8
1.48559 -4.50208 -0.746232 8
0.327355 -2.2987 -0.612355 4
1.04507 -3.16252 -0.759746 8
1.64611 -4.96101 1.38934 4
2.18203 -6.60938 1.34495 35
0.323432 -2.26839 0.197408 4
2.17167 -6.60499 0.848222 33
0.322092 -2.26179 0.0392679 9
1.63365 -4.9841 0.273063 9
1.62446 -4.96487 -0.090578 44
0.32487 -2.28997 -0.279293 4
1.62641 -4.96794 -0.453393 45
0.323619 -2.28973 -0.441882 8
1.47541 -4.49763 -0.745057 8
0.322003 -2.2897 -0.609768 4
1.04163 -3.16878 -0.760869 8
1.63901 -5.02436 1.40485 8
2.14703 -6.61568 1.344 35
0.310933 -2.2626 0.196754 8
2.13476 -6.60919 0.847309 33
0.311317 -2.26835 0.0393552 9
1.60293 -4.97833 0.272278 9
1.5947 -4.95875 -0.0903162 44
0.311872 -2.28426 -0.27838 4
1.59809 -4.96928 -0.452741 45
0.312355 -2.29377 -0.442358 4
1.45488 -4.51469 -0.746623 8
0.311056 -2.29608 -0.611062 4
1.02276 -3.16724 -0.759185 4
2.13206 -6.61278 1.34257 33
0.306984 -2.26314 0.196754 8
2.11942 -6.6011 0.845788 33
0.306961 -2.26894 0.0393552 8
1.595 -4.9835 0.272409 9
1.58528 -4.95915 -0.0902726 45
0.308215 -2.28726 -0.278684 4
1.58789 -4.96732 -0.452306 45
0.307375 -2.28701 -0.44093 8
1.44549 -4.51252 -0.74584 8
0.307283 -2.30146 -0.612355 8
1.02023 -3.17829 -0.761431 4
2.09369 -6.61216 1.34018 35
0.295055 -2.26723 0.196972 8
2.08068 -6.603 0.844571 33
0.293794 -2.2606 0.0391806 9
1.56426 -4.98015 0.271754 8
1.55768 -4.96527 -0.0902289 44
0.294569 -2.27905 -0.277467 3
1.55961 -4.96844 -0.451653 45
0.295309 -2.29107 -0.441406 3
1.42035 -4.51532 -0.745057 4
0.29584 -2.30783 -0.613648 8
1.00375 -3.18609 -0.761993 4
2.08813 -6.59481 1.84168 1
2.0792 -6.60644 1.33828 35
0.29015 -2.26033 0.196318 11
2.06585 -6.59206 0.842745 35
0.289532 -2.25863 0.039137 9
1.55719 -4.98498 0.271885 9
1.54752 -4.96321 -0.0901417 44
0.292552 -2.29182 -0.278988 3
1.54945 -4.9664 -0.451218 45
0.292542 -2.30133 -0.44331 8
1.41764 -4.53428 -0.747798 4
0.290606 -2.29876 -0.611062 71
0.999477 -3.18998 -0.762554 4
2.03747 -6.54996 1.82617 1
2.04355 -6.60985 1.33685 33
0.279918 -2.27166 0.19719 8
2.0313 -6.60278 0.842745 35
0.279919 -2.27495 0.0393988 9
1.5318 -4.99545 0.272016 9
1.5187 -4.95903 -0.0899235 45
0.279649 -2.28593 -0.278076 49
1.52196 -4.96968 -0.450784 47
0.279412 -2.29059 -0.44093 64
1.39243 -4.53692 -0.747015 4
0.279256 -2.3026 -0.611708 58
0.98348 -3.1975 -0.763116 4
2.02175 -6.53967 1.8223 1
2.02869 -6.60672 1.33542 33
0.275655 -2.26968 0.196972 8
2.01614 -6.59446 0.841224 36
0.27585 -2.27797 0.0394424 47
1.5187 -4.98379 0.271231 9
1.50713 -4.95211 -0.089749 45
0.277136 -2.29873 -0.279597 52
1.50965 -4.96042 -0.449696 45
0.276579 -2.30083 -0.442834 50
1.38885 -4.55351 -0.749364 8
0.27455 -2.30073 -0.611062 59
0.975036 -3.1899 -0.760869 4
1.98282 -6.53896 1.81907 1
1.99194 -6.61021 1.33399 33
0.262229 -2.26124 0.1961 8
1.97829 -6.59814 0.840312 35
0.264777 -2.28683 0.0395733 55
1.49243 -4.99433 0.271362 11
1.47673 -4.94822 -0.0895308 44
0.263848 -2.2928 -0.278684 52
1.48294 -4.96587 -0.449479 45
0.263292 -2.29497 -0.441406 52
1.36285 -4.55363 -0.748189 8
0.2625 -2.30214 -0.611062 59
0.958465 -3.19746 -0.761431 8
1.96721 -6.52854 1.81519 1
1.97688 -6.60192 1.3316 33
0.258563 -2.26417 0.196318 8
1.96579 -6.59411 0.839399 35
0.260785 -2.28729 0.0395733 53
1.48101 -4.9847 0.270708 9
1.47094 -4.96037 -0.0897054 42
0.260247 -2.29321 -0.278684 52
1.47356 -4.96607 -0.449261 47
0.25956 -2.29787 -0.441882 50
1.36126 -4.57729 -0.751713 4
0.258214 -2.3002 -0.610415 59
0.952043 -3.19429 -0.760308 4
1.93895 -6.55462 1.81971 1
1.94066 -6.60242 1.3297 35
0.246294 -2.25802 0.195665 9
1.92914 -6.59716 0.838486 36
0.249743 -2.29355 0.0396606 55
1.44578 -4.96124 0.269007 9
0.249714 -2.30079 -0.119855 53
1.4353 -4.93176 -0.0890509 8
0.248236 -2.29454 -0.278684 53
1.44545 -4.96654 -0.448609 45
0.247141 -2.29183 -0.440453 52
1.33728 -4.58436 -0.751713 4
0.246824 -2.30387 -0.611062 59
0.938053 -3.20858 -0.762554 4
1.93707 -6.59043 1.82876 1
1.92522 -6.59672 1.32779 33
0.241296 -2.24854 0.194793 9
1.91485 -6.59099 0.837269 36
0.24481 -2.28905 0.0395733 53
1.43782 -4.96615 0.269138 8
0.244908 -2.29378 -0.119461 55
1.43087 -4.94866 -0.0893127 23
0.244492 -2.29744 -0.278988 52
1.43469 -4.96188 -0.447957 47
0.243656 -2.29714 -0.441406 52
1.33272 -4.59854 -0.75367 4
0.242651 -2.30675 -0.611708 58
0.932452 -3.21022 -0.762554 4
0.570179 -5.63851 1.29825 11
1.88798 -6.55441 1.81583 1
0.570436 -5.63133 0.888931 12
1.88863 -6.59963 1.32636 33
0.228876 -2.24733 0.194575 9
1.87712 -6.5941 0.836356 35
0.233073 -2.29279 0.039617 55
1.41025 -4.97146 0.269007 4
0.233145 -2.29751 -0.119592 55
1.40066 -4.94431 -0.0890945 45
0.23181 -2.29626 -0.278684 53
1.40597 -4.95974 -0.447087 47
0.231223 -2.29843 -0.441406 52
1.3093 -4.60783 -0.754062 4
0.229854 -2.30078 -0.609768 59
0.914399 -3.21287 -0.761993 4
0.562525 -5.65152 1.30106 11
1.86854 -6.52983 1.80808 1
0.564766 -5.66416 0.894004 12
1.87509 -6.59584 1.32493 35
0.2252 -2.25021 0.194793 9
1.86676 -6.59704 0.836356 35
0.228824 -2.29071 0.0395733 56
1.397 -4.95445 0.26796 8
0.229135 -2.29791 -0.119592 55
1.39407 -4.95396 -0.0892254 45
0.227715 -2.29168 -0.278076 53
1.39663 -4.95979 -0.446869 47
0.226732 -2.29394 -0.440453 52
1.30328 -4.61723 -0.755237 4
0.225369 -2.29637 -0.608475 59
0.909351 -3.2143 -0.761993 4
0.53361 -5.66166 1.30274 11
1.83743 -6.54618 1.81002 1
1.84102 -6.60288 1.32446 35
0.213807 -2.25132 0.194793 9
1.83153 -6.60433 0.836052 35
0.216524 -2.28437 0.0394424 56
0.216633 -2.29411 -0.11933 55
1.36497 -4.9465 -0.0889636 45
0.215251 -2.2879 -0.277467 55
1.37131 -4.96944 -0.447087 47
0.214435 -2.28773 -0.439025 52
1.27776 -4.61924 -0.754454 4
0.213299 -2.29267 -0.607182 59
0.893817 -3.22372 -0.763116 4
1.8247 -6.54473 1.80873 1
1.82506 -6.59458 1.32207 35
0.209648 -2.24921 0.194575 11
1.81537 -6.59077 0.833923 35
0.212826 -2.29225 0.0395733 58
0.212629 -2.29449 -0.11933 56
1.35832 -4.95611 -0.0890945 45
0.211711 -2.29322 -0.278076 53
1.35867 -4.95742 -0.445782 47
0.211112 -2.29543 -0.440453 52
1.26379 -4.60004 -0.75093 4
0.20955 -2.30029 -0.609122 59
0.886889 -3.22058 -0.761993 4
1.78161 -6.52655 1.80097 1
1.78986 -6.60167 1.3216 36
0.19726 -2.24783 0.194357 9
1.77774 -6.59331 0.83301 33
0.200605 -2.29084 0.0395297 58
0.200612 -2.29557 -0.11933 56
1.33019 -4.95856 -0.0890073 45
0.198874 -2.28938 -0.277467 55
1.33075 -4.95725 -0.44513 47
0.198269 -2.29165 -0.439501 50
1.24162 -4.61374 -0.752104 8
0.196683 -2.29173 -0.606535 59
0.870726 -3.23003 -0.763116 4
1.77846 -6.55995 1.80937 1
1.77577 -6.59531 1.31969 36
0.193124 -2.24569 0.194139 11
1.7661 -6.59131 0.832401 32
0.196818 -2.29368 0.0395733 58
0.196605 -2.29592 -0.11933 58
1.3196 -4.95363 -0.0888764 45
0.195487 -2.29217 -0.277771 55
1.31888 -4.94753 -0.444042 45
0.194064 -2.28955 -0.439025 52
1.23228 -4.61113 -0.751321 4
0.192884 -2.29448 -0.607182 61
0.865651 -3.23139 -0.763116 4
1.73155 -6.51752 1.79516 1
1.73986 -6.59472 1.31778 33
0.182553 -2.25657 0.195011 11
1.72903 -6.59086 0.831184 30
0.185207 -2.29465 0.0395733 59
1.29402 -4.95138 0.26639 8
0.184184 -2.29194 -0.119067 58
1.29324 -4.95541 -0.0887891 45
0.183679 -2.29563 -0.278076 55
1.29422 -4.95919 -0.444477 42
0.18286 -2.29539 -0.439977 52
1.21001 -4.62469 -0.752496 4
0.181456 -2.29783 -0.607829 59
0.368859 -4.70029 1.07869 1
1.72388 -6.53455 1.79903 1
1.72595 -6.5933 1.31683 35
0.178419 -2.2544 0.194793 11
0.180996 -2.29749 0.039617 61
1.28349 -4.94638 0.265997 4
0.180572 -2.29723 -0.11933 61
1.2783 -4.93347 -0.0883528 12
0.179288 -2.291 -0.277467 55
1.27302 -4.91323 -0.440128 1
0.178475 -2.29081 -0.439025 52
1.19383 -4.59573 -0.747406 4
0.176861 -2.29577 -0.607182 59
0.338474 -4.63418 1.06297 3
0.166037 -2.25285 0.194575 11
0.168964 -2.2984 0.039617 67
1.24932 -4.92422 0.264427 2
0.168179 -2.29317 -0.119067 61
1.2368 -4.88217 -0.0873057 2
0.166711 -2.28946 -0.277163 56
1.24605 -4.915 -0.439693 2
0.165902 -2.2893 -0.438549 52
1.16956 -4.60452 -0.747798 4
0.164323 -2.28943 -0.605242 61
0.161928 -2.25065 0.194357 11
0.164597 -2.29371 0.0395297 68
1.23888 -4.91913 0.264035 2
0.164177 -2.29346 -0.119067 61
0.162889 -2.29223 -0.277467 56
1.23869 -4.922 -0.440128 2
0.162078 -2.29203 -0.439025 52
1.15546 -4.58261 -0.743883 4
0.160662 -2.29454 -0.606535 61
1.23033 -4.91098 1.3454 1
1.22608 -4.93021 0.979878 1
0.151028 -2.2589 0.195011 11
0.152985 -2.29451 0.0395297 70
0.152002 -2.29179 -0.118936 64
0.150961 -2.28807 -0.276859 56
0.150156 -2.28793 -0.438073 52
1.137 -4.60758 -0.747015 3
0.149201 -2.29773 -0.607182 59
0.368534 -5.72362 1.31397 3
1.22351 -4.92015 1.34734 1
1.21661 -4.93256 0.979878 2
0.146765 -2.25418 0.194575 11
0.14842 -2.29231 0.0394861 73
0.147683 -2.28707 -0.118673 64
0.147283 -2.29328 -0.277467 56
0.146163 -2.28818 -0.438073 52
0.144338 -2.29078 -0.605242 61
0.335704 -5.69392 1.30667 3
1.19916 -4.93608 1.34992 2
0.13442 -2.25246 0.194357 12
0.136563 -2.29555 0.0395297 77
0.135706 -2.28781 -0.118673 62
0.134729 -2.29157 -0.277163 56
0.133922 -2.29139 -0.438549 52
0.132342 -2.29151 -0.605242 61
0.326482 -5.68957 1.30555 1
0.130631 -2.25518 0.194575 12
0.132556 -2.29578 0.0395297 80
0.131997 -2.29303 -0.118936 64
0.130708 -2.28434 -0.27625 55
0.129923 -2.29162 -0.438549 52
0.128609 -2.29656 -0.606535 61
0.298328 -5.72283 1.31285 3
0.119215 -2.25581 0.194575 12
0.120934 -2.29643 0.0395297 80
0.119602 -2.28621 -0.118542 64
0.118873 -2.28748 -0.276554 56
0.118197 -2.2898 -0.438073 52
0.11662 -2.28994 -0.604595 61
0.289803 -5.75254 1.31959 3
0.291121 -5.75898 0.90571 14
0.115152 -2.25353 0.194357 12
0.116275 -2.29166 0.0394424 83
0.115487 -2.28392 -0.118411 65
0.115003 -2.29016 -0.276859 58
0.1142 -2.29 -0.438073 52
0.11234 -2.29257 -0.605242 59
0.262726 -5.82214 0.915466 20
0.103069 -2.2566 0.194575 12
0.104162 -2.28974 0.0393988 88
0.103639 -2.28699 -0.118542 67
0.10272 -2.29323 -0.277163 58
0.101809 -2.29059 -0.438073 52
0.100231 -2.29072 -0.604595 61
0.24375 -5.59558 0.879565 27
0.0989152 -2.25181 0.194139 14
0.100273 -2.29242 0.0394424 90
0.0998613 -2.29216 -0.118804 73
0.0990124 -2.2909 -0.276859 58
0.500835 -2.26628 -0.199623 8
0.0977076 -2.28831 -0.437596 52
0.096432 -2.29571 -0.605889 61
0.213603 -5.57457 0.876053 29
0.0878021 -2.25974 0.194793 14
0.486887 -2.24807 0.277771 9
0.088574 -2.2904 0.0393988 85
0.486156 -2.25217 0.118933 9
0.0878583 -2.29265 -0.118804 80
0.484901 -2.25016 -0.0395733 9
0.087016 -2.29139 -0.276859 58
0.486843 -2.25913 -0.198754 8
0.0861242 -2.28877 -0.437596 52
0.487383 -2.25418 -0.360196 8
0.0844606 -2.28652 -0.603302 61
0.204501 -5.59221 0.878785 18
0.0840396 -2.26487 0.195229 14
0.484015 -2.25376 0.27838 8
0.0841766 -2.29056 0.0393988 90
0.480642 -2.24569 0.118541 9
0.0838567 -2.2928 -0.118804 79
0.479391 -2.24367 -0.0394424 11
0.08284 -2.28658 -0.27625 58
0.481323 -2.25268 -0.198101 11
0.0821294 -2.28892 -0.437596 52
0.484493 -2.25986 -0.360979 9
0.0800706 -2.28668 -0.603302 62
0.176682 -5.67221 0.891272 24
0.0719391 -2.27027 0.195665 14
0.470275 -2.24907 0.277467 9
0.0721822 -2.29097 0.0393988 90
0.46797 -2.24582 0.11841 11
0.0718506 -2.29321 -0.118804 85
0.467245 -2.24623 -0.0394424 9
0.0705421 -2.28948 -0.276554 58
0.469009 -2.25273 -0.197884 8
0.069744 -2.28933 -0.437596 52
0.470614 -2.2527 -0.359413 3
0.068167 -2.28948 -0.603949 61
0.158618 -5.39209 1.23536 1
0.159157 -5.37876 0.844835 1
0.0677575 -2.26292 0.195011 14
0.466742 -2.2498 0.277467 8
0.0682564 -2.29359 0.0394424 90
0.464952 -2.24899 0.118541 8
0.0678481 -2.29333 -0.118804 85
0.462814 -2.2446 -0.0393988 9
0.0669457 -2.28958 -0.276554 59
0.464059 -2.24867 -0.197449 9
0.0656793 -2.287 -0.43712 52
0.467187 -2.25593 -0.359804 3
0.0640386 -2.28477 -0.602656 62
0.137664 -5.69727 1.30555 23
0.138544 -5.69303 0.894394 32
0.056303 -2.26324 0.195011 14
0.455452 -2.25465 0.277771 9
0.0565865 -2.29141 0.0393988 90
0.451677 -2.24406 0.118148 8
0.0558393 -2.29365 -0.118804 90
0.44896 -2.23466 -0.0391806 9
0.0549567 -2.2899 -0.276554 59
0.452279 -2.25107 -0.197449 9
0.054103 -2.2873 -0.43712 53
0.45241 -2.24383 -0.357455 3
0.0525815 -2.28989 -0.603949 62
0.127234 -5.67558 1.3005 15
0.128222 -5.67599 0.891662 24
0.0522968 -2.26084 0.194793 15
0.449547 -2.24571 0.276554 8
0.0521318 -2.28902 0.0393552 90
0.448253 -2.24729 0.118279 8
0.0517812 -2.29125 -0.118673 90
0.446538 -2.24279 -0.0393115 8
0.0509062 -2.28751 -0.27625 59
0.447858 -2.24941 -0.197231 8
0.0501108 -2.28739 -0.43712 52
0.448493 -2.24462 -0.357455 3
0.0480372 -2.28274 -0.602009 65
0.452556 -2.2528 -0.521659 3
0.0958714 -5.63722 1.29151 14
0.0971757 -5.65684 0.888541 15
0.0400211 -2.2586 0.194575 15
0.436911 -2.24567 0.27625 4
0.0401458 -2.28926 0.0393552 90
0.434647 -2.24233 0.117887 8
0.0397836 -2.29149 -0.118673 90
0.432957 -2.23782 -0.0391806 9
0.0386497 -2.2952 -0.277163 61
0.436074 -2.25172 -0.197231 8
0.0377342 -2.28763 -0.43712 52
0.436734 -2.24694 -0.357455 3
0.0361942 -2.29021 -0.603949 59
0.438001 -2.24326 -0.518851 4
0.0862026 -5.58377 1.27916 15
0.0875693 -5.61008 0.881126 30
0.0361556 -2.26365 0.195011 17
0.432908 -2.24392 0.275946 4
0.0361503 -2.28932 0.0393552 90
0.431601 -2.24546 0.118018 9
0.0357841 -2.29156 -0.118673 90
0.429051 -2.23857 -0.0391806 9
0.035008 -2.29278 -0.276859 59
0.431195 -2.24759 -0.196796 8
0.0337415 -2.28769 -0.43712 52
0.430924 -2.238 -0.355889 4
0.0321321 -2.28544 -0.602656 64
0.435413 -2.24873 -0.519974 4
0.0569892 -5.58658 1.27972 20
0.0582689 -5.61787 0.882297 30
0.0246209 -2.25633 0.194357 20
0.419303 -2.23641 0.274729 4
0.0245372 -2.28698 0.0393115 91
0.41752 -2.23543 0.117363 11
0.0238095 -2.29421 -0.118804 90
0.416325 -2.23334 -0.0390498 9
0.0229559 -2.28797 -0.27625 61
0.418959 -2.24737 -0.196579 8
0.0221398 -2.28538 -0.436644 53
0.420118 -2.24508 -0.356672 4
0.0205034 -2.27833 -0.600716 61
0.423177 -2.24858 -0.519413 4
0.0473586 -5.60129 1.28309 17
0.0485879 -5.63278 0.884638 30
0.0206402 -2.25139 0.193922 21
0.415399 -2.23714 0.274729 4
0.020167 -2.28952 0.0393552 95
0.414536 -2.24106 0.117625 15
0.0197452 -2.28676 -0.118411 90
0.412886 -2.23652 -0.0390934 9
0.0190007 -2.29296 -0.276859 62
0.413664 -2.24076 -0.195927 9
0.018169 -2.28787 -0.43712 52
0.415289 -2.24096 -0.355889 4
0.0161761 -2.28561 -0.602656 64
0.417898 -2.24214 -0.517728 4
0.0170998 -5.61852 1.28702 15
0.00846657 -2.25396 0.194139 23
0.403289 -2.23935 0.274729 4
0.0081789 -2.28959 0.0393552 95
0.401959 -2.24081 0.117494 17
0.00778551 -2.29182 -0.118673 90
0.401225 -2.24118 -0.039137 11
0.00658872 -2.29055 -0.276554 64
0.401481 -2.24044 -0.195709 9
0.00579023 -2.28793 -0.43712 53
0.403992 -2.24553 -0.356281 8
0.00419667 -2.276 -0.600069 61
0.407953 -2.25635 -0.520536 4
0.00830699 -5.64533 1.2932 15
0.00453613 -2.25646 0.194357 23
0.400212 -2.24242 0.275033 8
0.00417974 -2.28711 0.0393115 90
0.398439 -2.24144 0.117494 15
0.0037829 -2.28934 -0.118542 90
0.39643 -2.23696 -0.0390498 11
0.00298726 -2.2856 -0.275946 62
0.39757 -2.24114 -0.195709 11
0.0017966 -2.28548 -0.436644 53
0.400511 -2.24866 -0.356672 8
0.000220504 -2.28325 -0.602009 64
0.403539 -2.25219 -0.519413 4
-0.0213595 -5.6721 1.29937 15
-0.0204494 -5.68974 0.893613 33
-0.00691225 -2.26393 0.195011 24
0.389322 -2.24938 0.275642 9
-0.00740595 -2.2896 0.0393552 96
0.386268 -2.24104 0.117363 14
-0.00819357 -2.28683 -0.118411 90
0.386818 -2.24879 -0.0392243 12
-0.00900261 -2.29054 -0.276554 65
0.388822 -2.26036 -0.197231 11
-0.00977125 -2.28546 -0.436644 53
0.390433 -2.26046 -0.358238 4
-0.0113225 -2.28081 -0.601362 61
0.393852 -2.26627 -0.52222 4
-0.0314555 -5.70616 1.30724 24
-0.0305178 -5.71439 0.897516 36
-0.0107962 -2.25146 0.193922 24
0.384548 -2.24516 0.275033 9
-0.011816 -2.29208 0.0393988 97
0.382781 -2.24417 0.117494 12
-0.0121552 -2.28182 -0.118148 90
0.383742 -2.25439 -0.0393115 9
-0.012938 -2.2806 -0.275337 58
0.384876 -2.26104 -0.197231 11
-0.0137438 -2.28299 -0.436168 52
0.386908 -2.26357 -0.35863 4
-0.0157557 -2.28802 -0.603302 61
0.38906 -2.26215 -0.521097 3
-0.0622738 -5.70103 1.30611 21
-0.0611635 -5.68945 0.893613 29
-0.0230584 -2.25884 0.194575 27
0.373216 -2.2521 0.275642 3
-0.0237621 -2.28699 0.0393115 97
0.371456 -2.25113 0.117756 2
-0.0241862 -2.28921 -0.118542 90
0.371128 -2.25396 -0.0392679 4
-0.025306 -2.28298 -0.275642 64
0.373032 -2.26302 -0.197231 8
-0.0260957 -2.28288 -0.436168 52
0.377103 -2.28024 -0.360979 8
-0.027674 -2.28308 -0.602009 64
0.37884 -2.27624 -0.523905 3
-0.0707633 -5.66439 1.29769 15
-0.0708417 -5.66958 0.890492 26
-0.0269382 -2.25382 0.194139 26
0.369692 -2.2552 0.275946 3
-0.0278173 -2.29194 0.0393988 98
0.369156 -2.26163 0.118279 9
-0.0281171 -2.28417 -0.118279 90
0.369228 -2.26694 -0.0394861 9
-0.0294239 -2.29285 -0.276859 64
0.371923 -2.28087 -0.198754 9
-0.0301478 -2.28774 -0.43712 53
0.372315 -2.27602 -0.360196 4
-0.0316587 -2.28303 -0.602009 64
0.374867 -2.27689 -0.523905 4
-0.0988337 -5.62965 0.884248 20
-0.0383893 -2.25614 0.194357 24
0.358272 -2.25704 0.275946 9
-0.0394175 -2.29177 0.0393988 98
0.356915 -2.25854 0.118018 8
-0.0401219 -2.28649 -0.118411 90
0.356171 -2.25891 -0.0393115 9
-0.0409368 -2.28771 -0.27625 65
0.359583 -2.28033 -0.198536 8
-0.0416804 -2.28511 -0.436644 52
0.361182 -2.28031 -0.360587 4
-0.0431664 -2.28043 -0.601362 64
0.361394 -2.26674 -0.521097 4
-0.109153 -5.6053 1.28421 14
-0.108225 -5.60725 0.880736 18
-0.0422304 -2.25109 0.193922 27
0.355502 -2.26502 0.276859 8
-0.043768 -2.28919 0.0393552 98
0.354925 -2.27149 0.118672 8
-0.0440628 -2.28392 -0.118279 90
0.353789 -2.2694 -0.0394861 9
-0.0448793 -2.28516 -0.275946 61
0.35638 -2.28587 -0.198971 8
-0.0455675 -2.28012 -0.435692 53
0.355653 -2.27119 -0.359021 4
-0.0475445 -2.28034 -0.601362 64
0.357822 -2.26977 -0.521659 8
-0.133357 -5.36109 1.22806 1
-0.138191 -5.59177 0.878395 24
-0.0544093 -2.25083 0.193922 27
0.342884 -2.26194 0.27625 4
-0.0558783 -2.29393 0.0394424 99
0.343762 -2.28078 0.119064 8
-0.0560207 -2.28366 -0.118279 90
0.339998 -2.2614 -0.0393115 9
-0.0570334 -2.29233 -0.276859 65
0.342527 -2.2754 -0.197884 8
-0.0578396 -2.27739 -0.435216 53
0.344505 -2.2779 -0.359804 4
-0.0594836 -2.28006 -0.601362 61
0.345189 -2.2668 -0.520536 4
-0.147632 -5.58005 1.2786 14
-0.147892 -5.6261 0.883858 24
-0.0580761 -2.25572 0.194357 27
0.339308 -2.26499 0.276554 4
-0.0598819 -2.29383 0.0394424 100
0.339058 -2.27391 0.118672 8
-0.0601406 -2.28855 -0.118542 90
0.336445 -2.26193 -0.0393115 9
-0.0609666 -2.28975 -0.276554 65
0.337836 -2.26854 -0.197231 9
-0.0615522 -2.2822 -0.436168 52
0.338678 -2.26629 -0.357847 8
-0.0628602 -2.27272 -0.599422 61
0.3416 -2.2698 -0.521097 4
-0.177266 -5.62306 1.28871 15
-0.177926 -5.67464 0.891662 26
-0.0692578 -2.24793 0.193704 29
0.3282 -2.26913 0.276859 4
-0.0710909 -2.29351 0.0394424 100
0.327184 -2.27313 0.118541 8
-0.0716434 -2.28572 -0.118411 90
0.325353 -2.26608 -0.0393552 11
-0.0723951 -2.28445 -0.275946 65
0.325594 -2.26782 -0.197014 9
-0.0730225 -2.27941 -0.435692 53
0.326846 -2.26553 -0.357455 9
-0.0743626 -2.27237 -0.599422 61
0.330107 -2.2715 -0.521097 4
-0.188957 -5.67874 1.30162 20
-0.1889 -5.70641 0.896735 35
-0.0731811 -2.2478 0.193704 29
0.323171 -2.26233 0.275946 4
-0.0754939 -2.29337 0.0394424 100
0.322503 -2.26875 0.118279 8
-0.0755486 -2.2831 -0.118279 92
0.319261 -2.2518 -0.0390934 11
-0.0765509 -2.28928 -0.276554 65
0.321281 -2.26592 -0.196796 9
-0.0770007 -2.27928 -0.435692 53
0.322891 -2.2661 -0.357455 9
-0.0787251 -2.27223 -0.599422 61
0.326844 -2.2769 -0.52222 4
-0.219774 -5.68007 1.30218 17
-0.219963 -5.71024 0.897516 15
-0.0854378 -2.24986 0.193922 29
0.31024 -2.25914 0.275337 4
-0.0874041 -2.29044 0.0393988 99
0.309194 -2.26304 0.117887 8
-0.087696 -2.28766 -0.118542 90
0.308101 -2.26092 -0.0392243 9
-0.0888381 -2.28636 -0.27625 65
0.310438 -2.27497 -0.197449 9
-0.0892339 -2.27637 -0.435216 53
0.311646 -2.27515 -0.35863 8
-0.0909146 -2.27902 -0.601362 64
0.312829 -2.26657 -0.519413 3
-0.224455 -5.57505 1.27804 12
-0.228029 -5.66297 0.890101 18
-0.0893644 -2.24971 0.193922 29
0.306635 -2.26213 0.275642 8
-0.0915027 -2.29278 0.0394424 99
0.304905 -2.26111 0.117756 8
-0.0915871 -2.28501 -0.118411 90
0.303816 -2.25898 -0.0391806 9
-0.0928284 -2.2862 -0.27625 64
0.305454 -2.2681 -0.196796 9
-0.0935126 -2.28357 -0.436644 53
0.307339 -2.27324 -0.358238 8
-0.0945862 -2.27162 -0.599422 61
0.310209 -2.27677 -0.521659 4
-0.254504 -5.57132 1.27747 15
-0.255758 -5.61976 0.883468 26
-0.101143 -2.24921 0.193922 27
-0.103392 -2.28978 0.0393988 100
0.293388 -2.26515 0.117887 9
-0.103779 -2.28948 -0.118673 90
0.293611 -2.27293 -0.0393988 9
-0.104798 -2.28568 -0.27625 62
0.294548 -2.27708 -0.197449 8
-0.105353 -2.2806 -0.436168 53
0.297048 -2.28706 -0.360196 2
-0.106708 -2.27592 -0.600716 59
0.298284 -2.27836 -0.521659 3
-0.26418 -5.59038 1.28197 15
-0.265449 -5.61684 0.883077 27
0.295223 -2.27338 0.438467 3
-0.105421 -2.2565 0.194575 26
-0.107507 -2.29209 0.0394424 100
0.291363 -2.28051 0.118672 8
-0.107537 -2.28431 -0.118411 90
0.290607 -2.28087 -0.0395297 2
-0.108787 -2.28549 -0.27625 67
0.291534 -2.285 -0.198101 11
-0.109214 -2.27796 -0.435692 53
0.293056 -2.28758 -0.360196 14
-0.110324 -2.26849 -0.598776 61
0.295258 -2.28612 -0.523343 20
-0.293521 -5.57184 1.27804 17
-0.293034 -5.58085 0.877614 29
0.283624 -2.27733 0.438943 3
-0.116973 -2.25094 0.194139 27
-0.119507 -2.29149 0.0394424 99
0.280035 -2.28696 0.118933 12
-0.119895 -2.2837 -0.118411 90
0.278968 -2.28484 -0.0395733 27
-0.120752 -2.28489 -0.27625 65
0.280702 -2.2989 -0.199188 44
-0.121272 -2.27981 -0.436168 52
0.280462 -2.28418 -0.359413 45
-0.122332 -2.2703 -0.599422 61
0.283893 -2.29247 -0.524467 45
-0.302713 -5.56159 1.27579 18
-0.303446 -5.59266 0.879565 20
0.280771 -2.29005 0.441326 3
-0.120767 -2.24825 0.193922 23
-0.123906 -2.29126 0.0394424 99
0.275131 -2.28001 0.118541 45
-0.124154 -2.28847 -0.118673 90
0.276499 -2.29773 -0.0397915 50
-0.12474 -2.28468 -0.27625 62
0.276689 -2.29939 -0.199188 49
-0.125251 -2.27959 -0.436168 52
0.278286 -2.29937 -0.361762 45
-0.126826 -2.27247 -0.600069 61
0.279591 -2.29055 -0.523905 45
-0.341132 -5.69848 1.3078 23
-0.340939 -5.71172 0.898686 33
0.268776 -2.29148 0.441326 8
-0.133226 -2.25253 0.194357 20
-0.135752 -2.28809 0.0393988 99
0.264245 -2.29386 0.119195 47
-0.135685 -2.28031 -0.118279 90
0.263482 -2.29423 -0.0397042 50
-0.137249 -2.28645 -0.276554 64
0.264936 -2.30328 -0.199406 49
-0.137732 -2.28133 -0.436644 52
0.265552 -2.29839 -0.36137 45
-0.13902 -2.27659 -0.601362 59
0.267194 -2.29203 -0.523905 45
-0.349633 -5.69064 1.30611 21
-0.349691 -5.69139 0.895565 32
0.264776 -2.29195 0.441326 8
-0.137463 -2.25727 0.194793 18
-0.139745 -2.28785 0.0393988 98
0.260528 -2.2968 0.119326 49
-0.139819 -2.28256 -0.118411 90
0.259478 -2.29469 -0.0397042 52
-0.140776 -2.27877 -0.275642 65
0.260059 -2.29632 -0.198754 49
-0.14156 -2.27864 -0.436168 52
0.260972 -2.29394 -0.360587 45
-0.142688 -2.27153 -0.600069 61
0.262627 -2.28765 -0.522782 45
-0.378296 -5.65707 1.29881 15
-0.377012 -5.65253 0.889711 24
0.253046 -2.29574 0.441803 4
-0.14928 -2.25652 0.194793 15
-0.151722 -2.28708 0.0393988 98
0.248224 -2.29565 0.119195 49
-0.151768 -2.2818 -0.118411 90
0.247186 -2.29353 -0.0396606 52
-0.152873 -2.28048 -0.275946 64
0.248032 -2.29765 -0.198754 49
-0.153489 -2.27787 -0.436168 52
0.249358 -2.29524 -0.360587 45
-0.15491 -2.27557 -0.601362 59
0.251186 -2.29383 -0.523905 45
-0.385011 -5.62487 1.29151 14
-0.383359 -5.61497 0.883858 15
0.24823 -2.28886 0.440373 2
-0.153389 -2.25874 0.195011 15
-0.155885 -2.28931 0.0394424 97
0.244618 -2.29604 0.119195 50
-0.155751 -2.28153 -0.118411 90
0.242914 -2.29147 -0.039617 53
-0.156627 -2.28271 -0.27625 62
0.243485 -2.29312 -0.198319 49
-0.157294 -2.27515 -0.435692 52
0.245619 -2.29812 -0.360979 45
-0.158373 -2.26807 -0.599422 61
0.247316 -2.2918 -0.523343 45
-0.410684 -5.57176 1.27972 15
0.237671 -2.29985 0.442279 9
-0.164636 -2.25545 0.194793 15
0.584558 -5.66469 0.693972 11
-0.167102 -2.2835 0.0393552 97
0.232593 -2.29729 0.119195 50
-0.167325 -2.27571 -0.118148 90
0.231313 -2.29267 -0.039617 53
-0.168577 -2.28186 -0.27625 64
0.232241 -2.3018 -0.198971 50
-0.16899 -2.27677 -0.436168 52
0.233583 -2.29938 -0.360979 45
-0.170032 -2.26964 -0.600069 61
0.235313 -2.29307 -0.523343 45
-0.420959 -5.57832 1.28141 18
0.590426 -5.64538 1.50953 11
0.23275 -2.29542 0.441326 11
-0.168572 -2.25516 0.194793 15
0.57568 -5.67557 0.695189 12
-0.171675 -2.28567 0.0393988 97
0.228583 -2.29769 0.119195 50
-0.171297 -2.27541 -0.118148 90
0.227563 -2.29556 -0.0396606 55
-0.172748 -2.28404 -0.276554 62
0.227721 -2.29725 -0.198536 50
-0.173151 -2.27892 -0.436644 52
0.229319 -2.29732 -0.360587 45
-0.174576 -2.27172 -0.600716 59
0.231061 -2.29105 -0.522782 45
-0.452711 -5.59539 1.2859 15
0.562276 -5.67252 1.516 9
0.220968 -2.29905 0.441803 9
-0.180972 -2.25669 0.195011 15
-0.183438 -2.28225 0.0393552 96
0.21567 -2.29393 0.118933 50
-0.184017 -2.28444 -0.118673 90
0.214901 -2.29427 -0.039617 55
-0.184901 -2.2806 -0.27625 62
0.215928 -2.30089 -0.198754 50
-0.185278 -2.2755 -0.436168 52
0.217287 -2.29849 -0.360587 47
-0.186269 -2.26837 -0.600069 59
0.218662 -2.29227 -0.522782 45
-0.446835 -5.41744 1.24491 1
0.553083 -5.68071 1.51793 11
0.216719 -2.29699 0.441326 4
-0.184706 -2.25389 0.194793 14
-0.187421 -2.28193 0.0393552 95
0.212067 -2.29426 0.118933 53
-0.187797 -2.28162 -0.118542 90
0.210663 -2.29215 -0.0395733 58
-0.188689 -2.28278 -0.276554 61
0.211211 -2.29382 -0.198101 50
-0.189454 -2.27762 -0.436644 52
0.212809 -2.29395 -0.359804 47
-0.190634 -2.27285 -0.601362 61
0.214596 -2.28776 -0.521659 45
-0.498644 -5.69268 0.897516 35
0.204421 -2.29073 0.439896 2
-0.196111 -2.25293 0.194793 15
-0.198969 -2.28095 0.0393552 95
0.200273 -2.29783 0.119064 53
-0.19996 -2.2831 -0.118673 90
0.199058 -2.29319 -0.0395733 58
-0.200201 -2.27681 -0.275946 59
0.199418 -2.29738 -0.198319 52
-0.20098 -2.27663 -0.436644 52
0.200354 -2.29012 -0.359021 47
-0.202351 -2.27427 -0.602009 59
0.202834 -2.29128 -0.52222 45
-0.485081 -5.41904 1.24603 1
-0.508579 -5.6918 0.897516 36
0.199367 -2.28378 0.438467 3
-0.199821 -2.2501 0.194575 15
-0.203124 -2.27807 0.0393115 91
0.195827 -2.2932 0.118803 55
-0.203497 -2.27777 -0.118411 90
0.195056 -2.29353 -0.0395733 59
-0.205067 -2.28635 -0.277163 61
0.195192 -2.29524 -0.198101 52
-0.205396 -2.28117 -0.437596 52
0.196573 -2.29292 -0.359413 47
-0.206057 -2.26666 -0.600069 61
0.198619 -2.2892 -0.521659 45
-0.539798 -5.6831 1.3078 17
-0.53703 -5.66438 0.893613 26
-0.212463 -2.25395 0.195011 15
-0.215522 -2.28195 0.0393988 90
0.183825 -2.2992 0.119064 55
-0.215421 -2.27667 -0.118411 90
0.18244 -2.29206 -0.0395297 59
-0.216252 -2.27285 -0.275642 58
0.182969 -2.29375 -0.197884 50
-0.217266 -2.27513 -0.436644 52
0.184164 -2.29395 -0.359413 49
-0.218388 -2.27036 -0.601362 59
0.185623 -2.28296 -0.519974 45
-0.545438 -5.6483 1.29994 14
-0.544774 -5.64131 0.890101 15
-0.216636 -2.25605 0.195229 15
-0.219264 -2.27909 0.0393552 90
0.179213 -2.29205 0.118672 56
-0.219635 -2.27878 -0.118542 90
0.178639 -2.29487 -0.0395733 59
-0.220941 -2.27988 -0.276554 61
0.178965 -2.29406 -0.197884 52
-0.220997 -2.27231 -0.436168 52
0.180359 -2.29673 -0.359804 47
-0.221639 -2.26276 -0.599422 61
0.182035 -2.28814 -0.521097 47
-0.569808 -5.59447 1.28814 14
-0.2278 -2.25245 0.195011 15
-0.230543 -2.27546 0.0393115 90
0.167609 -2.29293 0.118672 56
-0.23142 -2.28012 -0.118673 90
0.166648 -2.29076 -0.0394861 65
-0.232731 -2.2812 -0.276859 59
0.167351 -2.29494 -0.197884 55
-0.232747 -2.2736 -0.436644 52
0.16836 -2.29269 -0.359021 47
-0.233836 -2.26882 -0.601362 59
0.170451 -2.28903 -0.521097 47
-0.579851 -5.60568 1.29095 15
-0.554125 -5.35747 0.845616 1
-0.231987 -2.25452 0.195229 14
-0.234772 -2.27754 0.0393552 90
0.163607 -2.29322 0.118672 56
-0.235141 -2.27723 -0.118542 89
0.162832 -2.29354 -0.0395297 68
-0.236454 -2.27832 -0.276554 58
0.163164 -2.29274 -0.197666 55
-0.23697 -2.27563 -0.43712 52
0.164358 -2.29298 -0.359021 49
-0.237542 -2.266 -0.600716 61
0.166092 -2.28446 -0.519974 47
-0.612552 -5.62426 1.29601 14
-0.585647 -5.38641 0.850689 1
-0.243519 -2.2508 0.195011 14
-0.246964 -2.27877 0.0393988 90
0.151428 -2.29155 0.118541 59
-0.248273 -2.28337 -0.118936 80
0.150652 -2.29187 -0.0394861 68
-0.248651 -2.27952 -0.276859 58
0.150757 -2.29359 -0.197666 55
-0.249151 -2.2768 -0.437596 52
0.151843 -2.28642 -0.357847 49
-0.24967 -2.26713 -0.601362 59
0.153959 -2.28287 -0.519413 47
-0.247447 -2.25037 0.195011 14
-0.250788 -2.27332 0.0393115 90
0.147428 -2.29182 0.118541 61
-0.25143 -2.27549 -0.118542 79
0.146651 -2.29213 -0.0394861 71
-0.252629 -2.27908 -0.276859 58
0.146917 -2.29634 -0.197884 55
-0.252851 -2.27392 -0.43712 52
0.148346 -2.29407 -0.359021 49
-0.254833 -2.27384 -0.603302 59
0.150139 -2.28557 -0.519974 45
-0.621514 -5.35114 1.23368 1
-0.259332 -2.24653 0.194793 14
-0.262399 -2.26949 0.0392679 90
0.135178 -2.29507 0.118672 62
-0.263053 -2.27166 -0.118411 77
0.134399 -2.29538 -0.0395297 76
-0.263803 -2.26783 -0.275642 58
0.135194 -2.30205 -0.198319 58
-0.264579 -2.26765 -0.436168 52
0.136332 -2.29482 -0.359021 47
-0.265603 -2.26289 -0.600716 59
0.138075 -2.29121 -0.521097 45
-0.628777 -5.34048 1.23143 1
-0.263253 -2.24607 0.194793 14
-0.267238 -2.27648 0.0393988 90
0.131721 -2.29777 0.118803 67
-0.26731 -2.27368 -0.118542 77
0.129952 -2.28813 -0.0393988 80
-0.267658 -2.26987 -0.275946 56
0.130589 -2.29234 -0.197449 58
-0.269407 -2.27449 -0.437596 52
0.132179 -2.29259 -0.35863 49
-0.270414 -2.26961 -0.602656 58
0.134032 -2.28413 -0.519413 45
-0.685056 -5.5668 1.28477 17
-0.685845 -5.58112 0.883077 27
-0.274618 -2.24471 0.194793 14
-0.278146 -2.27013 0.0393115 90
0.119553 -2.29594 0.118672 68
-0.278905 -2.26977 -0.118411 70
0.118503 -2.29125 -0.0394424 79
-0.280149 -2.27337 -0.276554 56
0.118986 -2.30045 -0.198101 59
-0.280613 -2.27067 -0.43712 52
0.120442 -2.29818 -0.359413 49
-0.281299 -2.26342 -0.601362 59
0.122611 -2.29453 -0.521659 47
-0.664836 -5.32629 1.22918 1
0.313268 -5.65543 1.5063 8
-0.693749 -5.56522 0.880736 27
-0.278227 -2.24176 0.194575 14
-0.283124 -2.27456 0.0393988 90
0.115546 -2.29614 0.118672 71
-0.283487 -2.27423 -0.118673 64
0.114244 -2.28646 -0.0393552 83
-0.284116 -2.27287 -0.276554 58
0.114453 -2.2907 -0.197231 59
-0.284882 -2.27261 -0.437596 52
0.115911 -2.28852 -0.357847 49
-0.286556 -2.27006 -0.603302 59
0.117952 -2.28258 -0.518851 47
0.288427 -5.7704 1.53667 4
-0.730236 -5.61035 0.888541 17
0.279721 -5.79761 1.12047 14
-0.289387 -2.23281 0.193922 14
0.269279 -5.74802 0.701274 15
-0.294383 -2.26809 0.0393115 83
0.103121 -2.29674 0.118672 71
-0.294421 -2.26529 -0.118279 64
0.101988 -2.28954 -0.0393988 90
-0.295764 -2.26638 -0.275946 56
0.102574 -2.29376 -0.197449 59
-0.296854 -2.2686 -0.43712 52
0.104395 -2.29896 -0.359413 49
-0.297489 -2.26135 -0.601362 58
0.105835 -2.28805 -0.519974 45
-0.739036 -5.60167 1.29432 14
0.27871 -5.77813 1.53861 18
-0.704791 -5.3497 0.847177 1
0.268789 -5.78093 1.11714 20
-0.293935 -2.23724 0.194357 12
0.25362 -5.60466 0.683628 23
-0.299324 -2.275 0.0394424 82
0.0990598 -2.28692 0.118148 74
-0.299357 -2.2722 -0.118673 61
0.0978797 -2.28722 -0.0393552 90
-0.299977 -2.27083 -0.276554 55
0.098458 -2.29145 -0.197231 61
-0.301462 -2.27294 -0.438073 52
0.100044 -2.29174 -0.358238 50
-0.302076 -2.26561 -0.602656 58
0.102013 -2.28334 -0.518851 45
-0.772007 -5.62427 1.3005 15
0.249992 -5.79153 1.54184 14
-0.772775 -5.63706 0.893613 27
0.23134 -5.58851 1.07949 27
-0.304578 -2.23079 0.193922 12
0.223866 -5.596 0.682411 29
-0.310155 -2.26851 0.0393552 77
0.0871844 -2.2899 0.118279 79
-0.310514 -2.26818 -0.118542 62
0.0865007 -2.29268 -0.0394424 90
-0.312202 -2.27169 -0.276859 55
0.0869582 -2.2944 -0.197449 61
-0.312626 -2.26896 -0.437596 52
0.0882432 -2.29717 -0.359021 50
-0.312874 -2.25927 -0.601362 59
0.0902588 -2.28871 -0.519974 47
-0.786211 -5.66166 1.30948 20
0.230604 -5.57239 1.48304 14
-0.786015 -5.66016 0.897516 33
0.22099 -5.57419 1.07663 26
-0.3095 -2.23765 0.194575 12
0.214972 -5.61869 0.685149 18
-0.314458 -2.27044 0.0393988 73
0.0831876 -2.29005 0.118279 85
-0.315161 -2.27258 -0.118804 65
0.0821187 -2.28284 -0.0392679 90
-0.316166 -2.27114 -0.276859 56
0.0829536 -2.29455 -0.197449 64
-0.316926 -2.27084 -0.438073 52
0.0839468 -2.28992 -0.357847 50
-0.317828 -2.2659 -0.603302 58
0.0861672 -2.28643 -0.519413 45
-0.81718 -5.65973 1.31004 21
0.201067 -5.56386 1.48045 15
-0.814228 -5.64619 0.895955 29
0.193011 -5.60961 1.0833 15
-0.320856 -2.23354 0.194357 11
0.187901 -5.68918 0.693668 26
-0.325984 -2.26628 0.0393552 71
0.0713614 -2.29544 0.118541 88
-0.326698 -2.26843 -0.118673 62
0.0703288 -2.28823 -0.0393552 90
-0.328054 -2.26946 -0.276859 55
0.0710204 -2.29745 -0.197666 64
-0.328458 -2.26672 -0.437596 52
0.0721212 -2.29526 -0.35863 50
-0.329338 -2.26181 -0.602656 59
0.0741944 -2.28685 -0.519413 47
-0.821487 -5.62711 1.30274 15
0.192122 -5.58593 1.48627 12
-0.821223 -5.62521 0.892833 27
0.185112 -5.66635 1.09426 15
-0.324394 -2.23051 0.194139 12
0.17829 -5.69942 0.694885 38
-0.330663 -2.27066 0.0394424 70
0.0672766 -2.29307 0.11841 89
-0.331742 -2.27527 -0.119067 59
0.0662573 -2.28585 -0.0393115 90
-0.331653 -2.26642 -0.276554 53
0.0666993 -2.28761 -0.196796 64
-0.333129 -2.271 -0.438549 52
0.0678798 -2.28798 -0.357455 50
-0.333639 -2.26362 -0.603302 59
0.0699632 -2.27968 -0.517728 47
-0.850824 -5.61535 1.30106 15
0.164539 -5.64238 1.50113 14
-0.849184 -5.61107 0.891272 27
0.156065 -5.68932 1.09855 26
-0.337932 -2.24109 0.195229 11
0.148313 -5.69532 0.694276 35
-0.344046 -2.27878 0.039617 67
0.0552039 -2.29089 0.118279 90
-0.344048 -2.27344 -0.119067 61
0.0542877 -2.28617 -0.0393115 90
-0.343889 -2.26711 -0.276859 53
0.0544499 -2.29291 -0.197231 67
-0.345386 -2.27165 -0.439025 52
0.0558991 -2.28831 -0.357455 52
-0.346585 -2.26901 -0.605242 58
0.0580259 -2.28001 -0.517728 47
-0.857665 -5.5946 1.29657 15
0.156397 -5.70301 1.51729 20
-0.857104 -5.59737 0.889321 27
0.145336 -5.69697 1.09998 23
-0.341089 -2.23558 0.194793 11
0.138247 -5.69061 0.693668 29
-0.348041 -2.27565 0.0395733 61
0.0512665 -2.29348 0.11841 90
-0.349153 -2.28024 -0.119461 59
0.0503577 -2.28876 -0.0393552 90
-0.348224 -2.26896 -0.277163 55
0.0504479 -2.29301 -0.197231 70
-0.348976 -2.26862 -0.438549 52
0.0519052 -2.2884 -0.357455 52
-0.35094 -2.26834 -0.605242 58
0.0541094 -2.28254 -0.51829 47
-0.886008 -5.57784 1.29376 15
0.125263 -5.6917 1.51406 17
-0.883888 -5.57071 0.885809 26
0.115245 -5.68539 1.0976 15
-0.353961 -2.23862 0.195229 11
0.10682 -5.65902 0.689713 23
-0.359559 -2.27132 0.0395297 59
0.0388093 -2.29123 0.118279 90
-0.359911 -2.27098 -0.119067 58
0.0380204 -2.2915 -0.0393988 90
-0.360103 -2.26459 -0.276859 52
0.0383942 -2.29075 -0.197014 70
-0.361633 -2.26912 -0.439025 50
0.0399225 -2.28864 -0.357455 52
-0.362812 -2.26647 -0.605242 58
0.0416594 -2.27793 -0.517167 47
-0.890903 -5.55239 1.28814 15
0.114564 -5.65569 1.50436 14
-0.893029 -5.57175 0.886199 20
0.104752 -5.65614 1.09188 14
-0.357078 -2.23308 0.194793 11
0.0972103 -5.61948 0.684845 30
-0.363522 -2.27069 0.0395297 58
0.0352538 -2.29378 0.11841 90
-0.364667 -2.27528 -0.11933 58
0.0340209 -2.29156 -0.0393988 90
-0.36366 -2.26402 -0.276859 53
0.0343534 -2.28832 -0.196796 71
-0.365984 -2.27091 -0.439501 50
0.0359719 -2.29117 -0.357847 52
-0.367155 -2.26822 -0.605889 58
0.0382189 -2.2853 -0.518851 47
-0.92635 -5.5861 1.29713 15
0.0855487 -5.63205 1.4979 12
-0.930678 -5.61816 0.894394 18
0.0754552 -5.60997 1.08282 20
-0.36919 -2.23616 0.195229 11
0.0678176 -5.6224 0.685149 32
-0.374192 -2.26389 0.0394424 55
0.0232127 -2.29144 0.118279 90
-0.376575 -2.27334 -0.11933 56
0.0223922 -2.2892 -0.0393552 90
-0.375917 -2.26454 -0.277163 52
0.0223714 -2.28847 -0.196796 73
-0.377474 -2.26903 -0.439501 50
0.0239439 -2.28886 -0.357455 52
-0.378631 -2.26633 -0.605889 58
0.0261532 -2.27816 -0.517167 47
-0.940938 -5.61331 1.30387 15
0.0750276 -5.5839 1.48498 14
-0.945383 -5.64575 0.899077 20
0.0647455 -5.61501 1.08378 21
-0.372681 -2.23305 0.195011 11
0.058254 -5.64484 0.687887 30
-0.37978 -2.27057 0.0395733 56
0.0192394 -2.29398 0.11841 90
-0.380956 -2.27514 -0.119461 56
0.018422 -2.29174 -0.0393988 90
-0.380281 -2.26632 -0.277467 52
0.018352 -2.28602 -0.196579 76
-0.381842 -2.27078 -0.439977 52
0.0199224 -2.28643 -0.357064 52
-0.384193 -2.27274 -0.607829 56
0.022177 -2.27821 -0.517167 47
-0.975458 -5.63214 1.30948 15
0.0448793 -5.59147 1.48692 15
-0.98266 -5.67948 0.90532 26
0.0354499 -5.63 1.08663 21
-0.383908 -2.2261 0.194575 11
0.0277832 -5.65748 0.689408 30
-0.39081 -2.26362 0.0394861 55
0.00681499 -2.29155 0.118279 90
-0.392437 -2.27065 -0.11933 55
0.00601055 -2.28931 -0.0393552 90
-0.392963 -2.26668 -0.277771 53
0.00639444 -2.28857 -0.196796 76
-0.394122 -2.26869 -0.439977 50
0.0079504 -2.2865 -0.357064 52
-0.396504 -2.27308 -0.608475 58
0.00985044 -2.27829 -0.517167 47
-0.991025 -5.66899 1.31847 23
0.0352067 -5.60361 1.49015 15
-0.995834 -5.70225 0.909222 32
0.0256901 -5.64232 1.08902 23
-0.38908 -2.23278 0.195229 11
0.0190108 -5.68481 0.692755 30
-0.39476 -2.26293 0.0394861 55
0.00322414 -2.29405 0.11841 90
-0.39683 -2.27243 -0.119461 55
0.00202237 -2.29181 -0.0393988 92
-0.396523 -2.26606 -0.277771 50
0.00239229 -2.28609 -0.196579 79
-0.397655 -2.26558 -0.439501 50
0.00395969 -2.28651 -0.357064 53
-0.40005 -2.27 -0.607829 58
0.0062836 -2.28074 -0.517728 47
-1.02286 -5.67571 1.32127 21
0.00686924 -5.61579 1.49338 14
-1.02042 -5.6678 0.90454 20
-0.00285992 -5.66692 1.09378 20
-0.398168 -2.21853 0.194139 9
-0.0107731 -5.7022 0.694885 35
-0.406652 -2.26337 0.0395297 55
-0.00878313 -2.29154 0.118279 90
-0.40877 -2.27284 -0.119592 55
-0.00958274 -2.29429 -0.0394424 96
-0.408383 -2.26395 -0.277771 50
-0.00918819 -2.29105 -0.197014 82
-0.409993 -2.26837 -0.440453 50
-0.00801247 -2.2865 -0.357064 53
-0.411967 -2.27032 -0.608475 56
-0.00565921 -2.28318 -0.51829 47
-1.02479 -5.63575 1.31229 14
-0.00291784 -5.65685 1.50436 14
-1.02279 -5.62471 0.897906 15
-0.0127814 -5.689 1.09807 21
-0.403823 -2.22763 0.195011 9
-0.0207738 -5.71954 0.697014 36
-0.411049 -2.26511 0.0395733 53
-0.0128 -2.29652 0.118541 90
-0.412289 -2.26967 -0.119461 53
-0.0135774 -2.29177 -0.0393988 96
-0.413672 -2.27056 -0.278684 50
-0.0131777 -2.28854 -0.196796 82
-0.414394 -2.27006 -0.44093 50
-0.0120032 -2.28649 -0.357064 53
-0.415492 -2.26723 -0.607829 56
-0.00963899 -2.28073 -0.517728 47
-1.04718 -5.58703 1.30218 14
-0.0326313 -5.67608 1.50953 15
-1.0454 -5.58287 0.892053 15
-0.0426825 -5.70603 1.10141 26
-0.414564 -2.22059 0.194575 9
-0.0507208 -5.71936 0.697014 30
-0.423364 -2.26539 0.039617 55
-0.0248026 -2.29392 0.11841 90
-0.425024 -2.26986 -0.119592 52
-0.0255769 -2.29167 -0.0393988 97
-0.425096 -2.26592 -0.27838 50
-0.0255596 -2.28844 -0.196796 82
-0.426729 -2.27027 -0.441406 50
-0.0239543 -2.28392 -0.356672 53
-0.427358 -2.26502 -0.607829 56
-0.0215628 -2.27821 -0.517167 47
-1.05375 -5.56844 1.29825 14
-0.0427461 -5.70741 1.51793 18
-1.05009 -5.55435 0.88776 20
-0.0535533 -5.69612 1.0995 15
-0.418902 -2.22231 0.194793 9
-0.0606059 -5.70933 0.695797 27
-0.428178 -2.26703 0.0396606 53
-0.02878 -2.29138 0.118279 90
-0.42945 -2.27157 -0.119723 52
-0.0295766 -2.29162 -0.0393988 97
-0.429513 -2.26761 -0.278684 50
-0.0295267 -2.2859 -0.196579 82
-0.430232 -2.26711 -0.44093 50
-0.0279654 -2.28635 -0.357064 53
-0.432613 -2.26894 -0.609122 56
-0.025539 -2.27817 -0.517167 47
-1.0792 -5.53874 1.29264 15
-0.0733054 -5.68053 1.51083 15
-1.04422 -5.36438 0.858103 1
-0.0829712 -5.66632 1.09378 15
-0.431872 -2.2249 0.195229 9
-0.439564 -2.2623 0.039617 53
-0.0412564 -2.29618 0.118541 90
-0.44086 -2.26684 -0.119592 50
-0.0419749 -2.29143 -0.0393988 98
-0.440823 -2.26039 -0.278076 50
-0.0415352 -2.2882 -0.196796 85
-0.442964 -2.26716 -0.441406 50
-0.0399363 -2.28617 -0.357064 53
-0.444021 -2.26427 -0.608475 56
-0.0379 -2.28043 -0.517728 47
-1.10013 -5.59919 1.30724 14
-0.0827869 -5.649 1.50243 14
-1.05169 -5.35789 0.857323 1
-0.0924413 -5.63917 1.08854 15
-0.437675 -2.23392 0.1961 9
-0.444477 -2.26643 0.0397042 52
-0.0448632 -2.29611 0.118541 90
-0.444816 -2.26607 -0.119592 50
-0.0460191 -2.29385 -0.0394424 98
-0.445334 -2.26456 -0.278684 49
-0.0455288 -2.28813 -0.196796 85
-0.44692 -2.26638 -0.441406 50
-0.0438419 -2.28116 -0.356281 53
-0.449383 -2.2706 -0.610415 58
-0.0414429 -2.27794 -0.517167 47
-1.12267 -5.55992 1.29937 14
-0.111014 -5.62919 1.49726 14
-1.07338 -5.32084 0.85225 1
-0.120528 -5.61655 1.08425 15
-0.450947 -2.24144 0.196972 8
-0.0545617 -2.26231 0.273208 9
-0.455448 -2.2617 0.0396606 53
-0.0568849 -2.29585 0.118541 90
-0.45717 -2.26615 -0.119723 50
-0.0575135 -2.28859 -0.0393552 98
-0.457678 -2.26463 -0.278988 49
-0.057394 -2.28288 -0.196362 86
-0.459362 -2.2689 -0.442358 50
-0.0558405 -2.28337 -0.356672 53
-0.46087 -2.2683 -0.610415 58
-0.0533695 -2.27769 -0.517167 47
-1.12945 -5.54363 1.29601 14
-0.120192 -5.5976 1.48886 14
-0.130592 -5.58441 1.07806 14
