# .PCD v0.7 - Point Cloud Data file format
VERSION 0.7
FIELDS x y z intensity
SIZE 4 4 4 4
TYPE F F F F
COUNT 1 1 1 1
WIDTH 1619
HEIGHT 1
VIEWPOINT 0 0 0 1 0 0 0
POINTS 1619
DATA ascii
-0.965814 0.451473 -0.276109 4
-0.764639 0.207484 -0.174635 50
-2.65242 1.24262 0.667094 52
-2.7362 0.727484 0.748305 49
-2.6459 1.23901 0.456172 30
-2.74551 0.735017 0.545224 49
-1.44608 0.676479 0.136617 4
-2.75798 0.741906 0.345921 53
-1.41494 0.662179 0.0266585 8
-2.7717 0.747628 0.148634 98
-0.626626 0.292536 -0.0345255 58
-1.40453 0.658186 -0.185891 4
-0.638396 0.176256 -0.0547986 58
-1.27145 0.596484 -0.265701 3
-0.762107 0.20891 -0.119804 49
-0.958471 0.45007 -0.274169 4
-0.771374 0.210567 -0.17632 49
-2.66127 1.26381 0.671025 59
-2.73015 0.740696 0.747659 44
-2.64607 1.25603 0.457343 58
-2.74412 0.749547 0.5457 50
-1.44939 0.686996 0.13727 4
-2.74927 0.75503 0.345313 52
-1.41383 0.670405 0.0267022 8
-2.76775 0.76213 0.148634 71
-0.622831 0.294741 -0.0343942 58
-1.3921 0.661264 -0.184674 4
-0.637464 0.179596 -0.0547986 56
-1.26842 0.602912 -0.265701 3
-0.95836 0.455956 -0.274816 4
-0.765559 0.213324 -0.175197 49
-2.65906 1.26846 0.671025 59
-2.72885 0.745459 0.747659 45
-2.64387 1.26065 0.457343 58
-2.74505 0.755461 0.546177 52
-1.44369 0.687379 0.136835 4
-2.75752 0.762456 0.34653 58
-1.4193 0.67635 0.0268331 4
-2.77123 0.768286 0.148896 68
-0.626821 0.29798 -0.0346568 58
-1.3999 0.667976 -0.185891 4
-0.63715 0.180708 -0.0547986 56
-1.26515 0.604065 -0.265224 3
-0.765186 0.21466 -0.175197 49
-2.65436 1.28389 0.671587 61
-2.72245 0.759568 0.747013 49
-2.64368 1.27816 0.458513 59
-2.74105 0.769823 0.546177 50
-1.44443 0.69735 0.13727 4
-2.75335 0.777365 0.34653 73
-1.41799 0.684861 0.0268767 4
-2.76223 0.781916 0.148634 61
-0.616264 0.296905 -0.0341317 58
-1.38957 0.672292 -0.184978 4
-0.633797 0.183367 -0.0545811 55
-1.26186 0.610901 -0.265224 3
-0.764013 0.218796 -0.175197 45
-2.65672 1.29018 0.67271 64
-2.7188 0.763669 0.746366 49
-2.64366 1.28385 0.458904 59
-2.73971 0.774606 0.546177 50
-1.4365 0.696604 0.136617 4
-2.74961 0.781495 0.346225 61
-1.4168 0.687335 0.0268767 4
-2.76086 0.786736 0.148634 71
-0.620235 0.300165 -0.0343942 58
-1.39285 0.676889 -0.185587 4
-0.633476 0.184473 -0.0545811 55
-1.24535 0.605574 -0.261891 3
-2.65407 1.30669 0.673833 71
-2.71476 0.777894 0.746366 49
-2.64798 1.30313 0.460855 67
-2.7309 0.787589 0.545224 49
-1.444 0.709617 0.137706 4
-2.74309 0.795194 0.345921 52
-1.41542 0.695849 0.0269203 4
-2.76869 0.804645 0.149288 99
-0.614176 0.3012 -0.0341317 58
-1.38929 0.684173 -0.185587 4
-0.630109 0.187096 -0.0543637 55
-1.25317 0.617522 -0.264272 3
-2.65856 1.3141 0.675517 80
-2.7134 0.782631 0.746366 49
-2.65257 1.31058 0.462025 77
-2.73187 0.793034 0.5457 50
-1.43829 0.709928 0.13727 4
-2.73469 0.79743 0.345008 49
-1.40748 0.694992 0.0267894 4
-2.76023 0.806903 0.148896 98
-0.622599 0.306703 -0.0346568 58
-1.38599 0.685253 -0.185282 4
-0.634564 0.189586 -0.0547986 55
-1.24329 0.615345 -0.262367 3
-2.656 1.33019 0.67664 86
-2.7094 0.796355 0.746366 47
-2.64788 1.32555 0.462416 88
-2.72547 0.806159 0.545224 52
-1.44136 0.720545 0.137924 4
-2.72572 0.810332 0.3444 47
-1.41288 0.706587 0.026964 4
-2.75597 0.821344 0.148896 68
-0.618753 0.308839 -0.0345255 56
-0.628788 0.19149 -0.0543637 55
-1.24235 0.622732 -0.262844 3
-2.62974 1.32277 0.670464 38
-2.70801 0.801083 0.746366 45
-2.62351 1.31907 0.458513 45
-2.72156 0.810693 0.544747 50
-1.43788 0.721941 0.137706 4
-2.72668 0.815795 0.344704 49
-1.40706 0.70705 0.0268767 4
-2.74018 0.821874 0.148111 49
-0.618213 0.309918 -0.0345255 58
-0.633225 0.194012 -0.0547986 53
-1.25003 0.629322 -0.264748 3
-2.59868 1.3248 0.664287 33
-2.71057 0.817803 0.748305 47
-2.59873 1.32427 0.455392 35
-2.72198 0.82635 0.5457 49
-1.43839 0.731973 0.138142 4
-2.7246 0.831256 0.345008 53
-1.40334 0.714407 0.0268767 4
-0.616582 0.313151 -0.0345255 58
-0.632201 0.197325 -0.0547986 53
-1.23131 0.628253 -0.261415 3
-2.57491 1.31777 0.658671 32
-2.71146 0.823231 0.748951 47
-2.57907 1.31934 0.45227 33
-2.71819 0.830386 0.545224 49
-1.43046 0.731076 0.137488 4
-2.72803 0.836982 0.345617 80
-1.40654 0.719135 0.026964 8
-0.620478 0.316504 -0.034788 58
-0.631855 0.198428 -0.0547986 53
-1.23021 0.630401 -0.261415 3
-2.55284 1.32338 0.654741 33
-2.70725 0.836944 0.748951 49
-2.5502 1.32146 0.448368 33
-2.71395 0.844134 0.545224 49
-1.42674 0.738307 0.137488 4
-2.72125 0.850518 0.345313 52
-1.39622 0.722792 0.0268331 4
-0.625459 0.3232 -0.0351819 56
-0.633185 0.202475 -0.055016 53
-1.23572 0.641149 -0.26332 3
-2.53109 1.31769 0.649687 33
-2.7104 0.843094 0.750244 50
-2.52818 1.31564 0.444856 32
-2.71935 0.851531 0.546653 47
-1.41882 0.737345 0.136835 4
-2.71502 0.853786 0.344704 47
-1.39705 0.726627 0.0268767 4
-0.620467 0.321983 -0.0349193 56
-0.635207 0.204325 -0.0552335 53
-1.23024 0.641033 -0.262367 3
-1.9851 0.626382 -0.324568 14
-2.50238 1.31999 0.644072 33
-2.7012 0.856295 0.748951 49
-2.50138 1.31892 0.441344 33
-2.71954 0.867241 0.547607 49
-1.41922 0.747335 0.13727 4
-2.71273 0.869216 0.345008 47
-1.39323 0.733931 0.0268767 4
-0.623188 0.327559 -0.0351819 56
-0.629384 0.206132 -0.0547986 49
-1.21808 0.643087 -0.260463 3
-1.97944 0.636017 -0.324176 12
-2.48093 1.31365 0.639018 35
-2.69739 0.860278 0.748305 47
-2.48185 1.3136 0.438222 33
-2.71802 0.871986 0.547607 50
-1.42671 0.754475 0.138142 4
-2.71845 0.875747 0.345921 47
-1.39857 0.739874 0.0270076 4
-0.615998 0.325137 -0.034788 56
-0.624281 0.205706 -0.0543637 45
-1.21912 0.646364 -0.260939 3
-1.97362 0.637963 -0.323393 14
-0.943868 0.500893 -0.276756 4
-2.45685 1.31741 0.634526 35
-2.68841 0.872437 0.747013 45
-2.45753 1.31723 0.4351 33
-2.71357 0.885732 0.547607 52
-1.41849 0.759332 0.137706 4
-2.71382 0.889968 0.345921 47
-1.39481 0.746944 0.0270076 4
-0.614287 0.328358 -0.034788 56
-0.623196 0.208972 -0.0543637 38
-1.21368 0.651363 -0.260463 3
-1.96556 0.646756 -0.32261 14
-0.945572 0.507955 -0.278049 4
-2.43524 1.31129 0.629472 35
-2.68459 0.876382 0.746366 45
-2.43783 1.31215 0.431978 33
-2.70953 0.890178 0.54713 49
-1.42374 0.76535 0.13836 4
-2.71698 0.89625 0.34653 47
-1.38897 0.747248 0.0269203 4
-0.618108 0.3318 -0.0350506 56
-0.632293 0.213174 -0.0552335 36
-1.21254 0.653481 -0.260463 3
-1.96208 0.649415 -0.322219 14
-0.940348 0.50747 -0.276756 4
-2.41529 1.31744 0.626103 36
-2.67751 0.890137 0.74572 45
-2.41553 1.31704 0.429247 35
-2.70483 0.904353 0.54713 49
-1.41302 0.769463 0.137706 4
-2.70974 0.910151 0.346225 49
-1.38065 0.752115 0.0268331 4
-0.614171 0.333835 -0.0349193 56
-0.631168 0.216482 -0.0552335 29
-1.20468 0.657675 -0.25951 3
-1.94929 0.656549 -0.320653 14
-0.946148 0.51703 -0.279342 4
-2.39399 1.31069 0.621049 36
-2.67366 0.894046 0.745074 45
-2.3983 1.31252 0.426515 35
-2.6986 0.907516 0.546177 45
-2.71772 0.917566 0.347442 90
-1.37495 0.75212 0.0267458 4
-0.620155 0.338508 -0.0353131 56
-0.628429 0.216788 -0.055016 24
-1.20568 0.660959 -0.259987 3
-1.94814 0.65995 -0.320653 14
-0.943129 0.517516 -0.278696 4
-2.37218 1.31493 0.617118 36
-2.66453 0.906021 0.743782 49
-2.3698 1.31308 0.422613 35
-2.68932 0.919582 0.545224 45
-2.70348 0.928575 0.346225 50
-1.37769 0.762708 0.0268767 4
-0.616191 0.340538 -0.0351819 55
-1.36952 0.759423 -0.187716 4
-0.631997 0.221691 -0.0554509 29
-1.19803 0.664667 -0.259034 3
-1.93298 0.666146 -0.318695 12
-0.942607 0.523459 -0.279342 4
-2.35286 1.30958 0.612626 35
-2.66523 0.911447 0.744428 49
-2.35024 1.3076 0.419491 33
-2.68755 0.924744 0.545224 44
-2.70186 0.933292 0.346225 47
-1.37185 0.762918 0.0267894 4
-0.619957 0.344044 -0.0354444 56
-1.43728 0.50051 -0.0259605 4
-1.36603 0.760603 -0.187412 4
-0.6269 0.22117 -0.055016 29
-1.19687 0.666757 -0.259034 4
-1.92948 0.668716 -0.318303 12
-0.939493 0.524088 -0.278696 4
-2.33089 1.31391 0.608696 36
-2.66026 0.925854 0.744428 47
-2.33023 1.31302 0.41715 35
-2.67572 0.936383 0.543794 44
-2.69208 0.946259 0.345617 44
-1.37655 0.775003 0.026964 8
-0.613799 0.344832 -0.0351819 56
-1.42983 0.506624 -0.0258732 4
-1.36189 0.767983 -0.187412 4
-0.625733 0.224449 -0.055016 47
-1.18256 0.667182 -0.256653 3
-1.92828 0.679625 -0.318695 12
-0.940939 0.531381 -0.279989 4
-2.31398 1.30917 0.604765 38
-2.65179 0.928114 0.742489 47
-2.31312 1.30816 0.414418 35
-2.67176 0.940241 0.543317 45
-2.68591 0.948841 0.345008 44
-0.613196 0.345902 -0.0351819 55
-1.42895 0.509119 -0.0258732 4
-1.35421 0.766449 -0.186499 4
-0.622992 0.224713 -0.0547986 50
-1.1878 0.672881 -0.258082 3
-1.9201 0.680531 -0.31752 12
-0.935811 0.530634 -0.278696 4
-2.29442 1.314 0.601396 36
-2.65162 0.943135 0.743782 45
-2.29339 1.31289 0.412077 35
-2.66697 0.953752 0.543317 45
-2.67857 0.962056 0.344704 42
-0.613542 0.350351 -0.0353131 53
-1.42635 0.516345 -0.0258732 4
-1.35018 0.773529 -0.186499 4
-0.62884 0.230493 -0.0554509 50
-1.17374 0.672771 -0.255701 3
-1.91186 0.688912 -0.316737 12
-0.9373 0.537773 -0.279989 4
-1.05901 0.382676 -0.251564 3
-2.27312 1.30706 0.596342 36
-2.64769 0.946952 0.743135 45
-2.27183 1.3058 0.408565 36
-2.66745 0.959697 0.543794 47
-2.66988 0.964213 0.343792 41
-1.47091 0.534643 0.0802048 4
-0.612929 0.351421 -0.0353131 55
-1.43015 0.520528 -0.0259605 4
-0.628437 0.23159 -0.0554509 50
-1.18106 0.679724 -0.257606 4
-1.91066 0.692248 -0.316737 12
-0.934175 0.538363 -0.279342 4
-1.06293 0.386168 -0.252687 3
-2.24918 1.30952 0.59185 38
-2.64707 0.962907 0.744428 47
-2.25193 1.31062 0.406223 36
-2.66238 0.973651 0.543794 50
-2.24534 1.30626 0.224208 35
-2.66229 0.977793 0.343487 41
-1.46799 0.542593 0.0802048 4
-0.611081 0.354625 -0.0353131 53
-1.42262 0.526538 -0.0258732 4
-0.624877 0.234021 -0.0552335 47
-1.16889 0.681152 -0.255701 3
-1.90237 0.700547 -0.315954 12
-0.927174 0.540808 -0.278049 4
-1.05854 0.391079 -0.252126 3
-2.2324 1.30444 0.587919 36
-2.64539 0.967525 0.744428 47
-2.23282 1.30418 0.403102 36
-2.66068 0.978296 0.543794 50
-2.23015 1.30264 0.222901 35
-2.65144 0.978553 0.34227 38
-1.46245 0.543175 0.0799432 4
-0.612616 0.356952 -0.0354444 53
-1.42873 0.531613 -0.0260041 4
-0.622131 0.23425 -0.055016 47
-1.16558 0.68195 -0.255225 3
-1.90114 0.703866 -0.315954 12
-0.924147 0.541202 -0.277403 4
-1.06936 0.396931 -0.254933 4
-2.21296 1.30867 0.58455 36
-2.63819 0.980065 0.743782 47
-2.21108 1.30705 0.40037 35
-2.6557 0.99175 0.543794 50
-2.21067 1.3063 0.221593 35
-2.6393 0.98982 0.341358 36
-1.46894 0.554322 0.0804665 4
-0.619394 0.365136 -0.0359695 50
-1.42837 0.539714 -0.0260477 4
-0.620937 0.237396 -0.055016 47
-1.17056 0.69285 -0.25713 3
-1.89281 0.712083 -0.315171 12
-0.931776 0.552041 -0.280636 4
-1.06727 0.402525 -0.254933 4
-2.19205 1.30094 0.579496 35
-2.63648 0.984668 0.743782 47
-2.19606 1.30334 0.398029 36
-2.65396 0.996384 0.543794 50
-2.19554 1.30252 0.220286 36
-2.62363 0.989196 0.339532 33
-1.45862 0.553371 0.0799432 4
-0.623048 0.368768 -0.0362321 47
-1.42742 0.542206 -0.0260477 4
-0.61586 0.236726 -0.0545811 45
-1.16513 0.69238 -0.256177 3
-1.88925 0.714518 -0.31478 12
-0.924589 0.549955 -0.278696 4
-1.062 0.402679 -0.25381 3
-2.17223 1.30563 0.576127 36
-2.63563 1.00062 0.745074 49
-2.16993 1.30374 0.394517 36
-2.64853 1.01073 0.543794 50
-2.17352 1.3054 0.218761 38
-2.60433 0.998073 0.337707 30
-1.45561 0.561255 0.0799432 4
-0.623183 0.373421 -0.0363633 42
-1.42213 0.549028 -0.0260041 4
-0.623875 0.243612 -0.0554509 45
-1.16557 0.701208 -0.25713 3
-1.88317 0.72352 -0.314388 12
-0.927802 0.558694 -0.280636 4
-1.05525 0.406687 -0.252687 3
-2.15558 1.30022 0.572196 36
-2.63162 1.00437 0.744428 47
-2.1552 1.29949 0.392175 36
-2.64676 1.01535 0.543794 50
-2.15631 1.30018 0.217236 38
-2.59117 0.997724 0.336186 30
-1.46638 0.568014 0.0805974 4
-0.62894 0.378381 -0.0367572 38
-1.41884 0.550613 -0.0259605 4
-0.618799 0.242914 -0.055016 44
-1.15805 0.699429 -0.255701 3
-1.88421 0.72769 -0.31478 12
-0.930955 0.562817 -0.281929 4
-1.05689 0.409214 -0.253249 3
-2.13835 1.30514 0.569389 36
-2.6265 1.01767 0.744428 45
-2.13783 1.30432 0.390224 36
-2.64159 1.02873 0.543794 50
-2.13695 1.30329 0.215928 36
-2.56279 1.00228 0.333143 29
-1.45408 0.572057 0.080074 4
-0.622691 0.379065 -0.0364946 36
-1.41371 0.556878 -0.0259168 4
-0.624479 0.248867 -0.0556684 44
-1.15031 0.702718 -0.254749 3
-1.87808 0.736649 -0.314388 12
-0.921919 0.563734 -0.279989 4
-1.05246 0.41386 -0.252687 3
-2.11946 1.29868 0.564896 35
-2.62472 1.02226 0.744428 47
-2.12081 1.29901 0.387493 38
-2.63961 1.0338 0.543794 50
-2.11981 1.29791 0.214403 38
-2.56334 1.00766 0.333447 27
-1.45308 0.574594 0.080074 4
-1.42437 0.563909 -0.026135 4
-0.619407 0.248137 -0.0552335 42
-1.14699 0.703439 -0.254273 3
-1.87909 0.740826 -0.31478 12
-0.924947 0.568036 -0.281282 4
-1.054 0.416582 -0.253249 3
-2.09584 1.29984 0.560404 36
-2.61466 1.03467 0.743135 47
-2.09907 1.30135 0.384761 36
-2.63188 1.04671 0.543317 50
-2.10218 1.30279 0.213314 39
-2.54863 1.01784 0.33223 30
-1.71241 1.06135 0.0345558 12
-1.45691 0.585218 0.0804665 4
-1.41201 0.567905 -0.0259605 4
-0.618099 0.251377 -0.0552335 39
-1.13691 0.705745 -0.252844 3
-1.87289 0.749743 -0.314388 12
-0.919911 0.571594 -0.280636 4
-1.05626 0.424074 -0.254372 3
-2.07932 1.29412 0.556474 38
-2.61734 1.04101 0.744428 45
-2.08654 1.29812 0.38281 38
-2.63233 1.05221 0.543794 49
-2.08722 1.29856 0.212006 39
-2.55394 1.02461 0.333143 29
-1.69359 1.05376 0.0342067 12
-1.45367 0.586578 0.0803357 4
-1.41333 0.571299 -0.0260041 4
-0.622284 0.254307 -0.0556684 36
-1.13152 0.705128 -0.251892 3
-0.929148 0.579603 -0.283869 3
-1.05333 0.424832 -0.25381 3
-2.06428 1.29979 0.554227 38
-2.61204 1.05425 0.744428 45
-2.06927 1.30245 0.380859 38
-2.62469 1.0646 0.543317 49
-2.06587 1.29981 0.210481 38
-2.54854 1.03796 0.333143 26
-1.68189 1.05832 0.0340758 12
-1.45289 0.595121 0.0804665 4
-1.40811 0.577503 -0.0259605 4
-0.627865 0.260375 -0.0563208 35
-1.12586 0.709535 -0.251416 3
-0.926203 0.584298 -0.283869 3
-1.05787 0.433081 -0.255495 3
-2.0476 1.29427 0.550297 36
-2.61243 1.05971 0.745074 45
-2.0503 1.29549 0.377737 38
-2.62492 1.07056 0.543794 49
-2.05097 1.29543 0.209174 39
-2.54673 1.04241 0.333143 24
-1.66507 1.05219 0.0337704 12
-1.4611 0.601429 0.0809899 4
-1.41635 0.583741 -0.026135 4
-0.629716 0.262412 -0.0565382 33
-1.12669 0.712813 -0.251892 3
-0.931194 0.58996 -0.285809 4
-1.05485 0.434009 -0.254933 3
-2.02826 1.29745 0.546928 38
-2.61113 1.07566 0.746366 47
-2.03078 1.29858 0.375396 38
-2.61247 1.08148 0.542364 47
-2.03134 1.29845 0.207866 39
-2.54793 1.05902 0.334056 26
-1.65953 1.0609 0.0337704 11
-1.45321 0.607414 0.0807282 4
-1.40856 0.58948 -0.0260477 4
-1.11456 0.713597 -0.249987 3
-0.926061 0.593522 -0.285162 4
-1.05474 0.44064 -0.255495 3
-2.01597 1.29404 0.54412 36
-2.60925 1.08021 0.746366 47
-2.01628 1.29376 0.373054 39
-2.01441 1.29257 0.206341 41
-2.54626 1.06302 0.334056 24
-1.65558 1.06244 0.0337268 12
-1.44995 0.608736 0.0805974 4
-1.41214 0.593861 -0.026135 4
-1.10918 0.712883 -0.249035 3
-0.922994 0.593828 -0.284516 3
-1.05855 0.444162 -0.256618 4
-1.99895 1.29794 0.541312 38
-2.60375 1.09341 0.746366 47
-1.99705 1.29622 0.370713 39
-1.99948 1.29732 0.20547 41
-2.54981 1.08019 0.335273 24
-1.64599 1.06808 0.0336395 12
-1.44444 0.615348 0.0804665 4
-1.59759 1.03742 -0.0983254 14
-1.41833 0.604895 -0.0263095 4
-1.10556 0.718488 -0.249035 3
-1.48825 0.633279 -0.250962 9
-0.922 0.599812 -0.285162 4
-1.05621 0.449699 -0.256618 3
-1.9824 1.29211 0.537382 38
-2.60406 1.09888 0.747013 49
-1.98238 1.29161 0.368372 41
-1.9847 1.29265 0.204162 41
-2.55477 1.08755 0.336186 26
-1.64603 1.07261 0.0336831 12
-1.45026 0.620795 0.0808591 4
-1.6125 1.05113 -0.0993756 14
-1.41267 0.605415 -0.0262222 4
-1.09609 0.715044 -0.24713 3
-1.47577 0.631056 -0.249005 8
-0.924886 0.604228 -0.286455 3
-1.05094 0.449644 -0.255495 3
-1.96319 1.29476 0.534012 39
-2.6003 1.1139 0.747659 49
-1.96093 1.2928 0.36564 38
-1.96313 1.29377 0.202637 41
-1.64665 1.08534 0.033814 12
-1.44229 0.626657 0.0805974 4
-1.41167 0.614039 -0.0262659 4
-1.08606 0.716901 -0.245702 3
-0.92171 0.609062 -0.286455 3
-1.03953 0.45148 -0.253249 3
-1.94694 1.28842 0.530082 39
-2.60945 1.1232 0.75089 42
-1.95067 1.29042 0.364079 39
-1.95464 1.29307 0.201983 42
-2.78631 1.20867 0.368131 14
-1.64475 1.08821 0.033814 12
-1.45047 0.632887 0.0811207 4
-1.41518 0.61849 -0.0263531 4
-1.08072 0.71608 -0.244749 3
-0.93271 0.618695 -0.290335 4
-1.0433 0.455041 -0.254372 3
-1.93207 1.29317 0.527836 39
-2.88062 1.25667 0.831665 26
-1.93157 1.29237 0.361738 39
-2.8706 1.25822 0.601938 27
-1.93772 1.29601 0.200894 42
-2.76176 1.21527 0.365697 20
-1.44257 0.638466 0.0808591 4
-1.40288 0.621623 -0.0261786 4
-1.07505 0.720173 -0.244273 3
-1.45891 0.645071 -0.247439 4
-0.925559 0.620712 -0.289042 4
-1.03197 0.456593 -0.252126 3
-1.9197 1.28975 0.525028 39
-2.85186 1.2501 0.823911 26
-1.91907 1.28885 0.359787 41
-2.83447 1.24894 0.59479 26
-1.92512 1.29245 0.199805 41
-2.76645 1.22309 0.36661 27
-1.44145 0.640983 0.0808591 4
-1.41094 0.628108 -0.0263531 4
-1.06768 0.717933 -0.242845 4
-1.4623 0.649608 -0.248222 4
-0.928368 0.625191 -0.290335 3
-1.04009 0.462314 -0.254372 3
-1.90263 1.29326 0.52222 39
-2.81856 1.25377 0.816157 26
-1.90798 1.29643 0.359006 41
-2.80323 1.25279 0.589547 24
-1.90574 1.29444 0.198497 42
-2.75752 1.23703 0.366305 23
-1.4334 0.646733 0.0805974 4
-1.40296 0.633689 -0.0262659 4
-1.06581 0.725081 -0.243321 3
-1.45888 0.657256 -0.248222 4
-0.917105 0.624596 -0.287749 3
-1.0309 0.464958 -0.252687 3
-1.88852 1.288 0.518851 39
-2.77444 1.24004 0.803879 24
-1.89371 1.29108 0.356665 39
-2.74727 1.23364 0.578109 24
-1.8932 1.29074 0.197408 41
-2.73067 1.23019 0.362959 15
-1.88123 1.28305 0.039137 35
-1.44149 0.653078 0.0811207 4
-1.39957 0.635111 -0.0262222 4
-1.06454 0.726941 -0.243321 4
-1.45548 0.658789 -0.24783 4
-0.916013 0.626195 -0.287749 3
-1.02572 0.464586 -0.251564 3
-1.87173 1.29095 0.516044 39
-2.74612 1.24413 0.797417 55
-1.87473 1.29256 0.354324 39
-2.74322 1.24854 0.578585 53
-1.87844 1.29465 0.196536 42
-2.69031 1.22905 0.358395 14
-1.87471 1.29256 0.039137 41
-1.42897 0.656475 0.0805974 4
-1.40543 0.646336 -0.0263968 4
-1.06287 0.733716 -0.243797 4
-0.920772 0.636326 -0.290335 3
-1.02993 0.472972 -0.253249 3
-1.86146 1.28867 0.513797 39
-2.74174 1.24793 0.79677 44
-1.86232 1.28879 0.352372 39
-2.72295 1.24566 0.574773 32
-1.85775 1.28516 0.194575 41
-2.65657 1.21931 0.354136 14
-1.86606 1.29188 0.0390061 42
-1.43009 0.660007 0.0807282 4
-1.40885 0.650871 -0.026484 4
-1.05554 0.73137 -0.242368 4
-0.913602 0.633954 -0.288395 3
-1.02689 0.473757 -0.252687 3
-1.8405 1.28893 0.509867 39
-2.70203 1.24761 0.787077 26
-1.84319 1.29035 0.350031 39
-2.68966 1.24756 0.569053 26
-1.84465 1.29091 0.193922 42
-2.62742 1.22323 0.351093 14
-1.84699 1.29303 0.0387443 42
-1.42876 0.668787 0.0808591 4
-1.4053 0.658484 -0.026484 4
-1.19312 0.835907 -0.17433 9
-1.05157 0.73707 -0.242368 4
-0.912245 0.640119 -0.289042 3
-1.01768 0.476237 -0.251003 3
-1.82851 1.28481 0.507059 39
-2.67793 1.2422 0.780615 26
-1.83308 1.28756 0.34847 41
-2.66299 1.24089 0.563811 30
-1.83017 1.28553 0.192614 42
-2.5985 1.21479 0.347442 15
-1.83451 1.28906 0.0385262 41
-1.42997 0.672085 0.0809899 4
-1.41095 0.664108 -0.0266149 4
-1.19992 0.843496 -0.175547 11
-1.04827 0.73749 -0.241892 4
-0.917044 0.645889 -0.290982 3
-1.02577 0.481941 -0.253249 3
-1.81382 1.28872 0.504813 39
-2.65848 1.24959 0.776738 49
-1.81827 1.29141 0.346909 41
-2.65667 1.25435 0.563811 58
-1.81756 1.29045 0.191961 42
-2.58537 1.2252 0.34653 15
-1.81981 1.29253 0.0383517 41
-1.42418 0.678496 0.0808591 4
-1.39401 0.664827 -0.0263531 4
-1.04852 0.745635 -0.242845 4
-1.02543 0.488344 -0.25381 3
-1.80188 1.28449 0.502005 41
-2.66067 1.25629 0.77803 56
-1.80194 1.28454 0.344178 41
-2.66336 1.26318 0.565717 58
-1.80111 1.28349 0.190435 42
-2.5608 1.21908 0.343487 24
-1.80535 1.28699 0.0380899 41
-1.43427 0.686335 0.0815132 4
-1.39511 0.668332 -0.0263968 4
-1.03724 0.740324 -0.240464 4
-1.02017 0.488049 -0.252687 3
-1.78678 1.28882 0.499759 41
-2.65819 1.27274 0.779323 56
-1.78696 1.28849 0.342617 42
-2.6587 1.27863 0.566194 58
-1.78808 1.28884 0.189782 42
-2.55864 1.23507 0.344096 26
-1.79025 1.29089 0.0379153 41
-1.42603 0.691919 0.0812516 4
-1.38922 0.674785 -0.0263531 4
-1.02411 0.496723 -0.254372 4
-1.77489 1.28448 0.496952 41
-2.65815 1.27842 0.779969 56
-1.77693 1.2855 0.341056 42
-2.65867 1.28433 0.56667 59
-1.77574 1.28466 0.188692 44
-2.56117 1.24124 0.344704 26
-1.77788 1.28668 0.0376972 42
-1.4182 0.690899 0.0808591 4
-1.39254 0.679387 -0.0264404 4
-1.01016 0.491987 -0.251003 3
-1.75831 1.28656 0.494144 41
-2.65816 1.29502 0.781908 58
-1.75623 1.28458 0.338324 42
-2.65876 1.301 0.5681 61
-1.76118 1.28774 0.187821 44
-2.55464 1.25464 0.344704 27
-1.76529 1.29123 0.0375663 42
-1.42353 0.702708 0.0813824 4
-1.39357 0.688627 -0.0265277 4
-1.75976 1.28906 -0.263168 42
-1.01414 0.500476 -0.252687 4
-1.74625 1.28241 0.491336 41
-2.66241 1.30284 0.783846 64
-1.74802 1.28325 0.337154 42
-2.65625 1.3061 0.5681 68
-1.74689 1.28197 0.186513 44
-2.55022 1.258 0.3444 27
-1.75073 1.28573 0.0373045 44
-1.42006 0.704089 0.0812516 4
-1.39685 0.693267 -0.0266149 4
-1.74752 1.28477 -0.261647 44
-1.00451 0.497955 -0.250441 3
-1.72561 1.28166 0.487406 41
-2.66182 1.32043 0.785785 74
-1.73114 1.28532 0.335203 42
-2.65597 1.32326 0.56953 77
-1.72594 1.281 0.184988 42
-2.55004 1.2751 0.345313 32
-1.73595 1.28891 0.03713 42
-1.4207 0.713991 0.0815132 4
-1.39084 0.699698 -0.0265713 4
-1.73258 1.28828 -0.26043 44
-1.00617 0.505551 -0.251564 3
-1.72359 1.28437 0.487406 42
-2.65302 1.32185 0.783846 59
-1.72516 1.28509 0.334422 42
-2.64927 1.3257 0.568577 53
-1.7237 1.28401 0.184988 44
-2.55691 1.28354 0.34653 23
-1.72368 1.28447 0.0369118 42
-1.41511 0.713986 0.0812516 4
-1.38068 0.697643 -0.0263968 4
-1.72459 1.28654 -0.259517 45
-0.996651 0.50278 -0.249318 4
-1.69934 1.28017 0.482352 42
-2.63119 1.32767 0.779323 33
-1.70658 1.28518 0.332081 41
-2.62061 1.32804 0.563811 33
-1.70127 1.28073 0.183245 42
-2.53244 1.28794 0.344096 23
-1.70518 1.28414 0.0366501 42
-1.42026 0.725904 0.0817749 4
-1.38828 0.710281 -0.0266149 4
-1.70397 1.28509 -0.257387 47
-1.96681 1.00236 -0.344535 12
-0.996179 0.509091 -0.24988 4
-1.69516 1.28167 0.48179 42
-2.59868 1.31703 0.770276 32
-1.69842 1.28369 0.33091 42
-2.59179 1.31975 0.558092 30
-1.69903 1.28369 0.183245 44
-2.52356 1.28898 0.343183 14
-1.69673 1.28289 0.0365192 42
-1.40787 0.722714 0.0811207 4
-1.69247 1.28013 -0.109746 23
-1.37813 0.708161 -0.0264404 4
-1.97826 1.01251 -0.346884 12
-0.995289 0.510829 -0.24988 3
-1.67853 1.28341 0.478983 42
-2.57647 1.32337 0.765752 30
-1.68361 1.28686 0.329349 41
-2.5652 1.32321 0.553802 30
-1.67623 1.28076 0.181502 44
-2.49669 1.29239 0.340445 15
-1.68602 1.28872 0.0364319 44
-1.41059 0.733757 0.0815132 4
-1.68773 1.29049 -0.109878 27
-1.38538 0.721345 -0.0266585 4
-1.97513 1.02399 -0.347276 14
-0.990344 0.515092 -0.249318 4
-1.66878 1.28011 0.476737 42
-2.55482 1.31794 0.759937 30
-1.67375 1.28348 0.327788 42
-2.54108 1.31643 0.549036 32
-1.67005 1.28065 0.181066 45
-2.48805 1.29289 0.339532 15
-1.67386 1.28404 0.0362137 44
-1.40501 0.733675 0.0812516 4
-1.67162 1.28278 -0.108959 30
-1.37968 0.721458 -0.0265713 4
-1.96676 1.02403 -0.346101 14
-0.993863 0.518883 -0.250441 4
-1.65051 1.27987 0.473367 42
-2.52883 1.32082 0.754121 30
-1.65726 1.28466 0.325837 42
-2.51916 1.32132 0.5457 30
-1.65174 1.27993 0.179759 44
-2.47685 1.30359 0.338924 21
-1.65549 1.2833 0.035952 44
-1.40336 0.742182 0.0813824 4
-1.65919 1.28663 -0.108565 35
-1.38265 0.73192 -0.0267022 4
-1.93951 1.02284 -0.342186 14
-0.984657 0.520691 -0.248757 4
-1.64274 1.27797 0.471683 42
-2.50298 1.31293 0.747013 30
-1.64722 1.28148 0.324276 42
-2.49511 1.31432 0.540934 30
-1.64361 1.27822 0.179105 44
-2.46798 1.30445 0.338011 27
-1.64733 1.28158 0.0358211 45
-1.40868 0.748123 0.0817749 4
-1.64315 1.27879 -0.107646 38
-1.37253 0.729666 -0.0265277 4
-1.9268 1.02047 -0.340228 14
-0.988059 0.524675 -0.24988 3
-1.62814 1.28081 0.469437 44
-2.48113 1.31811 0.742489 32
-1.63079 1.28245 0.322325 44
-2.46869 1.317 0.536645 32
-1.62515 1.27756 0.177798 45
-2.45236 1.31268 0.336794 32
-1.63078 1.28246 0.0356029 45
-1.40034 0.753137 0.0815132 4
-1.63033 1.28302 -0.107252 39
-1.3753 0.740377 -0.0266585 4
-1.90618 1.02241 -0.337488 14
-0.985299 0.529842 -0.24988 4
-1.61826 1.2776 0.467191 44
-2.46176 1.31338 0.737319 32
-1.61886 1.27764 0.320374 42
-2.45317 1.3148 0.533785 32
-1.61705 1.27577 0.177144 45
-2.43256 1.30759 0.33436 32
-1.62047 1.27938 0.0354284 45
-1.40563 0.759119 0.0819058 4
-1.62221 1.28122 -0.106858 42
-1.3674 0.739231 -0.0265277 4
-1.61741 1.27924 -0.393313 47
-1.89786 1.02224 -0.336313 14
-0.988669 0.533857 -0.251003 3
-1.60181 1.27874 0.464383 44
-2.43973 1.31867 0.732796 32
-1.60228 1.27867 0.318423 42
-2.43114 1.31946 0.530449 32
-1.60234 1.27828 0.176272 45
-2.408 1.31127 0.331926 32
-1.60789 1.28317 0.0352975 45
-1.61158 1.28658 -0.106596 44
-1.36338 0.746618 -0.0265277 4
-1.60663 1.2849 -0.392361 52
-1.87928 1.02543 -0.333964 14
-0.981482 0.536879 -0.24988 3
-1.5922 1.27515 0.462137 42
-2.42468 1.31603 0.728919 32
-1.59427 1.27683 0.317252 42
-2.40726 1.312 0.525683 32
-1.59428 1.2764 0.175619 45
-2.3861 1.30479 0.329188 33
-1.5998 1.28128 0.0351666 45
-1.5996 1.28158 -0.105939 45
-1.35769 0.746601 -0.0264404 4
-1.59482 1.28002 -0.38998 52
-1.86882 1.02398 -0.332398 14
-1.58955 1.27759 -0.5367 58
-0.984824 0.540918 -0.251003 3
-1.57771 1.27761 0.459891 45
-2.39657 1.31712 0.722457 32
-1.57797 1.27738 0.315301 44
-2.3853 1.31631 0.522347 33
-1.5779 1.27689 0.174529 45
-2.3662 1.31008 0.327363 33
-1.5853 1.28335 0.0349921 44
-1.58899 1.28679 -0.105677 45
-1.36689 0.760955 -0.0267022 4
-1.58429 1.28526 -0.389027 53
-1.85064 1.02627 -0.330049 14
-1.57722 1.28132 -0.53476 58
-0.981978 0.546067 -0.251003 3
-1.57003 1.27548 0.458206 44
-2.37522 1.31083 0.716641 33
-1.57021 1.27518 0.314131 44
-2.36581 1.31099 0.518534 33
-1.57181 1.2765 0.174094 47
-2.34894 1.30538 0.325233 33
-1.57531 1.2798 0.0348176 47
-1.57512 1.28011 -0.104889 47
-1.36119 0.760913 -0.0266149 4
-1.56873 1.27716 -0.385694 52
-1.83372 1.02112 -0.327308 14
-1.56376 1.27491 -0.53088 59
-0.97259 0.542897 -0.248757 3
-1.5558 1.27749 0.45596 44
-2.35378 1.31462 0.712117 33
-1.55779 1.27868 0.31296 44
-2.34415 1.31457 0.515198 35
-1.56148 1.28128 0.173658 45
-2.32475 1.30796 0.322799 35
-1.55915 1.27982 0.0345994 45
-1.56647 1.28675 -0.104758 47
-1.35732 0.767793 -0.0266149 4
-1.55467 1.27885 -0.38379 52
-1.81543 1.02346 -0.324959 14
-1.55356 1.27973 -0.529587 58
-0.969734 0.547982 -0.248757 3
-1.54793 1.27555 0.454276 45
-2.33461 1.3093 0.706948 33
-1.54794 1.27512 0.311399 44
-2.3245 1.30946 0.511386 36
-1.54963 1.27608 0.172568 47
-2.31165 1.30593 0.321278 35
-1.54705 1.27486 0.0343812 44
-1.55267 1.27995 -0.10397 47
-1.34727 0.765249 -0.0264404 4
-1.54487 1.2753 -0.381885 52
-1.79428 1.01573 -0.321436 14
-1.54366 1.27655 -0.527 59
-0.973024 0.552059 -0.24988 3
-1.53166 1.2761 0.451468 45
-2.31068 1.31241 0.701778 35
-1.53722 1.28031 0.310618 44
-2.30907 1.31677 0.509479 36
-1.53314 1.27647 0.171479 45
-2.28946 1.30982 0.319148 35
-1.5346 1.27814 0.0342503 45
-1.53828 1.28166 -0.103445 45
-1.34745 0.775007 -0.0265277 4
-1.53229 1.27892 -0.380456 52
-1.76533 1.01166 -0.317129 14
-1.5277 1.27687 -0.523767 61
-0.970023 0.557315 -0.24988 3
-1.52591 1.27538 0.450345 45
-2.29368 1.30809 0.697255 35
-1.52763 1.27638 0.309058 44
-2.28758 1.30985 0.50519 35
-1.52327 1.27275 0.170607 47
-2.27017 1.30356 0.316714 33
-1.52853 1.2776 0.0341631 45
-1.53029 1.27953 -0.103051 47
-1.5263 1.27844 -0.379504 53
-1.75499 1.00983 -0.315563 14
-1.52362 1.27798 -0.523121 59
-0.975494 0.562462 -0.251564 3
-1.50806 1.27391 0.446976 45
-2.27237 1.31126 0.692731 35
-1.51339 1.27799 0.307497 44
-2.26179 1.31038 0.5009 35
-1.5111 1.27562 0.169954 47
-2.24398 1.30425 0.313976 33
-1.51441 1.27887 0.0339886 45
-1.51427 1.2792 -0.102395 47
-1.50838 1.27557 -0.237916 47
-1.51232 1.2798 -0.377599 55
-1.72404 1.00416 -0.310865 14
-1.50977 1.27942 -0.520534 59
-0.974644 0.56878 -0.252126 4
-1.49862 1.26998 0.44473 45
-2.25544 1.30678 0.688208 35
-1.50551 1.27583 0.306326 44
-2.24676 1.30694 0.498041 35
-1.50128 1.27181 0.169082 49
-2.22668 1.29943 0.311846 33
-1.50455 1.27504 0.033814 47
-1.50442 1.27538 -0.10187 47
-1.49859 1.27177 -0.236699 50
-1.50447 1.27767 -0.376171 53
-1.70521 0.997236 -0.307732 14
-1.50201 1.27736 -0.518594 59
-0.971543 0.569258 -0.251564 3
-1.48781 1.27515 0.443607 45
-2.23582 1.31165 0.684331 35
-1.48734 1.27431 0.303985 44
-2.22484 1.31039 0.494705 36
-1.4887 1.27505 0.168428 49
-2.20251 1.3014 0.309412 35
-1.49194 1.27828 0.0336831 47
-1.48803 1.27537 -0.101214 47
-1.48604 1.27501 -0.235786 50
-1.49382 1.28259 -0.375219 53
-1.67443 0.991122 -0.303034 14
-1.4841 1.27601 -0.514714 59
-0.97265 0.576974 -0.252687 4
-1.47842 1.27113 0.44136 45
-2.21478 1.30456 0.678515 35
-1.48159 1.27342 0.303204 45
-2.20563 1.30431 0.490892 35
-1.47893 1.27115 0.167557 49
-2.18764 1.29728 0.307587 35
-1.48781 1.27925 0.0336395 47
-1.48202 1.27471 -0.100951 47
-1.47652 1.27086 -0.234569 52
-1.48043 1.27557 -0.372362 55
-1.65995 0.986506 -0.300685 14
-1.48004 1.27702 -0.514068 61
-0.967545 0.576027 -0.251564 3
-1.46807 1.27565 0.440237 45
-2.19153 1.30589 0.673345 35
-1.46931 1.2763 0.302034 47
-2.18635 1.30792 0.488032 36
-1.46683 1.27371 0.166903 49
-2.16804 1.30108 0.305761 35
-1.47189 1.27856 0.0334214 47
-1.47155 1.27917 -0.100688 47
-1.46236 1.27206 -0.233352 52
-1.47395 1.28305 -0.372362 55
-1.64628 0.990114 -0.299119 14
-1.46265 1.27497 -0.510188 59
-0.979161 0.589822 -0.255495 3
-1.45667 1.2702 0.43743 47
-2.17473 1.30106 0.668822 36
-1.45964 1.27237 0.300473 44
-2.16698 1.30204 0.48422 36
-1.45523 1.26808 0.165814 49
-2.15725 1.29976 0.304545 35
-1.46002 1.27316 0.0332032 45
-1.4618 1.27517 -0.100163 47
-1.45266 1.26807 -0.232135 52
-1.46432 1.27916 -0.370457 55
-1.64032 0.990444 -0.298336 15
-1.4602 1.27777 -0.510188 62
-0.97395 0.589026 -0.254372 3
-1.44612 1.27484 0.436307 47
-2.15318 1.30408 0.664298 36
-1.44348 1.27208 0.298522 44
-2.14964 1.30701 0.481837 36
-1.44461 1.27264 0.165378 49
-2.13534 1.3024 0.302415 35
-1.44771 1.27583 0.0330723 45
-1.45136 1.2795 -0.0999007 47
-1.4402 1.27098 -0.231223 52
-1.44819 1.27893 -0.368076 55
-1.62034 0.990045 -0.295595 15
-1.43902 1.27259 -0.505015 59
-0.972832 0.59555 -0.254933 4
-1.43864 1.27227 0.434622 47
-2.13644 1.29908 0.659775 38
-1.43963 1.27271 0.298131 45
-2.13267 1.30184 0.478501 36
-1.43493 1.26856 0.164506 49
-2.11422 1.29413 0.299677 35
-1.43987 1.27338 0.0329414 49
-2.10902 1.29296 0.127831 35
-1.44165 1.27541 -0.0993756 49
-1.43264 1.26831 -0.23031 52
-1.43678 1.27331 -0.365695 55
-1.6165 0.991586 -0.295204 15
-1.43138 1.27029 -0.503075 59
-0.971895 0.597078 -0.254933 4
-1.42289 1.27166 0.431814 47
-2.11748 1.30231 0.655898 38
-1.42559 1.27364 0.29657 45
-2.11351 1.3049 0.475641 38
-1.42106 1.26916 0.163635 49
-2.09686 1.29867 0.298155 35
-1.42782 1.27565 0.0328105 47
-2.09161 1.29742 0.127176 35
-1.42937 1.27794 -0.0989818 49
-1.41858 1.26917 -0.229093 53
-1.42666 1.27729 -0.364743 55
-1.61338 1.00133 -0.295595 15
-1.41775 1.27106 -0.500489 59
-0.97083 0.603436 -0.255495 4
-1.41704 1.27088 0.430691 47
-2.10697 1.30095 0.653313 38
-1.41601 1.26953 0.29501 45
-2.09639 1.29994 0.472305 36
-1.41329 1.26665 0.162981 49
-2.08193 1.29449 0.29633 36
-1.41793 1.27171 0.032636 47
-2.07873 1.2945 0.126522 35
-1.42157 1.27543 -0.098588 49
-1.41268 1.26832 -0.228484 53
-1.4153 1.27157 -0.362362 55
-1.61373 1.00545 -0.295987 15
-1.40454 1.26408 -0.496609 61
-0.963559 0.601287 -0.25381 4
-1.40473 1.27362 0.429007 47
-2.0876 1.30467 0.649436 38
-1.40181 1.27053 0.293449 47
-2.08123 1.30569 0.470398 38
-1.40272 1.27093 0.162545 49
-2.06438 1.29914 0.294809 36
-1.4057 1.27408 0.0325051 47
-2.05689 1.29643 0.125606 36
-1.40933 1.27782 -0.0981942 49
-1.40212 1.27261 -0.227876 52
-1.40296 1.27426 -0.360934 56
-1.61472 1.01782 -0.297161 15
-1.39791 1.27142 -0.496609 59
-0.964422 0.609075 -0.254933 4
-1.39913 1.27254 0.427884 47
-2.07098 1.29936 0.644912 38
-1.39616 1.26941 0.292668 47
-2.06439 1.3002 0.467062 38
-1.39498 1.26835 0.161892 50
-2.04763 1.29314 0.292679 38
-1.39793 1.27148 0.0323742 47
-2.04429 1.29301 0.124952 36
-1.39787 1.27187 -0.0975378 49
-1.39279 1.26812 -0.226659 53
-1.39529 1.27174 -0.359505 56
-1.3939 1.27223 -0.495962 59
-0.965527 0.611885 -0.255495 4
-1.38169 1.26995 0.424515 49
-2.04804 1.29951 0.639743 38
-1.38404 1.27168 0.291497 47
-2.04327 1.30143 0.463726 38
-1.38304 1.27034 0.161238 49
-2.02827 1.29585 0.290854 38
-1.38595 1.27346 0.0322433 47
-2.02907 1.29833 0.124429 38
-1.3859 1.27386 -0.097144 49
-1.62006 1.03856 -0.032985 15
-1.38248 1.27203 -0.226051 53
-1.38343 1.27379 -0.358077 56
-1.38035 1.27271 -0.493376 59
-0.966423 0.619544 -0.256618 4
-1.37612 1.26881 0.423392 49
-2.03557 1.29661 0.636512 39
-1.37456 1.2674 0.289937 47
-2.02858 1.29709 0.460867 38
-1.37533 1.26768 0.160584 50
-2.01137 1.29004 0.288724 39
-1.37638 1.26909 0.0320688 47
-2.01418 1.2938 0.123644 39
-1.37634 1.2695 -0.0966189 49
-1.61825 1.04138 -0.032985 14
-1.37297 1.26771 -0.224834 53
-1.37039 1.26621 -0.35522 56
-1.36927 1.26691 -0.490143 61
-0.96534 0.62123 -0.256618 4
-1.36567 1.27292 0.422269 49
-2.01656 1.29943 0.632634 38
-1.36791 1.27458 0.289937 47
-2.00938 1.29972 0.458007 38
-1.36139 1.26807 0.159713 49
-2.00042 1.29786 0.288116 38
-1.36972 1.27628 0.0320688 49
-1.9969 1.29755 0.122989 38
-1.3658 1.27352 -0.0963563 50
-1.61067 1.04848 -0.0329414 14
-1.3645 1.27318 -0.224529 55
-1.35657 1.26666 -0.353315 58
-1.35733 1.26911 -0.488203 59
-0.962074 0.626276 -0.256618 4
-1.35456 1.26697 0.419461 49
-2.00008 1.29379 0.628111 38
-1.35487 1.26684 0.287595 47
-1.99452 1.29558 0.455147 38
-1.35554 1.26704 0.159277 49
-1.98566 1.29325 0.28629 39
-1.35997 1.27208 0.0318943 47
-1.98626 1.29559 0.122466 38
-1.35811 1.27078 -0.0959625 50
-1.35322 1.26708 -0.223008 55
-1.35078 1.26566 -0.352363 58
-1.35137 1.26841 -0.486909 61
-0.963025 0.629278 -0.257179 4
-1.34414 1.27093 0.418338 49
-1.98293 1.298 0.62488 39
-1.34261 1.26905 0.286425 49
-1.98154 1.30197 0.453718 39
-1.34324 1.26922 0.158623 49
-1.96411 1.29445 0.28416 38
-1.34785 1.27402 0.0317634 49
-1.9667 1.29809 0.121681 38
-1.346 1.27272 -0.0955686 50
-1.34095 1.26926 -0.222095 55
-1.33679 1.2662 -0.350458 58
-1.96668 1.29665 -0.368026 39
-1.33771 1.26881 -0.484323 59
-0.959606 0.634479 -0.257179 4
-1.33508 1.26633 0.416092 50
-1.97056 1.29485 0.621649 39
-1.33883 1.26946 0.286034 47
-1.96491 1.296 0.450381 39
-1.3356 1.26642 0.15797 49
-1.95585 1.29344 0.283248 39
-1.34018 1.27121 0.0316325 49
-1.95215 1.29294 0.120896 38
-1.34016 1.27163 -0.0953061 50
-1.33356 1.26623 -0.221183 55
-1.32925 1.26345 -0.34903 58
-1.94791 1.28921 -0.364894 36
-1.33025 1.26615 -0.482383 59
-0.964715 0.64 -0.258864 4
-1.32316 1.26824 0.414407 50
-1.94988 1.29548 0.617125 39
-1.32682 1.27132 0.284864 47
-1.94606 1.29778 0.447522 39
-1.32378 1.26799 0.157316 50
-1.92633 1.28853 0.279901 36
-1.32652 1.27105 0.031458 47
-1.93497 1.29621 0.120242 38
-1.32808 1.27344 -0.0949123 52
-1.32154 1.26804 -0.22027 55
-1.31753 1.26506 -0.347601 58
-1.93497 1.29528 -0.363719 39
-1.31512 1.26449 -0.47915 59
-0.951208 0.638298 -0.256056 4
-1.31393 1.26379 0.412161 50
-1.93957 1.29354 0.614541 41
-1.3157 1.26507 0.282913 47
-1.93335 1.29471 0.445139 41
-1.31619 1.26511 0.156662 49
-1.91996 1.28913 0.279293 41
-1.31687 1.26666 0.0312834 47
-1.92026 1.29126 0.119457 39
-1.31866 1.26883 -0.0943872 52
-1.31218 1.26345 -0.219053 55
-1.21793 0.821711 -0.125254 12
-1.31002 1.26225 -0.346173 58
-1.9245 1.29317 -0.362153 39
-1.31617 1.27037 -0.480443 61
-0.954145 0.642662 -0.257179 4
-1.30707 1.27088 0.412161 50
-1.92252 1.29728 0.61131 41
-1.30707 1.27045 0.282522 47
-1.91434 1.29658 0.442279 41
-1.30575 1.26874 0.156227 49
-1.90268 1.29255 0.277771 41
-1.30485 1.26831 0.0311525 49
-1.90291 1.29463 0.118803 39
-1.30843 1.27223 -0.0941246 52
-1.29999 1.26534 -0.21814 56
-1.21567 0.829474 -0.125471 12
-1.29966 1.26589 -0.34522 58
-1.2974 1.26543 -0.475917 59
-0.950653 0.647815 -0.257179 4
-1.29984 1.26782 0.410476 52
-1.91024 1.29389 0.608079 41
-1.29801 1.2656 0.280961 45
-1.90394 1.29442 0.440373 41
-1.29641 1.26406 0.155355 49
-1.89038 1.28857 0.27625 41
-1.30085 1.26884 0.0311089 50
-1.89055 1.2906 0.118148 38
-1.29906 1.26753 -0.0935995 52
-1.87768 1.28329 -0.0390934 36
-1.29978 1.26911 -0.218445 56
-1.22657 0.839998 -0.126776 11
-1.29219 1.263 -0.343792 59
-1.29174 1.26431 -0.474624 59
-0.953668 0.652041 -0.258303 4
-1.28625 1.26777 0.40823 50
-1.88969 1.29402 0.603555 42
-1.28433 1.26544 0.279401 47
-1.88521 1.29573 0.437513 41
-1.28468 1.26536 0.154701 49
-1.87133 1.29003 0.274425 41
-1.28551 1.26663 0.0308908 50
-1.87553 1.29482 0.117625 39
-1.2853 1.2673 -0.0930744 52
-1.86498 1.28852 -0.0389625 36
-1.28429 1.26718 -0.216923 56
-1.28054 1.26435 -0.342363 59
-1.27846 1.26404 -0.472037 59
-0.948232 0.655648 -0.257741 4
-1.27712 1.26315 0.405984 50
-1.87547 1.28913 0.599678 42
-1.27861 1.26421 0.27862 49
-1.87463 1.29378 0.435607 42
-1.27716 1.26234 0.154048 49
-1.85681 1.28485 0.272599 41
-1.27597 1.26206 0.0307162 50
-1.85888 1.28817 0.116709 39
-1.28131 1.26779 -0.0929431 52
-1.85245 1.28468 -0.0387443 36
-1.28032 1.26767 -0.216619 56
-1.26962 1.25794 -0.339982 59
-1.2709 1.26138 -0.470097 59
-0.953107 0.661444 -0.259426 4
-1.26338 1.26315 0.403738 50
-1.85854 1.29239 0.596447 42
-1.27001 1.26936 0.27823 49
-1.85574 1.29518 0.432747 42
-1.26503 1.26395 0.153394 50
-1.84169 1.2892 0.271382 41
-1.26582 1.26518 0.030629 50
-1.8437 1.29249 0.116186 39
-1.2676 1.26741 -0.092418 52
-1.83522 1.28753 -0.0385262 36
-1.26818 1.26931 -0.215706 56
-1.26107 1.26305 -0.339506 59
-1.25916 1.26288 -0.468157 59
-0.947515 0.6652 -0.258864 4
-1.25624 1.25995 0.402054 50
-1.84637 1.28874 0.593216 42
-1.26082 1.26457 0.276669 49
-1.84341 1.2914 0.430365 42
-1.25755 1.26086 0.15274 50
-1.83334 1.28815 0.27047 41
-1.25655 1.2603 0.0304544 49
-1.83531 1.29141 0.115793 41
-1.26187 1.26608 -0.0921555 52
-1.82274 1.28355 -0.038308 36
-1.25372 1.25921 -0.213577 58
-1.25194 1.25829 -0.337602 59
-1.25526 1.26337 -0.467511 61
-0.94835 0.668247 -0.259426 4
-1.24791 1.26478 0.401492 50
-1.82994 1.29113 0.589985 42
-1.24747 1.2639 0.275108 50
-1.82281 1.29082 0.427028 42
-1.2459 1.26189 0.152087 50
-1.81666 1.29025 0.268948 41
-1.25191 1.26843 0.0304981 49
-1.81856 1.29347 0.115139 39
-1.25194 1.2689 -0.0918929 52
-1.8101 1.28843 -0.0381771 38
-1.24559 1.26377 -0.213272 58
-1.24383 1.26286 -0.337125 59
-1.24377 1.26453 -0.465571 59
-0.942965 0.671634 -0.258864 4
-1.24251 1.26326 0.400369 52
-1.81584 1.28597 0.586108 44
-1.2418 1.26256 0.274328 49
-1.81654 1.29116 0.426075 42
-1.24021 1.26051 0.151651 50
-1.80429 1.28624 0.267427 41
-1.24444 1.26526 0.0303672 49
-1.80612 1.28941 0.114485 41
-1.23923 1.26039 -0.0911053 52
-1.7997 1.28579 -0.0380026 38
-1.23817 1.26062 -0.21236 58
-1.23991 1.26327 -0.336649 58
-1.23143 1.25635 -0.461691 61
-0.943779 0.674687 -0.259426 4
-1.23056 1.26472 0.398684 52
-1.79728 1.28705 0.58223 44
-1.22829 1.26196 0.272767 50
-1.80377 1.29637 0.424645 42
-1.22665 1.25984 0.150779 50
-1.78947 1.28988 0.26621 42
-1.23083 1.26459 0.0301927 49
-1.78921 1.29157 0.113831 39
-1.23413 1.26887 -0.0912366 52
-1.78483 1.28936 -0.0378281 38
-1.22982 1.26531 -0.212055 55
-1.22645 1.2627 -0.334745 59
-1.22315 1.26104 -0.461044 61
-0.944194 0.682457 -0.260549 4
-1.22497 1.26337 0.397561 50
-1.78718 1.28456 0.579646 44
-1.22093 1.25878 0.271596 50
-1.78932 1.29124 0.421786 42
-1.22271 1.26019 0.150562 50
-1.77916 1.2872 0.264993 42
-1.22319 1.26156 0.0300618 49
-1.7748 1.28593 0.113046 41
-1.22497 1.26384 -0.0907115 53
-1.77244 1.28516 -0.0376099 38
-1.22244 1.2621 -0.211143 56
-1.21742 1.25778 -0.33284 59
-1.22073 1.26339 -0.461044 59
-1.20969 1.26118 0.394754 52
-1.77042 1.28714 0.576415 45
-1.21069 1.2618 0.270816 50
-1.77261 1.29338 0.419403 42
-1.21243 1.26319 0.150126 52
-1.75813 1.28658 0.262864 42
-1.20965 1.26073 0.0298872 50
-1.76177 1.2911 0.112653 41
-1.21315 1.26483 -0.0903176 53
-1.75335 1.28588 -0.0373481 38
-1.2053 1.25794 -0.209317 58
-1.75733 1.28834 -0.187228 38
-1.2089 1.26258 -0.332364 59
-1.20576 1.26103 -0.457811 59
-1.20771 1.26308 0.394754 52
-1.76035 1.28455 0.57383 45
-1.20871 1.2637 0.270816 49
-1.75448 1.28491 0.41559 44
-1.20334 1.2581 0.149254 52
-1.7521 1.28641 0.262255 44
-1.20572 1.26103 0.0298436 49
-1.74564 1.28354 0.111737 41
-1.20577 1.26153 -0.0899238 53
-1.74102 1.28156 -0.03713 38
-1.20675 1.26342 -0.209926 59
-1.74704 1.28552 -0.186359 39
-1.20331 1.26113 -0.331411 50
-1.19523 1.25438 -0.454578 55
-1.19773 1.26584 0.393631 52
-1.74409 1.2863 0.570599 45
-1.19529 1.26283 0.269255 49
-1.74598 1.29231 0.415114 42
-1.19696 1.26418 0.149254 52
-1.73336 1.28672 0.26043 44
-1.19417 1.26167 0.0297127 50
-1.73287 1.28821 0.111345 41
-1.19744 1.26601 -0.0897925 53
-1.73049 1.28738 -0.0370427 39
-1.1933 1.2625 -0.208709 58
-1.73028 1.28724 -0.185271 39
-1.18681 1.25649 -0.328554 47
-1.18556 1.2569 -0.453285 56
-1.19051 1.26261 0.391946 53
-1.73796 1.28647 0.569306 45
-1.1897 1.26132 0.268474 49
-1.73166 1.28691 0.412254 42
-1.18621 1.2572 0.148165 52
-1.71716 1.2794 0.2583 44
-1.19003 1.26214 0.0296691 50
-1.71859 1.2823 0.11056 41
-1.18838 1.26082 -0.0892674 53
-1.71821 1.28294 -0.0368246 39
-1.186 1.25916 -0.207796 58
-1.72004 1.28431 -0.184402 41
-1.17789 1.25141 -0.32665 45
-1.17158 1.24684 -0.448759 53
-1.18034 1.26546 0.390823 53
-1.72129 1.28864 0.566075 44
-1.17781 1.26232 0.267304 50
-1.71507 1.28861 0.409871 44
-1.1777 1.26178 0.147947 52
-1.6983 1.27974 0.256475 41
-1.18 1.26469 0.0295818 52
-1.70365 1.28558 0.110036 41
-1.17836 1.26337 -0.0890049 53
-1.70125 1.28471 -0.0366064 41
-1.17579 1.26193 -0.207188 59
-1.16943 1.25596 -0.326174 47
-1.16503 1.25296 -0.448759 47
-1.17669 1.26553 0.390261 53
-1.7113 1.28586 0.56349 45
-1.17582 1.26417 0.267304 50
-1.70693 1.28718 0.408441 44
-1.17041 1.25836 0.147293 50
-1.69431 1.28091 0.25617 44
-1.17099 1.25942 0.0294073 52
-1.68966 1.27924 0.109251 41
-1.17106 1.25994 -0.088611 55
-1.69103 1.28165 -0.0364319 41
-1.17212 1.26195 -0.206883 59
-1.16223 1.2526 -0.324745 47
-1.16121 1.25322 -0.448112 45
-1.16346 1.2645 0.388015 53
-1.68743 1.2814 0.557675 45
-1.15916 1.2594 0.264962 50
-1.68866 1.2869 0.405582 45
-1.15897 1.25876 0.14664 52
-1.6777 1.28225 0.254649 45
-1.16629 1.26717 0.0294509 50
-1.67698 1.28353 0.108859 42
-1.16276 1.26422 -0.0884798 55
-1.67657 1.28413 -0.0362574 41
-1.1571 1.25893 -0.205362 59
-1.15256 1.25485 -0.323793 47
-1.15322 1.2573 -0.447465 45
-1.15467 1.25934 0.385769 53
-1.67749 1.27851 0.55509 45
-1.15696 1.26142 0.264962 50
-1.67837 1.2842 0.403675 44
-1.15172 1.25527 0.145986 52
-1.6656 1.27765 0.253128 47
-1.15373 1.25835 0.0291891 50
-1.66482 1.27887 0.108205 41
-1.15549 1.26072 -0.0880859 55
-1.66638 1.28098 -0.0360828 41
-1.1549 1.26095 -0.205362 59
-1.14706 1.25324 -0.32284 52
-1.14266 1.25059 -0.444232 45
-1.14457 1.26196 0.384646 53
-1.66289 1.28168 0.552505 45
-1.14349 1.26034 0.263401 52
-1.6619 1.28548 0.401292 45
-1.14659 1.26333 0.146204 52
-1.65081 1.28058 0.251911 45
-1.14209 1.25881 0.0290583 52
-1.65393 1.28481 0.107943 42
-1.1472 1.2649 -0.0879547 55
-1.64954 1.28233 -0.0358647 41
-1.14474 1.2635 -0.204754 59
-1.13697 1.25578 -0.321888 53
-1.12963 1.24939 -0.441646 47
-1.13769 1.25833 0.382962 53
-1.65299 1.27869 0.54992 45
-1.13654 1.25663 0.262231 52
-1.65189 1.28238 0.399386 45
-1.13937 1.25979 0.14555 52
-1.64487 1.28013 0.251302 47
-1.14157 1.26266 0.0291019 55
-1.64205 1.27976 0.107289 41
-1.13997 1.26134 -0.0875608 56
-1.64335 1.28214 -0.0357774 42
-1.13776 1.25977 -0.203841 59
-1.13478 1.25776 -0.321888 61
-1.1226 1.24597 -0.439706 55
-1.12784 1.26063 0.381839 55
-1.63888 1.28111 0.547335 47
-1.12666 1.25888 0.26145 52
-1.63957 1.28619 0.397956 44
-1.12634 1.25811 0.144679 52
-1.63033 1.2826 0.250086 45
-1.12683 1.2591 0.0288837 53
-1.62943 1.28371 0.106896 42
-1.12837 1.2617 -0.087167 56
-1.62898 1.28427 -0.0356029 42
-1.12785 1.262 -0.203232 61
-0.951074 0.752361 -0.102856 9
-1.11696 1.25067 -0.318555 82
-1.11628 1.25164 -0.439706 88
-1.12078 1.25714 0.380154 55
-1.62902 1.27802 0.54475 47
-1.12282 1.25901 0.26106 52
-1.62551 1.28025 0.395097 45
-1.11918 1.2545 0.144025 53
-1.62029 1.27932 0.248869 47
-1.11943 1.25566 0.0287528 53
-1.6213 1.28192 0.106504 42
-1.12948 1.2674 -0.0874296 58
-1.61888 1.28093 -0.0354284 42
-1.1207 1.25841 -0.20232 61
-0.947802 0.752479 -0.102639 9
-1.11641 1.25445 -0.319031 96
-1.11548 1.25558 -0.440352 95
-1.11396 1.26319 0.380154 55
-1.6145 1.28083 0.542166 49
-1.11272 1.26136 0.26028 53
-1.61494 1.2857 0.394143 45
-1.11237 1.26053 0.144025 52
-1.60751 1.28343 0.247956 47
-1.11284 1.2615 0.0287528 53
-1.60653 1.28446 0.10598 44
-1.11623 1.2658 -0.0869045 56
-1.6041 1.28344 -0.0352539 41
-1.1106 1.26072 -0.201711 65
-0.941901 0.755881 -0.102421 8
-1.10474 1.25494 -0.317603 90
-1.10252 1.25415 -0.437766 77
-1.10715 1.25944 0.378469 55
-1.60658 1.27915 0.540227 49
-1.10585 1.25753 0.259109 52
-1.60693 1.28393 0.392714 45
-1.10524 1.25686 0.143371 52
-1.59191 1.27513 0.245826 47
-1.10569 1.25781 0.0286219 53
-1.59475 1.27919 0.105326 42
-1.10908 1.26212 -0.0865106 56
-1.5921 1.27843 -0.0350357 41
-1.10861 1.26247 -0.201711 65
-1.0977 1.25133 -0.316174 67
-1.10033 1.25607 -0.437766 59
-1.09575 1.2597 0.376785 55
-1.58878 1.27821 0.53635 49
-1.09602 1.25958 0.258328 52
-1.58893 1.28283 0.389854 44
-1.09723 1.26055 0.143153 53
-1.58135 1.28033 0.245218 45
-1.09931 1.26339 0.0286219 53
-1.58026 1.28126 0.104803 42
-1.09286 1.25641 -0.085723 56
-1.57782 1.28019 -0.0348612 41
-1.09548 1.26076 -0.200494 65
-1.08814 1.25316 -0.315222 62
-1.08921 1.25614 -0.435826 59
-1.0858 1.25221 0.373977 55
-1.5809 1.27644 0.534411 50
-1.08897 1.25589 0.257158 52
-1.57714 1.2779 0.387471 45
-1.08851 1.25494 0.142282 53
-1.56753 1.27373 0.243392 47
-1.09219 1.25964 0.0284911 53
-1.5722 1.2793 0.10441 44
-1.09393 1.26209 -0.0859855 56
-1.56394 1.2735 -0.0345994 41
-1.09328 1.26267 -0.200494 64
-1.08114 1.24949 -0.313793 64
-1.08702 1.25804 -0.435826 59
-1.56103 1.26674 -0.455399 45
-1.07901 1.25807 0.373977 55
-1.56294 1.27557 0.530534 50
-1.07756 1.25595 0.255987 53
-1.56662 1.28304 0.386518 45
-1.07868 1.25684 0.141846 53
-1.55508 1.27721 0.242479 47
-1.08396 1.26344 0.0284474 55
-1.55389 1.27802 0.103625 42
-1.08059 1.2604 -0.0854604 56
-1.55725 1.28168 -0.0345994 42
-1.08343 1.2646 -0.199886 65
-1.07298 1.25326 -0.313317 68
-1.55279 1.27626 -0.313214 35
-1.07885 1.26188 -0.435179 59
-1.55061 1.27182 -0.454276 45
-1.07049 1.25254 0.371731 56
-1.55697 1.27524 0.529242 49
-1.07376 1.25595 0.255597 52
-1.55466 1.27827 0.384135 44
-1.07487 1.25682 0.141628 53
-1.54517 1.27363 0.241263 47
-1.07504 1.25791 0.0282729 53
-1.5478 1.27757 0.103364 45
-1.07515 1.25849 -0.0851979 56
-1.54535 1.27645 -0.0343812 44
-1.07317 1.25705 -0.198365 64
-1.06443 1.24766 -0.311412 67
-1.54483 1.27427 -0.312039 45
-1.06704 1.25291 -0.4313 58
-1.54084 1.26835 -0.452029 45
-1.0637 1.25831 0.371731 55
-1.54446 1.27904 0.527303 50
-1.06217 1.25608 0.254426 53
-1.54416 1.28327 0.383182 45
-1.06645 1.26072 0.14141 53
-1.53444 1.2788 0.240654 47
-1.06844 1.26352 0.0282729 53
-1.53126 1.27795 0.102709 44
-1.06533 1.26028 -0.0849353 56
-1.53073 1.27841 -0.0342067 44
-1.06476 1.26094 -0.19806 64
-1.50631 1.25768 -0.16831 18
-1.05608 1.25153 -0.310936 71
-1.53031 1.2763 -0.310473 45
-1.06046 1.25848 -0.4313 59
-1.53021 1.27356 -0.450906 45
-1.05545 1.25252 0.369485 56
-1.53292 1.27404 0.524072 50
-1.0568 1.25415 0.253646 53
-1.53059 1.27656 0.380322 45
-1.05623 1.25305 0.140321 55
-1.52076 1.27195 0.238829 49
-1.05819 1.25582 0.0280547 55
-1.52327 1.27582 0.102317 45
-1.05991 1.25832 -0.0846728 56
-1.52082 1.27467 -0.0340322 45
-1.05777 1.2571 -0.197148 67
-1.51176 1.26668 -0.16918 35
-1.05232 1.25149 -0.31046 71
-1.5186 1.27107 -0.308515 45
-1.05361 1.25478 -0.42936 59
-1.52236 1.27156 -0.449222 45
-1.04865 1.25822 0.369485 56
-1.51511 1.27275 0.520195 53
-1.05022 1.25967 0.253646 53
-1.51824 1.27982 0.378892 45
-1.04328 1.25091 0.139449 56
-1.50839 1.2751 0.237916 49
-1.05 1.25942 0.0280111 55
-1.50703 1.27574 0.101663 44
-1.04852 1.25809 -0.084279 56
