# .PCD v0.7 - Point Cloud Data file format
VERSION 0.7
FIELDS x y z intensity
SIZE 4 4 4 4
TYPE F F F F
COUNT 1 1 1 1
WIDTH 1515
HEIGHT 1
VIEWPOINT 0 0 0 1 0 0 0
POINTS 1515
DATA ascii
-0.815896 -0.106073 -0.152849 50
-0.823286 -0.254843 -0.131158 47
-0.817824 -0.105758 -0.211447 50
-0.812521 -0.252178 -0.188112 45
-6.85396 -0.875786 1.58463 1
-7.24624 -2.2949 2.02456 41
-7.01053 -0.896991 1.11136 1
-7.23368 -2.27708 1.466 36
-7.01093 -0.897031 0.61532 1
-7.3283 -2.29714 0.937364 33
-3.11654 -0.398977 0.0542333 18
-1.69975 -0.527655 0.0914571 50
-0.661061 -0.0856115 -0.0332127 55
-1.69728 -0.525914 -0.0304108 55
-0.822221 -0.105857 -0.0973569 55
-0.828357 -0.254255 -0.0726299 55
-0.81608 -0.104648 -0.152849 52
-0.821373 -0.252666 -0.130767 49
-0.822799 -0.104933 -0.21274 49
-0.815239 -0.251634 -0.188673 45
-7.07124 -0.865902 1.63404 27
-7.25085 -2.25604 2.02262 38
-7.02248 -0.861173 1.11253 1
-7.23339 -2.23681 1.46362 32
-7.27741 -0.893661 0.638416 35
-7.32837 -2.25508 0.935843 32
-3.11108 -0.382286 0.0541025 23
-1.69771 -0.51728 0.0911954 50
-1.69992 -0.517317 -0.0304108 53
-0.817838 -0.10095 -0.0967484 53
-0.832057 -0.250646 -0.0728473 53
-0.823908 -0.101404 -0.154278 52
-0.820325 -0.247635 -0.130375 49
-0.820923 -0.100478 -0.212093 50
-0.811891 -0.245922 -0.18755 45
-7.06549 -0.852685 1.63236 27
-7.23632 -2.23766 2.01745 32
-7.01907 -0.848323 1.11175 1
-7.22829 -2.22003 1.46171 32
-7.00204 -0.847496 0.614012 1
-7.32281 -2.23938 0.934626 32
-3.11181 -0.376313 0.0541025 29
-1.69861 -0.514316 0.0911954 50
-1.69126 -0.511429 -0.0302363 53
-0.815549 -0.0992274 -0.0964442 55
-0.82773 -0.247738 -0.0724124 53
-0.814337 -0.0987998 -0.152373 50
-0.820756 -0.246203 -0.130375 49
-0.818716 -0.0986172 -0.211447 49
-0.807662 -0.243074 -0.186427 45
-7.07 -0.814445 1.63236 27
-7.24139 -2.19637 2.01551 33
-7.02111 -0.810052 1.11136 1
-7.22337 -2.17719 1.45838 30
-7.00405 -0.809314 0.613794 1
-7.32769 -2.19758 0.933713 32
-3.10877 -0.359442 0.0540152 30
-1.69659 -0.503684 0.0909337 50
-0.654617 -0.0766733 -0.0328189 55
-1.69161 -0.501554 -0.0301927 53
-0.821004 -0.0953778 -0.0970526 55
-0.821858 -0.241257 -0.07176 52
-0.817298 -0.0946706 -0.152849 53
-0.822034 -0.241902 -0.130375 47
-0.82162 -0.0946012 -0.212093 50
-0.811297 -0.239404 -0.186989 47
-7.06159 -0.80224 1.63011 27
-7.23828 -2.18163 2.01357 33
-7.01256 -0.797907 1.1098 1
-7.22246 -2.16316 1.45742 32
-7.00793 -0.797369 0.614012 1
-7.31925 -2.18252 0.932192 32
-3.11436 -0.354579 0.0541025 29
-1.69738 -0.501018 0.0909337 50
-0.65723 -0.0758116 -0.0329502 56
-1.69248 -0.498601 -0.0301927 56
-0.818687 -0.0938097 -0.0967484 55
-0.822278 -0.239822 -0.07176 50
-0.817462 -0.093244 -0.152849 52
-0.820089 -0.239761 -0.129984 49
-0.821784 -0.093167 -0.212093 50
-0.809339 -0.23743 -0.186427 45
-7.06811 -0.765517 1.63068 26
-7.23765 -2.14153 2.01034 33
-7.01173 -0.760647 1.10902 1
-7.23331 -2.12658 1.45742 33
-7.28423 -0.791428 0.63798 38
-7.32581 -2.14277 0.931584 32
-3.10866 -0.338004 0.0539716 26
-1.69518 -0.490723 0.090672 50
-0.657606 -0.072484 -0.0329502 56
-1.69258 -0.489327 -0.030149 56
-0.821635 -0.0897873 -0.0970526 55
-0.828263 -0.237054 -0.0721949 53
-0.817923 -0.0891053 -0.152849 52
-0.818963 -0.23477 -0.129592 49
-0.817443 -0.0884949 -0.2108 50
-0.812908 -0.233876 -0.186989 47
-6.84887 -0.730933 1.57958 1
-7.23442 -2.12685 2.0084 33
-7.01304 -0.748408 1.10902 1
-7.22524 -2.1105 1.45504 33
-7.00329 -0.748593 0.613141 1
-7.31763 -2.12651 0.930062 33
-3.1167 -0.333372 0.0541025 21
-1.69604 -0.487763 0.090672 50
-0.660214 -0.0716002 -0.0330815 56
-1.69103 -0.485676 -0.0301054 55
-0.819322 -0.088092 -0.0967484 55
-0.819108 -0.23283 -0.0713251 52
-0.818077 -0.0876776 -0.152849 52
-0.819372 -0.23334 -0.129592 49
-0.815194 -0.0868164 -0.210153 50
-0.810977 -0.231774 -0.186427 47
-6.85272 -0.693866 1.57958 1
-7.23618 -2.08626 2.00582 32
-7.00213 -0.710186 1.10668 1
-7.23147 -2.07129 1.45409 33
-7.27471 -0.739048 0.636673 36
-7.31434 -2.08407 0.928237 32
-3.10348 -0.315538 0.0538407 17
-1.69137 -0.476824 0.0902795 52
-0.655624 -0.0675259 -0.0328189 56
-1.69355 -0.476815 -0.0301054 59
-0.814834 -0.0833045 -0.0961399 55
-0.81796 -0.227714 -0.0711077 52
-0.816083 -0.0831484 -0.152373 52
-0.820582 -0.229047 -0.129592 49
-0.813234 -0.0823079 -0.209507 50
-0.809837 -0.226854 -0.185866 44
-6.84907 -0.681424 1.57845 1
-7.23517 -2.07229 2.00453 33
-7.00581 -0.698208 1.10707 1
-7.23071 -2.05606 1.45314 33
-7.28838 -0.727585 0.637762 30
-7.30842 -2.0686 0.92702 32
-3.11155 -0.310321 0.0539716 14
-1.6946 -0.474551 0.0904104 50
-0.65574 -0.0663816 -0.0328189 58
-1.69438 -0.473858 -0.0301054 73
-0.814979 -0.0818822 -0.0961399 55
-0.818356 -0.226286 -0.0711077 52
-0.81867 -0.0819643 -0.152849 52
-0.820981 -0.227614 -0.129592 49
-0.818198 -0.0812152 -0.2108 52
-0.812575 -0.226106 -0.186427 47
-6.84781 -0.643902 1.57733 1
-7.24395 -2.03246 2.00388 33
-6.99965 -0.659368 1.10551 1
-7.23902 -2.01751 1.45266 35
-7.27485 -0.686506 0.636237 36
-7.3219 -2.02969 0.927324 35
-3.10566 -0.293323 0.0538407 12
-1.69714 -0.465376 0.0904104 50
-0.651108 -0.0624808 -0.0325564 56
-1.69692 -0.464684 -0.0301054 90
-0.81541 -0.0774716 -0.0961399 55
-0.82433 -0.223327 -0.0715426 52
-0.816657 -0.0773065 -0.152373 52
-0.819782 -0.222652 -0.129201 49
-0.816207 -0.0767083 -0.210153 50
-0.813787 -0.221707 -0.186427 45
-6.92644 -0.640305 1.5953 1
-7.2312 -2.01527 1.99936 32
-7.00314 -0.6486 1.1059 1
-7.22597 -2.00028 1.44932 33
-7.27852 -0.674037 0.636455 36
-7.31551 -2.01554 0.926107 33
-3.10119 -0.287443 0.0537534 11
-1.69306 -0.461384 0.0901487 53
-0.653702 -0.0615732 -0.0326876 56
-1.69773 -0.461722 -0.0301054 90
-0.820472 -0.0766439 -0.0967484 55
-0.815114 -0.219246 -0.0706728 50
-0.816791 -0.0758811 -0.152373 52
-0.82017 -0.221221 -0.129201 49
-0.813935 -0.075066 -0.209507 50
-0.816481 -0.221078 -0.186989 47
-7.07289 -0.616481 1.62843 1
-7.23665 -1.97737 1.99806 32
-6.9966 -0.611065 1.10433 1
-7.23364 -1.96303 1.44885 35
-7.26943 -0.636105 0.635365 36
-7.31638 -1.97462 0.92489 33
-3.09763 -0.271308 0.0536661 11
-1.69786 -0.453163 0.0902795 52
-0.651528 -0.0579337 -0.0325564 56
-1.69763 -0.452473 -0.0300618 85
-0.82106 -0.216271 -0.0711077 50
-0.812274 -0.071325 -0.151421 52
-0.821317 -0.216923 -0.129201 50
-0.814304 -0.0709454 -0.209507 50
-0.812926 -0.215524 -0.185866 44
-7.08123 -0.604756 1.63011 1
-7.23543 -1.96347 1.99677 33
-7.00012 -0.599063 1.10472 1
-7.22791 -1.94658 1.44694 35
-7.28046 -0.624266 0.636237 36
-7.30783 -1.95863 0.923369 33
-3.09814 -0.265361 0.0536661 11
-1.69141 -0.44826 0.089887 52
-0.656603 -0.0572195 -0.0328189 56
-1.69359 -0.448217 -0.0299745 82
-0.81903 -0.214194 -0.0708902 50
-0.814843 -0.0701134 -0.151897 52
-0.816925 -0.21421 -0.128418 49
-0.816846 -0.0695827 -0.210153 50
-0.808596 -0.212838 -0.184742 47
-7.06983 -0.565272 1.62674 1
-7.23895 -1.92243 1.99483 33
-6.99095 -0.560196 1.10277 1
-7.23801 -1.90871 1.44694 35
-7.28125 -0.584667 0.636019 36
-7.10474 -1.8629 0.896292 1
-3.09201 -0.248538 0.0535353 11
-1.69381 -0.439102 0.089887 50
-0.654405 -0.0535823 -0.0326876 56
-1.69357 -0.438414 -0.0299309 76
-0.806517 -0.0652952 -0.094923 55
-0.820141 -0.209903 -0.0708902 49
-0.810317 -0.0653177 -0.150945 52
-0.820423 -0.210557 -0.128809 49
-0.809976 -0.0647401 -0.208214 49
-0.816803 -0.210323 -0.186427 47
-7.07314 -0.554356 1.62731 1
-7.22595 -1.90547 1.99031 32
-6.99674 -0.5496 1.10355 1
-7.22471 -1.89171 1.4436 33
-7.27233 -0.57118 0.635147 36
-7.31173 -1.90505 0.922152 33
-3.09743 -0.243531 0.0536225 11
-1.68967 -0.435183 0.0896253 52
-0.654498 -0.0524401 -0.0326876 56
-0.809093 -0.0642203 -0.0952272 56
-0.81043 -0.0639033 -0.150945 52
-0.816011 -0.207878 -0.128026 49
-0.812496 -0.0635104 -0.20886 50
-0.812419 -0.207805 -0.185304 49
-7.06866 -0.516782 1.62562 1
-7.23083 -1.86766 1.98902 33
-6.98967 -0.512238 1.10199 1
-7.22944 -1.8539 1.44265 35
-7.27016 -0.534 0.634712 35
-7.3192 -1.86613 0.921848 35
-3.1036 -0.228215 0.0537098 8
-1.69434 -0.426946 0.0897562 52
-0.652273 -0.0488313 -0.0325564 55
-0.809418 -0.0599831 -0.0952272 56
-0.805847 -0.0594479 -0.149992 53
-0.821873 -0.204824 -0.128809 49
-0.810398 -0.0592253 -0.208214 50
-0.818215 -0.204758 -0.186427 47
-7.06955 -0.504445 1.62562 1
-7.21536 -1.85022 1.98385 32
-6.99548 -0.500389 1.10277 1
-7.21634 -1.83577 1.43931 33
-7.27853 -0.521844 0.635365 36
-7.31042 -1.8503 0.920327 33
-1.68783 -0.422151 0.0893636 52
-0.652358 -0.0476928 -0.0325564 58
-0.809521 -0.0585703 -0.0952272 56
-0.807453 -0.199077 -0.0695855 49
-0.813294 -0.0585575 -0.151421 53
-0.815049 -0.20157 -0.127635 49
-0.815328 -0.0580038 -0.209507 50
-0.806767 -0.200325 -0.183619 47
-7.06974 -0.466028 1.62506 1
-7.22058 -1.80998 1.98256 33
-6.99809 -0.462533 1.10277 1
-7.22347 -1.79737 1.43884 35
-7.27131 -0.481799 0.634494 33
-7.31791 -1.81012 0.920023 35
-1.69008 -0.413013 0.0893636 52
-0.65509 -0.0444402 -0.0326876 58
-0.812303 -0.0543509 -0.0955314 56
-0.803649 -0.193652 -0.0691506 49
-0.813599 -0.0541563 -0.151421 53
-0.813696 -0.196705 -0.127243 49
-0.808391 -0.0532702 -0.207567 50
-0.810203 -0.196545 -0.184181 47
-7.07776 -0.45539 1.62674 1
-7.21905 -1.79621 1.98126 33
-6.99388 -0.451223 1.10199 1
-7.21469 -1.78181 1.43645 33
-7.28208 -0.469747 0.635365 36
-7.3087 -1.79565 0.918501 35
-1.68588 -0.409167 0.089102 52
-0.662641 -0.0437749 -0.0330815 58
-0.812387 -0.0530749 -0.0955314 56
-0.806404 -0.192842 -0.069368 49
-0.813693 -0.0527363 -0.151421 53
-0.814038 -0.195285 -0.127243 49
-0.813303 -0.05216 -0.20886 52
-0.808146 -0.194688 -0.183619 47
-6.96575 -0.411594 1.60035 1
-7.22335 -1.7585 1.97997 33
-7.27223 -0.430903 1.1457 38
-7.22123 -1.74469 1.43598 33
-7.27442 -0.432294 0.634494 33
-7.31559 -1.75678 0.918197 33
-1.688 -0.400334 0.089102 53
-0.657869 -0.0401269 -0.0328189 58
-1.5589 -0.36877 -0.0273566 17
-0.815131 -0.0489651 -0.0958357 56
-0.804948 -0.188177 -0.0691506 45
-0.813949 -0.0486171 -0.151421 53
-0.81505 -0.19102 -0.127243 49
-0.813557 -0.0480428 -0.20886 52
-0.811522 -0.191026 -0.184181 49
-6.86424 -0.394798 1.57677 1
-7.21702 -1.74361 1.97739 33
-7.27544 -0.418351 1.14609 38
-7.20756 -1.72807 1.43264 33
-7.27267 -0.419454 0.634276 33
-7.31382 -1.74286 0.917589 33
-1.68627 -0.396808 0.0889711 53
-0.650461 -0.0385514 -0.0324251 58
-1.56197 -0.366627 -0.0274003 20
-0.812738 -0.0474021 -0.0955314 56
-0.816483 -0.0473343 -0.151897 53
-0.817784 -0.19017 -0.127635 49
-0.816051 -0.0467568 -0.209507 52
-0.811855 -0.189609 -0.184181 49
-6.86627 -0.357653 1.57677 1
-7.21665 -1.70358 1.9748 33
-7.27999 -0.38038 1.14648 38
-7.2189 -1.69087 1.43312 35
-7.28721 -0.382018 0.635365 33
-7.09811 -1.65208 0.889294 1
-1.68589 -0.387408 0.0888403 53
-0.64816 -0.0350157 -0.0322938 59
-1.57117 -0.36014 -0.0275312 20
-0.808019 -0.0428915 -0.094923 56
-0.811818 -0.0428085 -0.150945 53
-0.816363 -0.185325 -0.127243 50
-0.811461 -0.0422406 -0.208214 50
-0.812836 -0.185356 -0.184181 47
-6.87412 -0.347234 1.57845 1
-7.21491 -1.68987 1.97351 33
-7.27325 -0.367301 1.14531 36
-7.20989 -1.67548 1.43074 35
-7.28289 -0.369048 0.63493 33
-7.3113 -1.6884 0.915763 35
-1.68413 -0.383903 0.0887094 55
-0.650714 -0.0340094 -0.0324251 59
-1.56693 -0.356275 -0.0274439 23
-0.813049 -0.041727 -0.0955314 56
-0.811891 -0.0413916 -0.150945 52
-0.819091 -0.184456 -0.127635 50
-0.811533 -0.0408243 -0.208214 49
-0.80604 -0.182283 -0.182496 47
-6.87109 -0.308619 1.57733 1
-7.2216 -1.65027 1.97286 35
-7.27513 -0.327944 1.14531 36
-7.21406 -1.63536 1.42978 35
-7.28229 -0.329526 0.634712 33
-7.29613 -1.64334 0.912721 33
-1.68131 -0.373689 0.0884478 55
-0.6459 -0.0302652 -0.0321625 59
-1.59078 -0.352726 -0.0278366 23
-0.815742 -0.037437 -0.0958357 56
-0.809651 -0.0368908 -0.150468 52
-0.81282 -0.178534 -0.12646 50
-0.811742 -0.0364329 -0.208214 50
-0.811766 -0.178996 -0.183619 49
-6.87157 -0.297826 1.57733 1
-7.21504 -1.63552 1.97028 33
-7.27563 -0.316516 1.14531 36
-7.21212 -1.62168 1.42883 35
-7.28285 -0.316816 0.634712 32
-7.08078 -1.58301 0.885339 1
-1.68434 -0.371592 0.0885786 55
-0.648446 -0.029245 -0.0322938 59
-1.61579 -0.355389 -0.0282729 29
-0.810841 -0.0359443 -0.0952272 55
-0.812167 -0.0355808 -0.150945 52
-0.813131 -0.177115 -0.12646 50
-0.81663 -0.0352158 -0.209507 50
-0.809669 -0.177186 -0.183058 49
-6.87546 -0.261934 1.57789 1
-7.22087 -1.59846 1.96963 33
-7.27226 -0.278228 1.14453 36
-7.21304 -1.58358 1.4274 35
-7.28934 -0.280141 0.635147 32
-7.2926 -1.59046 0.910895 33
-1.68138 -0.361704 0.0883169 55
-0.646096 -0.0257553 -0.0321625 59
-1.63711 -0.351459 -0.0286219 42
-0.813498 -0.0317909 -0.0955314 56
-0.772239 -0.163191 -0.0658888 41
-0.814789 -0.0315604 -0.151421 52
-0.816459 -0.173382 -0.126852 49
-0.809558 -0.0308191 -0.207567 50
-0.812966 -0.173467 -0.183619 49
-7.06094 -0.256622 1.62057 21
-7.21658 -1.5843 1.96769 33
-7.27026 -0.265446 1.14414 36
-7.21127 -1.56868 1.42645 35
-7.28733 -0.267327 0.63493 30
-7.28566 -1.57563 0.909678 33
-3.13239 -0.114603 0.0541025 9
-1.68445 -0.359297 0.0884478 55
-0.648635 -0.0247173 -0.0322938 59
-1.6646 -0.354403 -0.0291019 52
-0.811072 -0.0302827 -0.0952272 55
-0.767654 -0.160792 -0.0654539 41
-0.809937 -0.0299653 -0.150468 52
-0.811934 -0.170911 -0.126069 50
-0.812029 -0.0293478 -0.208214 50
-0.806126 -0.170493 -0.181935 49
-7.06953 -0.218639 1.62225 21
-7.21796 -1.54371 1.96575 33
-7.27406 -0.226183 1.14453 36
-7.21459 -1.52988 1.42549 35
-7.28867 -0.227895 0.63493 30
-7.06829 -1.48848 0.881384 1
-3.12045 -0.0978148 0.0538843 9
-1.68393 -0.349663 0.0883169 55
-0.643765 -0.0211674 -0.0320313 59
-1.67383 -0.346934 -0.0292328 55
-0.808744 -0.025819 -0.094923 56
-0.812541 -0.0256559 -0.150945 52
-0.815234 -0.167168 -0.12646 50
-0.812172 -0.0250957 -0.208214 50
-0.80942 -0.166634 -0.182496 49
-6.86775 -0.201641 1.57565 1
-7.22064 -1.53111 1.96575 33
-7.27194 -0.214684 1.14414 36
-7.20764 -1.51526 1.42359 35
-7.28906 -0.215174 0.63493 30
-7.07062 -1.47738 0.881384 1
-3.10562 -0.0919314 0.0536225 11
-1.67714 -0.345486 0.0879244 53
-0.648792 -0.0201884 -0.0322938 59
-1.67198 -0.343502 -0.0291891 58
-0.808784 -0.0245486 -0.094923 56
-0.807678 -0.0240998 -0.149992 52
-0.813107 -0.165239 -0.126069 49
-0.8098 -0.023612 -0.207567 50
-0.80968 -0.165363 -0.182496 49
-6.8614 -0.165505 1.57396 1
-7.21884 -1.49258 1.96317 33
-7.2705 -0.176546 1.14375 36
-7.21041 -1.47777 1.42263 35
-7.28756 -0.178217 0.634712 29
-7.06854 -1.43835 0.880167 1
-3.10605 -0.0762113 0.0536225 12
-1.68137 -0.337198 0.0880552 56
-0.646393 -0.0167319 -0.0321625 59
-1.67615 -0.335532 -0.0292328 59
-0.813863 -0.0204296 -0.0955314 56
-0.810243 -0.020068 -0.150468 52
-0.809123 -0.159993 -0.125285 50
-0.814738 -0.0196208 -0.20886 50
-0.810535 -0.161121 -0.182496 49
-6.87386 -0.153799 1.57677 1
-7.2167 -1.47901 1.96188 33
-7.27326 -0.163911 1.14414 35
-7.21564 -1.46441 1.42311 35
-7.28288 -0.165386 0.634276 32
-7.07347 -1.4265 0.880471 1
-3.10869 -0.0703034 0.0536661 15
-1.67706 -0.333276 0.0877936 56
-0.646421 -0.0156037 -0.0321625 59
-1.68163 -0.333593 -0.02932 62
-0.806454 -0.018848 -0.0946187 56
-0.802916 -0.0184971 -0.14904 53
-0.811821 -0.159069 -0.125677 50
-0.808428 -0.159221 -0.181935 50
-6.87946 -0.116687 1.57789 1
-7.21276 -1.43757 1.95865 33
-7.2691 -0.124473 1.14336 36
-7.21358 -1.4247 1.4212 35
-7.28367 -0.125979 0.634276 30
-7.07621 -1.38725 0.879863 1
-3.09652 -0.0538138 0.053448 29
-1.67884 -0.324197 0.0877936 56
-0.641501 -0.0121352 -0.0319 59
-1.67851 -0.323529 -0.0292328 64
-0.809026 -0.0145247 -0.094923 56
-0.807912 -0.0142306 -0.149992 53
-0.807797 -0.153864 -0.124894 50
-0.804497 -0.153901 -0.180812 50
-6.91374 -0.106399 1.58575 1
-7.20815 -1.42357 1.95671 33
-7.26435 -0.112979 1.14258 35
-7.21124 -1.41117 1.42025 35
-7.06864 -1.37423 0.878646 1
-3.09911 -0.0484473 0.0534916 35
-1.6818 -0.322036 0.0879244 56
-0.644018 -0.011053 -0.0320313 59
-1.67662 -0.320124 -0.0291891 64
-0.806566 -0.0132175 -0.0946187 58
-0.815297 -0.0129246 -0.151421 52
-0.812912 -0.153398 -0.125677 49
-0.807636 -0.0122706 -0.20692 50
-0.807129 -0.153105 -0.181373 49
-7.21289 -1.38661 1.95606 33
-7.21106 -1.37327 1.41882 35
-7.06843 -1.33582 0.877733 1
-3.09931 -0.0327607 0.0534916 23
-1.68101 -0.312762 0.0877936 56
-0.641569 -0.00776836 -0.0319 59
-1.67576 -0.31117 -0.0291455 64
-0.804143 -0.00897077 -0.0943145 58
-0.810444 -0.00875333 -0.150468 53
-0.808852 -0.148221 -0.124894 49
-0.805273 -0.00816246 -0.206274 52
-0.805526 -0.148421 -0.180812 49
-7.20581 -1.37221 1.95348 33
-7.20862 -1.35977 1.41787 35
-3.11058 -0.0279882 0.269093 8
-7.05855 -1.32119 0.876212 1
-3.09937 -0.0273513 0.0534916 21
-1.67419 -0.30845 0.087401 55
-0.641581 -0.0066486 -0.0319 59
-1.67139 -0.307327 -0.0290583 58
-0.804158 -0.00756726 -0.0943145 58
-0.808004 -0.00732083 -0.149992 53
-0.806682 -0.146354 -0.124502 50
-0.810116 -0.00678901 -0.207567 50
-0.805784 -0.147015 -0.180812 49
-7.20815 -1.33358 1.95218 33
-3.11422 -0.0111814 0.48661 4
-7.21081 -1.32111 1.41691 35
-3.07831 -0.0115936 0.266261 9
-7.06537 -1.28421 0.876212 1
-3.07947 -0.01106 0.0531426 14
-1.6807 -0.300572 0.0876627 53
-0.649097 -0.00331143 -0.0322938 59
-1.66559 -0.297233 -0.0289274 49
-0.809149 -0.00336874 -0.094923 58
-0.718629 -0.1256 -0.0606699 36
-0.805577 -0.00308491 -0.149516 55
-0.809867 -0.142571 -0.124894 50
-0.812555 -0.00255055 -0.208214 52
-0.808939 -0.143233 -0.181373 47
-7.20809 -1.32056 1.95154 33
-3.05497 -0.00566326 0.477244 2
-7.20586 -1.30721 1.41548 35
-3.07334 -0.00621311 0.265825 9
-7.06272 -1.271 0.875603 1
-3.07698 -0.00568179 0.0530989 14
-1.67385 -0.296312 0.0872702 38
-0.644109 -0.00217244 -0.0320313 59
-1.65627 -0.292559 -0.0287528 49
-0.801709 -0.00195131 -0.0940102 58
-0.706591 -0.122142 -0.0595826 36
-0.805581 -0.00167891 -0.149516 53
-0.807684 -0.140719 -0.124502 50
-0.805314 -0.0011349 -0.206274 52
-0.804394 -0.140952 -0.18025 47
-7.20302 -1.28068 1.94831 35
-3.05249 0.0103231 0.476854 11
-7.21019 -1.26903 1.41501 35
-3.05092 0.00979672 0.263864 14
-7.06928 -1.234 0.875603 1
-3.05697 0.0103525 0.0527499 20
-1.67784 -0.287973 0.087401 18
-0.641615 0.0011901 -0.0319 59
-1.6627 -0.28474 -0.0288401 49
-0.796746 0.00222392 -0.0934018 59
-0.707221 -0.118441 -0.0595826 36
-0.803125 0.00252711 -0.14904 53
-0.80841 -0.136488 -0.124502 50
-0.807723 0.00309519 -0.20692 52
-0.805121 -0.136738 -0.18025 49
-7.20287 -1.26768 1.94766 35
-3.05247 0.0156506 0.476854 9
-7.20515 -1.25518 1.41358 35
-3.05588 0.0151485 0.2643 15
-7.0592 -1.21954 0.874082 1
-3.05195 0.01566 0.0526626 24
-1.6931 -0.287594 0.0881861 14
-0.644108 0.00232431 -0.0320313 59
-1.6632 -0.281838 -0.0288401 11
-0.804185 0.00366127 -0.0943145 59
-0.700064 -0.115936 -0.0589302 36
-0.805573 0.0039451 -0.149516 55
-0.806214 -0.134656 -0.124111 50
-0.810132 0.00452263 -0.207567 52
-0.807758 -0.13575 -0.180812 47
-7.20226 -1.22873 1.94572 36
-3.0474 0.0315796 0.476074 9
-7.20194 -1.2158 1.41167 36
-3.05575 0.0311488 0.2643 14
-7.06793 -1.18297 0.874387 1
-3.04433 0.0315585 0.0525317 30
-1.72166 -0.283258 0.0896253 14
-0.644086 0.00580922 -0.0320313 59
-1.67944 -0.275596 -0.0291019 11
-0.801673 0.00784332 -0.0940102 61
-0.698224 -0.111736 -0.0587128 38
-0.803087 0.00813387 -0.14904 55
-0.809343 -0.130841 -0.124502 50
-0.805267 0.0087037 -0.206274 50
-0.806056 -0.131114 -0.18025 49
-7.19725 -1.21495 1.94378 36
-3.04488 0.0368672 0.475683 8
-6.96222 -1.16142 1.36401 1
-3.05071 0.0364203 0.263864 15
-7.0602 -1.169 0.87317 1
-3.04926 0.0374669 0.052619 23
-1.74925 -0.284738 0.0910646 14
-0.649068 0.00699784 -0.0322938 61
-1.69718 -0.275516 -0.0294073 11
-0.796696 0.00917666 -0.0934018 61
-0.693504 -0.109706 -0.0582778 38
-0.805526 0.00956892 -0.149516 55
-0.804699 -0.12862 -0.123719 50
-0.802835 0.0102147 -0.205627 53
-0.806284 -0.129707 -0.18025 49
-7.20134 -1.1756 1.94314 35
-3.13105 0.0548946 0.489341 1
-6.9682 -1.12495 1.36401 1
-3.06292 0.0531473 0.264953 3
-7.06642 -1.13079 0.87317 1
-3.06402 0.0537018 0.0528808 3
-1.77295 -0.278819 0.0922421 14
-0.64403 0.0103056 -0.0320313 61
-1.70112 -0.266723 -0.0294509 11
-0.801597 0.0135797 -0.0940102 62
-0.68915 -0.105287 -0.0578429 39
-0.800555 0.0138337 -0.148564 55
-0.807799 -0.124796 -0.124111 50
-0.805184 0.0144658 -0.206274 52
-0.804569 -0.124954 -0.179689 49
-7.19623 -1.16187 1.9412 35
-6.96531 -1.11201 1.36306 1
-3.08026 0.0588338 0.266479 11
-7.05838 -1.11813 0.871953 1
-3.07392 0.0592466 0.0530553 14
-1.80051 -0.28033 0.0936814 14
-0.649003 0.011529 -0.0322938 64
-1.71393 -0.265703 -0.0296691 15
-0.794132 0.0146882 -0.0930975 68
-0.689333 -0.104084 -0.0578429 42
-0.805437 0.0153329 -0.149516 55
-0.808015 -0.123386 -0.124111 50
-0.800329 0.0157674 -0.20498 52
-0.807169 -0.124075 -0.18025 49
-7.19009 -1.12356 1.93797 35
-6.966 -1.07599 1.36211 1
-7.06414 -1.08115 0.871953 1
-3.09357 0.0752998 0.0534044 14
-0.648934 0.014927 -0.0322938 67
-1.70042 -0.254761 -0.0294073 21
-0.799005 0.0189724 -0.093706 71
-0.69233 -0.100849 -0.0580604 42
-0.810256 0.0195361 -0.150468 58
-0.80865 -0.119154 -0.124111 50
-0.807481 0.0200102 -0.20692 52
-0.800585 -0.118731 -0.178566 47
-7.14835 0.189521 1.64022 33
-7.19204 -1.11101 1.93797 33
-7.25777 0.191188 1.1418 36
-6.96805 -1.06261 1.36211 1
-7.06602 -1.06882 0.871953 1
-3.09842 0.0813724 0.0534916 12
-0.651402 0.0161267 -0.0324251 73
-0.79649 0.0202994 -0.0934018 71
-0.68758 -0.0988973 -0.0576255 44
-0.81022 0.0209502 -0.150468 58
-0.808857 -0.117742 -0.124111 49
-0.805028 0.0214917 -0.206274 52
-0.803199 -0.117701 -0.179127 49
-7.14965 0.228273 1.64078 33
-7.20033 -1.07243 1.93861 33
-7.25663 0.230454 1.1418 36
-6.95895 -1.02396 1.35925 1
-7.27117 0.22966 0.633404 26
-7.05451 -1.02806 0.869823 1
-3.08546 0.0971953 0.0532735 11
-0.6563 0.0196975 -0.0326876 76
-0.791409 0.0244466 -0.0927933 70
-0.67823 -0.0938612 -0.0567557 44
-0.807642 0.0252527 -0.149992 58
-0.807039 -0.113007 -0.123719 49
-0.804904 0.0257065 -0.206274 52
-0.799004 -0.112645 -0.178004 49
-7.14685 0.239421 1.64022 33
-7.19502 -1.05881 1.93668 35
-7.25869 0.243202 1.14219 38
-6.95587 -1.0111 1.35829 1
-7.26827 0.242267 0.633186 27
-7.05384 -1.01539 0.869519 1
-3.09528 0.102917 0.053448 9
-0.656264 0.0208429 -0.0326876 80
-0.793845 0.0259131 -0.0930975 73
-0.678393 -0.0926773 -0.0567557 44
-0.807597 0.0266622 -0.149992 58
-0.804791 -0.111246 -0.123328 50
-0.807271 0.0271968 -0.20692 52
-0.804021 -0.111951 -0.179127 47
-7.14793 0.276933 1.64078 33
-7.19312 -1.02135 1.93474 32
-7.25736 0.279938 1.14219 38
-6.9609 -0.975883 1.35829 1
-7.27193 0.279244 0.633622 29
-7.04906 -0.978305 0.868302 1
-3.12469 0.119744 0.0539716 3
-0.653656 0.0240671 -0.0325564 82
-0.791224 0.0298329 -0.0927933 76
-0.676386 -0.0889006 -0.0565382 45
-0.804999 0.0306519 -0.149516 58
-0.802898 -0.106831 -0.122936 50
-0.807123 0.0312824 -0.20692 52
-0.802165 -0.107542 -0.178566 49
-7.14993 0.288259 1.64134 35
-7.19011 -1.00812 1.93344 32
-7.2618 0.292804 1.14297 36
-6.95044 -0.962042 1.35591 1
-7.03354 -0.963632 0.866172 1
-3.04767 -0.412651 0.159363 9
-0.661096 0.0255124 -0.0329502 85
-0.791171 0.0312138 -0.0927933 76
-0.676541 -0.08772 -0.0565382 47
-0.807397 0.0321587 -0.149992 56
-0.803084 -0.105429 -0.122936 50
-0.804655 0.0325891 -0.206274 52
-0.799938 -0.105807 -0.178004 49
-7.15069 0.327052 1.64191 35
-7.18572 -0.969164 1.93086 32
-7.26263 0.330935 1.14336 33
-6.95295 -0.925311 1.35543 1
-7.04833 -0.928093 0.867389 1
-3.06217 -0.398317 0.160017 9
-0.658455 0.0289739 -0.0328189 89
-0.788518 0.0352407 -0.092489 76
-0.664659 -0.0824372 -0.0554509 47
-0.804766 0.036271 -0.149516 58
-0.801177 -0.1009 -0.122545 50
-0.806885 0.0369164 -0.20692 53
-0.802896 -0.101939 -0.178566 50
-7.14768 0.339415 1.64134 33
-7.185 -0.956301 1.93021 32
-7.25958 0.343493 1.14297 32
-6.95228 -0.91164 1.35496 1
-7.04748 -0.915469 0.867085 1
-3.04305 -0.3904 0.15897 9
-0.655909 0.0300037 -0.0326876 90
-0.793412 0.0368559 -0.0930975 77
-0.664801 -0.081277 -0.0554509 47
-0.804701 0.0376755 -0.149516 58
-0.801352 -0.0995013 -0.122545 50
-0.806813 0.0384655 -0.20692 52
-0.800657 -0.10022 -0.178004 49
-7.14331 0.377954 1.64078 33
-7.18767 -0.917105 1.92957 32
-7.26008 0.382897 1.14336 36
-6.94966 -0.874301 1.35353 1
-7.04741 -0.876709 0.866476 1
-3.0476 -0.374238 0.159101 9
-0.65325 0.0333053 -0.0325564 90
-0.790723 0.0410152 -0.0927933 77
-0.662746 -0.077488 -0.0552335 47
-0.799584 0.0417642 -0.148564 58
-0.796961 -0.094692 -0.121762 50
-0.804189 0.0425575 -0.206274 53
-0.801188 -0.0958869 -0.178004 52
-7.1427 0.389174 1.64078 33
-7.18447 -0.903953 1.92827 32
-7.257 0.394166 1.14297 36
-6.94873 -0.861867 1.35305 1
-7.04385 -0.86503 0.865868 1
-3.05314 -0.370059 0.159363 11
-0.655684 0.0345821 -0.0326876 90
-0.790658 0.0422572 -0.0927933 83
-0.667825 -0.0769365 -0.0556684 49
-0.804411 0.0434329 -0.149516 58
-0.799576 -0.0936026 -0.122153 50
-0.806525 0.0440971 -0.20692 53
-0.801338 -0.0946282 -0.178004 50
-7.143 0.426713 1.64134 35
-7.18656 -0.867286 1.92763 32
-7.25484 0.432158 1.14297 38
-6.95301 -0.826685 1.35305 1
-7.27692 0.432215 0.634712 30
-7.275 -0.85493 0.893858 33
-3.05503 -0.354067 0.159363 11
-0.653002 0.0378649 -0.0325564 90
-0.787949 0.0462467 -0.092489 82
-0.660798 -0.0725696 -0.055016 49
-0.806631 0.0476527 -0.149992 58
-0.800055 -0.0894148 -0.122153 50
-0.79906 0.0477339 -0.20498 53
-0.801822 -0.0904312 -0.178004 50
-7.13981 0.43903 1.64078 33
-7.18327 -0.854169 1.92634 32
-7.259 0.445123 1.14375 36
-6.94971 -0.812761 1.3521 1
-7.27615 0.444915 0.634712 30
-7.03493 -0.814112 0.864042 1
-3.05317 -0.348448 0.159232 11
-0.647951 0.0386963 -0.0322938 90
-0.790344 0.047776 -0.0927933 85
-0.660923 -0.0714162 -0.055016 49
-0.806546 0.0490605 -0.149992 58
-0.80021 -0.0880183 -0.122153 52
-0.794147 0.0489621 -0.203687 53
-0.799559 -0.0887482 -0.177443 50
-7.14462 0.478142 1.64247 33
-7.18778 -0.815291 1.92634 32
-7.25402 0.484226 1.14336 38
-7.18799 -0.802665 1.39785 36
-7.26618 0.483778 0.634058 32
-7.03923 -0.776038 0.864042 1
-3.05004 -0.331377 0.15897 11
-0.650231 0.0422556 -0.0324251 90
-0.787598 0.0518839 -0.092489 85
-0.666239 -0.0684995 -0.0554509 52
-0.806269 0.0534236 -0.149992 58
-0.803114 -0.084099 -0.122545 50
-0.796289 0.0532851 -0.204334 52
-0.802449 -0.0846912 -0.178004 52
-7.139 0.489031 1.64134 33
-7.18199 -0.801936 1.9244 32
-7.25572 0.495789 1.14375 38
-6.94058 -0.762605 1.34924 1
-7.26284 0.496289 0.63384 33
-7.27478 -0.790603 0.892945 33
-3.05304 -0.326855 0.159101 11
-0.655137 0.0437335 -0.0326876 95
-0.787515 0.053121 -0.092489 86
-0.661406 -0.0668004 -0.055016 49
-0.806175 0.0548307 -0.149992 58
-0.800805 -0.0824297 -0.122153 50
-0.801012 0.0550142 -0.205627 53
-0.802581 -0.0834306 -0.178004 50
-7.13878 0.526583 1.64191 33
-7.18596 -0.765574 1.9244 32
-7.2481 0.533409 1.14297 38
-6.94435 -0.727466 1.34924 1
-7.25279 0.532495 0.633186 33
-7.27635 -0.752245 0.892641 35
-3.04726 -0.310095 0.158709 11
-0.654907 0.0470489 -0.0326876 98
-0.792175 0.0576124 -0.0930975 88
-0.669168 -0.0642186 -0.0556684 50
-0.803439 0.0587273 -0.149516 59
-0.79877 -0.0779809 -0.121762 50
-0.798316 0.0588859 -0.20498 53
-0.803007 -0.0792272 -0.178004 50
-7.14523 0.538347 1.64359 35
-7.18248 -0.752525 1.92311 32
-7.24469 0.545873 1.14258 38
-6.94561 -0.715345 1.34924 1
-7.25681 0.545527 0.633622 35
-7.28259 -0.740049 0.893249 35
-3.05028 -0.305028 0.15884 11
-0.654824 0.0481918 -0.0326876 101
-0.789599 0.0588062 -0.0927933 88
-0.664323 -0.0625481 -0.0552335 50
-0.805783 0.0603169 -0.149992 58
-0.796448 -0.0763363 -0.12137 50
-0.798212 0.0602791 -0.20498 53
-7.14221 0.576998 1.64359 35
-7.18633 -0.714907 1.92311 30
-7.24666 0.584196 1.14336 38
-6.94682 -0.678728 1.34876 1
-7.24144 0.582515 0.632533 33
-7.27155 -0.70047 0.891424 33
-3.05184 -0.289053 0.15884 11
-0.654554 0.051734 -0.0326876 104
-0.786807 0.0627382 -0.092489 88
-0.664652 -0.0589529 -0.0552335 52
-0.800564 0.0641346 -0.14904 59
-0.796837 -0.072165 -0.12137 50
-0.800292 0.0646564 -0.205627 53
-7.14605 0.589864 1.64471 36
-7.17554 -0.701181 1.91987 30
-7.24809 0.597046 1.14375 38
-6.94322 -0.664919 1.34781 1
-7.25283 0.596175 0.633622 33
-7.27523 -0.688013 0.891728 33
-3.05731 -0.284196 0.159101 11
-0.654463 0.0528764 -0.0326876 107
-0.78917 0.0643172 -0.0927933 88
-0.667233 -0.0580263 -0.0554509 50
-0.802896 0.0657363 -0.149516 58
-0.801878 -0.0712407 -0.122153 52
-0.79776 0.0659894 -0.20498 53
-0.791542 -0.0710535 -0.175197 50
-7.14275 0.628519 1.64471 36
-7.17442 -0.661901 1.91858 30
-7.23983 0.63582 1.14297 38
-6.94661 -0.628555 1.34781 1
-7.2495 0.635408 0.633622 33
-7.27884 -0.64864 0.891728 33
-3.0588 -0.26765 0.159101 12
-0.656664 0.0565217 -0.0328189 111
-0.786338 0.0683668 -0.092489 89
-0.665047 -0.0543113 -0.0552335 53
-0.800084 0.0698616 -0.14904 58
-0.794862 -0.06638 -0.120979 52
-0.797403 0.0701655 -0.20498 53
-0.794342 -0.0669893 -0.175758 50
-7.11507 0.637342 1.63854 20
-7.18038 -0.649817 1.91987 32
-7.23145 0.646531 1.1418 30
-6.94525 -0.616211 1.34733 1
-7.24838 0.64806 0.633622 33
-7.27244 -0.636552 0.890815 33
-3.05922 -0.262845 0.159101 12
-0.656564 0.0576677 -0.0328189 115
-0.788701 0.069825 -0.0927933 88
-0.665141 -0.0531505 -0.0552335 53
-0.797517 0.0710359 -0.148564 58
-0.797436 -0.0652087 -0.12137 50
-0.79728 0.0715571 -0.20498 53
-0.796872 -0.0659572 -0.17632 50
-7.17636 -0.612844 1.91794 30
-6.9385 -0.580226 1.34543 1
-7.27073 -0.598055 0.890207 33
-3.05558 -0.246414 0.15884 12
-0.651282 0.0606313 -0.0325564 120
-0.793265 0.0744259 -0.0934018 90
-0.66541 -0.0496671 -0.0552335 53
-0.804476 0.0757747 -0.149992 58
-0.797767 -0.0610324 -0.12137 52
-0.799311 0.0758239 -0.205627 53
-0.802062 -0.0621899 -0.177443 50
-7.16779 -0.599506 1.91535 27
-6.93715 -0.566702 1.34495 1
-7.27918 -0.585966 0.89112 33
-3.05351 -0.240881 0.158709 12
-0.65863 0.062491 -0.0329502 126
-0.790664 0.0755699 -0.0930975 90
-0.658048 -0.0479091 -0.0545811 53
-0.799458 0.0767014 -0.14904 58
-0.795411 -0.0594411 -0.120979 52
-0.796761 0.0771214 -0.20498 55
-0.790029 -0.0597961 -0.174635 50
-2.84615 0.289691 0.651372 47
-7.16611 -0.560336 1.91406 27
-2.85262 0.289862 0.447587 52
-6.94247 -0.53056 1.34543 1
-7.27729 -0.546199 0.890511 33
-3.05477 -0.224356 0.158709 12
-0.658294 0.0659387 -0.0329502 130
-0.795181 0.0803542 -0.093706 90
-0.660773 -0.0446488 -0.0547986 53
-0.799031 0.0810257 -0.14904 58
-0.795711 -0.0552755 -0.120979 52
-0.793944 0.0810427 -0.204334 53
-0.79277 -0.0557064 -0.175197 50
-2.84569 0.294162 0.651372 47
-7.15986 -0.547271 1.91212 29
-2.85707 0.294852 0.448368 52
-6.9336 -0.517705 1.34352 1
-7.27072 -0.534217 0.889599 33
-3.04765 -0.219009 0.158316 12
-0.655695 0.0668292 -0.0328189 134
-0.792586 0.0813455 -0.0934018 90
-0.658366 -0.0433139 -0.0545811 55
-0.798888 0.0824202 -0.14904 58
-0.793344 -0.053705 -0.120587 52
-0.798605 0.0829356 -0.205627 52
-0.787998 -0.0540974 -0.174073 50
-2.84169 0.308793 0.65081 47
-7.15772 -0.510678 1.91083 29
-2.85303 0.30954 0.447977 52
-6.93123 -0.48226 1.34257 1
-7.27342 -0.49614 0.889599 33
-3.05623 -0.203558 0.158709 12
-0.657818 0.0705328 -0.0329502 135
-0.789682 0.0852238 -0.0930975 90
-0.663554 -0.0402032 -0.055016 55
-0.8009 0.0867311 -0.149516 58
-0.793615 -0.0495503 -0.120587 52
-0.795774 0.0867108 -0.20498 53
-0.795561 -0.050478 -0.175758 50
-2.8363 0.313215 0.649687 47
-7.1586 -0.498185 1.91083 27
-2.85494 0.314791 0.448368 56
-6.93459 -0.46912 1.34304 1
-7.26437 -0.48278 0.888382 33
-3.05409 -0.198058 0.158578 12
-0.657694 0.0716808 -0.0329502 140
-0.791998 0.0868768 -0.0934018 90
-0.658653 -0.0387166 -0.0545811 55
-0.800748 0.0881288 -0.149516 58
-0.791236 -0.0480006 -0.120196 52
-0.793207 0.087968 -0.204334 53
-0.793218 -0.0489246 -0.175197 52
-2.83941 0.32912 0.65081 49
-7.15396 -0.458977 1.90889 27
-2.85074 0.329948 0.447977 56
-6.93206 -0.432495 1.34209 1
-2.87242 0.331972 0.249919 117
-7.27183 -0.443775 0.88899 33
-3.05262 -0.181379 0.158447 14
-0.65483 0.0748348 -0.0328189 144
-0.791517 0.0911606 -0.0934018 90
-0.663818 -0.0355698 -0.055016 55
-0.797822 0.0921741 -0.14904 58
-0.793949 -0.0438701 -0.120587 52
-0.797532 0.092686 -0.205627 52
-0.788608 -0.0443288 -0.174073 50
-2.83647 0.333294 0.650249 52
-7.15475 -0.44649 1.90889 26
-2.85016 0.334923 0.447977 55
-6.93525 -0.420546 1.34257 1
-2.86689 0.336402 0.249483 170
-7.26764 -0.430786 0.888382 33
-3.05792 -0.176346 0.158709 14
-0.654698 0.0759776 -0.0328189 148
-0.791356 0.0925419 -0.0934018 90
-0.658907 -0.0341175 -0.0545811 55
-0.795223 0.0932762 -0.148564 58
-0.796489 -0.0426312 -0.120979 52
-0.794971 0.0937906 -0.20498 53
-0.788684 -0.0429524 -0.174073 50
-2.8322 0.348337 0.649687 52
-7.15458 -0.408883 1.90824 26
-2.84102 0.348935 0.446807 55
-6.93246 -0.383953 1.34161 1
-2.86509 0.351408 0.249483 177
-7.26731 -0.392591 0.888077 33
-3.05381 -0.160064 0.158447 14
-0.654291 0.0794045 -0.0328189 146
-0.731251 -0.0344347 -0.0121731 8
-0.790861 0.0966842 -0.0934018 90
-0.661563 -0.0308008 -0.0547986 56
-0.794723 0.0974387 -0.148564 58
-0.791764 -0.0383305 -0.120196 50
-0.794469 0.0979518 -0.20498 53
-0.791331 -0.038957 -0.174635 50
-2.83407 0.353088 0.650249 52
-7.15528 -0.396395 1.90824 26
-2.84537 0.354009 0.447587 55
-6.92822 -0.371586 1.34066 1
-2.86447 0.356408 0.249483 148
-7.26792 -0.381175 0.888077 33
-3.05157 -0.155136 0.158316 14
-0.656629 0.0808567 -0.0329502 142
-0.736303 -0.0334174 -0.0122603 9
-0.79317 0.0982356 -0.093706 90
-0.659129 -0.0295166 -0.0545811 55
-0.796987 0.0991328 -0.14904 58
-0.796761 -0.0372087 -0.120979 50
-0.791901 0.0990343 -0.204334 53
-0.796256 -0.0379757 -0.175758 50
-2.82977 0.367607 0.649687 52
-7.15478 -0.360051 1.9076 27
-2.84103 0.368584 0.447197 55
-6.9251 -0.336273 1.33971 1
-2.85522 0.369938 0.24883 98
-7.26982 -0.343115 0.888077 33
-3.05234 -0.139156 0.158316 14
-0.651245 0.0836471 -0.0326876 134
-0.731469 -0.0294565 -0.0121731 11
-0.792645 0.102387 -0.093706 90
-0.66425 -0.026298 -0.055016 56
-0.791608 0.102526 -0.148088 58
-0.792012 -0.0328021 -0.120196 50
-0.793784 0.103357 -0.20498 53
-2.82912 0.372546 0.649687 52
-6.98173 -0.339008 1.86107 1
-2.84527 0.374188 0.447977 56
-6.92819 -0.323094 1.34018 1
-2.85951 0.375572 0.249265 70
-7.27289 -0.330541 0.888382 33
-3.05258 -0.133828 0.158316 14
-0.653573 0.0851112 -0.0328189 124
-0.736513 -0.0284048 -0.0122603 11
-0.782626 0.102465 -0.092489 89
-0.661807 -0.0250265 -0.0547986 56
-0.798727 0.104879 -0.149516 58
-0.792068 -0.0314197 -0.120196 50
-0.79119 0.10456 -0.204334 52
-2.83189 0.388512 0.65081 52
-6.97863 -0.301017 1.85978 1
-2.84321 0.389577 0.447977 55
-6.92979 -0.286813 1.34018 1
-2.8599 0.391377 0.249483 53
-7.26961 -0.290984 0.887773 33
-3.05326 -0.11731 0.158316 15
-0.653119 0.0885321 -0.0328189 115
-0.726665 -0.0240235 -0.0120858 11
-0.78206 0.106698 -0.092489 88
-0.661929 -0.0215609 -0.0547986 56
-0.803009 0.109873 -0.150468 56
-0.789754 -0.0271721 -0.119804 52
-0.795416 0.109368 -0.205627 52
-0.784495 -0.0276022 -0.17295 50
-2.82645 0.392287 0.649687 50
-6.97191 -0.288532 1.85784 1
-2.84015 0.393702 0.447587 52
-7.17059 -0.284412 1.38689 36
-2.84935 0.394995 0.248612 53
-7.2651 -0.279371 0.887165 32
-3.05344 -0.112514 0.158316 15
-0.652963 0.0896719 -0.0328189 111
-0.726706 -0.0227552 -0.0120858 9
-0.784349 0.10827 -0.0927933 86
-0.656988 -0.0202161 -0.0543637 56
-0.800386 0.110933 -0.149992 56
-0.789801 -0.0257937 -0.119804 50
-0.78805 0.109744 -0.203687 53
-0.789406 -0.0265637 -0.174073 49
-2.82677 0.40743 0.650249 50
-6.97811 -0.253419 1.85913 1
-2.8356 0.408215 0.447197 50
-7.16948 -0.248028 1.38641 36
-2.84731 0.409412 0.248612 50
-7.27142 -0.241495 0.887773 33
-3.05149 -0.0964421 0.158185 15
-0.650014 0.0927317 -0.0326876 106
-0.724314 -0.0189947 -0.0120422 9
-0.783771 0.112375 -0.0927933 86
-0.662063 -0.0169393 -0.0547986 56
-0.799814 0.114983 -0.149992 56
-0.789925 -0.0216579 -0.119804 50
-0.789874 0.114081 -0.204334 52
-0.789534 -0.0224301 -0.174073 49
-2.82364 0.41201 0.649687 49
-6.98095 -0.241325 1.85978 1
-2.83489 0.413163 0.447197 49
-6.92712 -0.226166 1.33923 1
-2.84413 0.414021 0.248394 50
-7.26935 -0.228724 0.887469 33
-3.05165 -0.0911161 0.158185 17
-0.649851 0.0938661 -0.0326876 103
-0.778664 0.113021 -0.0921848 82
-0.657113 -0.015629 -0.0543637 58
-0.794756 0.115663 -0.14904 58
-0.787494 -0.0202008 -0.119413 50
-0.79682 0.116659 -0.206274 52
-0.792007 -0.021132 -0.174635 50
-2.81896 0.426915 0.649126 49
-6.97974 -0.203479 1.85913 1
-2.82773 0.427754 0.446416 49
-7.17107 -0.196719 1.38641 35
-2.83446 0.428283 0.24774 49
-7.26552 -0.189258 0.88686 33
-3.04961 -0.0745389 0.158055 17
-0.641946 0.0961423 -0.0322938 100
-0.7854 0.118355 -0.0930975 80
-0.654696 -0.0121239 -0.0541462 56
-0.796545 0.120332 -0.149516 58
-0.787591 -0.0159398 -0.119413 50
-0.791424 0.120096 -0.20498 52
-0.79211 -0.0168465 -0.174635 50
-2.81347 0.430603 0.648003 49
-6.97526 -0.191161 1.85784 1
-2.82698 0.432689 0.446416 49
-7.17631 -0.184332 1.38737 35
-2.83371 0.433229 0.24774 50
-7.27576 -0.176824 0.888077 32
-3.04973 -0.0692162 0.158055 15
-0.646712 0.0980212 -0.0325564 98
-0.785192 0.119725 -0.0930975 77
-0.659696 -0.0111012 -0.0545811 58
-0.796334 0.121722 -0.149516 56
-0.790086 -0.0146259 -0.119804 52
-0.798372 0.12259 -0.20692 52
-0.787267 -0.015339 -0.173512 50
-2.8111 0.445819 0.648003 49
-6.96892 -0.15447 1.8559 1
-2.81979 0.44671 0.445636 49
-7.17227 -0.146651 1.38641 35
-2.8314 0.448061 0.24774 52
-7.27163 -0.138629 0.887469 30
-3.04756 -0.0531995 0.157924 17
-0.648656 0.101798 -0.0326876 97
-0.784555 0.123835 -0.0930975 76
-0.654765 -0.00755298 -0.0541462 56
-0.790839 0.125115 -0.148564 56
-0.79015 -0.0106268 -0.119804 52
-0.792951 0.126002 -0.205627 52
-0.787337 -0.0112167 -0.173512 50
-2.80799 0.449848 0.647441 50
-6.96918 -0.142307 1.8559 1
-2.81665 0.450747 0.445246 49
-7.17742 -0.134228 1.38737 33
-2.82816 0.452607 0.247522 53
-7.25943 -0.126981 0.885948 30
-0.681333 0.108094 0.0114313 8
-3.05013 -0.0484559 0.158055 20
-0.646012 0.102534 -0.0325564 95
-0.77701 0.123882 -0.0921848 76
-0.657268 -0.00645278 -0.0543637 56
-0.797887 0.127671 -0.149992 58
-0.790168 -0.00924766 -0.119804 52
-0.790346 0.126998 -0.20498 52
-0.784918 -0.00993401 -0.17295 50
-2.80079 0.463746 0.646318 50
-7.00362 -0.107574 1.86495 1
-2.81182 0.465085 0.444856 50
-2.82337 0.466508 0.247304 55
-0.688175 0.112769 0.0115622 8
-3.04535 -0.0324239 0.157793 21
-0.640541 0.105096 -0.0322938 92
-0.778798 0.128356 -0.092489 74
-0.657292 -0.00301126 -0.0543637 58
-0.79481 0.131303 -0.149516 55
-0.792674 -0.00514128 -0.120196 52
-0.794457 0.131796 -0.206274 52
-0.792267 -0.00592357 -0.174635 50
-2.79998 0.468634 0.646318 50
-2.80613 0.469175 0.444075 52
-2.82747 0.472258 0.24774 59
-0.683027 0.113262 0.011475 4
-3.05289 -0.0271871 0.158185 23
-0.645281 0.107041 -0.0325564 90
-0.778573 0.129716 -0.092489 70
-0.654806 -0.00183886 -0.0541462 56
-0.79216 0.132282 -0.14904 55
-0.792682 -0.00375779 -0.120196 53
-0.791821 0.132917 -0.205627 52
-0.787404 -0.00448297 -0.173512 50
-2.7998 0.484192 0.646879 50
-2.81085 0.485615 0.445246 53
-3.11456 -0.0174495 0.598126 9
-2.82733 0.487974 0.247958 74
-3.08677 -0.0129769 0.374216 8
-0.684887 0.117264 0.0115186 4
-3.0505 -0.0106564 0.158055 23
-0.644711 0.110418 -0.0325564 90
-0.782749 0.134777 -0.0930975 71
-0.657297 0.00157754 -0.0543637 58
-0.791432 0.136566 -0.14904 55
-0.787753 0.000420293 -0.119413 52
-0.793493 0.137477 -0.206274 52
-0.784981 -0.000206925 -0.17295 52
-2.79904 0.48859 0.646879 50
-2.81252 0.490455 0.445636 55
-3.12195 -0.0120534 0.599555 1
-2.82647 0.492908 0.247958 82
-3.05205 -0.00798265 0.369956 3
-0.687144 0.11889 0.0115622 8
-3.05051 -0.00586469 0.158055 17
-0.646977 0.111974 -0.0326876 90
-0.789869 0.137294 -0.0940102 71
-0.654803 0.00273256 -0.0541462 56
-0.791193 0.137947 -0.14904 55
-0.79022 0.0017857 -0.119804 53
-0.788496 0.138021 -0.20498 52
-0.777672 0.00106184 -0.171266 52
-2.79165 0.502373 0.645756 52
-2.80748 0.504737 0.445246 55
-3.06307 0.00376883 0.588117 8
-2.81904 0.506325 0.247522 76
-3.04212 0.00798747 0.368739 11
-0.688993 0.12281 0.0116058 8
-3.0505 0.0101078 0.158055 18
-0.648838 0.115804 -0.0328189 90
-0.784255 0.140544 -0.0934018 70
-0.65727 0.00616626 -0.0543637 58
-0.78807 0.141512 -0.148564 55
-0.78773 0.00591979 -0.119413 52
-0.785411 0.141577 -0.204334 52
-0.780092 0.00513453 -0.171827 52
-2.78837 0.506808 0.645195 52
-2.80416 0.509193 0.444856 55
-3.06796 0.0096572 0.58907 4
-2.81815 0.511244 0.247522 62
-3.0421 0.013297 0.368739 11
-0.686297 0.123684 0.0115622 8
-3.04548 0.0154144 0.157793 23
-0.651091 0.117385 -0.0329502 90
-0.784009 0.141912 -0.0934018 68
-0.654768 0.00730384 -0.0541462 56
-0.787822 0.142887 -0.148564 55
-0.790188 0.00730239 -0.119804 52
-0.789888 0.143959 -0.205627 52
-0.784954 0.00650625 -0.17295 50
-2.78559 0.521887 0.645195 52
-2.79894 0.523902 0.444465 47
-3.06542 0.0257041 0.588594 4
-2.81045 0.525566 0.247087 56
-3.04199 0.029756 0.368739 11
-0.68564 0.127276 0.0115622 9
-3.05035 0.0319362 0.158055 26
-0.643107 0.119409 -0.0325564 90
-0.78323 0.146152 -0.0934018 62
-0.654721 0.0107321 -0.0541462 58
-0.794272 0.148513 -0.149992 55
-0.787668 0.0115565 -0.119413 53
-0.789124 0.148093 -0.205627 52
-0.782471 0.0107349 -0.172389 52
-2.78477 0.526262 0.645195 52
-2.79317 0.527867 0.443685 44
-3.05555 0.0309703 0.586687 3
-2.79974 0.528618 0.246215 53
-3.04193 0.0350653 0.368739 11
-0.690329 0.129403 0.0116495 11
-3.05029 0.03726 0.158055 24
-0.640445 0.120066 -0.0324251 90
-0.780536 0.147055 -0.0930975 61
-0.657191 0.0119017 -0.0543637 58
-0.791601 0.14944 -0.149516 55
-0.790115 0.0129566 -0.119804 53
-0.788864 0.14947 -0.205627 52
-0.780015 0.012078 -0.171827 50
-2.78188 0.541321 0.645195 50
-2.79521 0.54343 0.444465 38
-3.07989 0.047307 0.591453 3
-2.80426 0.544698 0.246869 55
-3.08388 0.0516327 0.373911 2
-0.694548 0.133972 0.0117367 12
-3.04007 0.0530721 0.157531 21
-0.644708 0.124374 -0.0326876 90
-0.646896 0.0152793 -0.0106896 3
-0.779755 0.15114 -0.0930975 61
-0.65712 0.0153426 -0.0543637 58
-0.793216 0.154055 -0.149992 53
-0.794977 0.0170314 -0.120587 55
-0.78807 0.153599 -0.205627 52
-0.782377 0.0161972 -0.172389 52
-2.78102 0.54569 0.645195 50
-2.79436 0.54782 0.444465 49
-2.79353 0.54767 0.245997 53
-0.686956 0.133737 0.0116058 12
-3.04497 0.0579345 0.157793 23
-0.64204 0.125017 -0.0325564 90
-0.64187 0.0163184 -0.0106023 4
-0.784386 0.153325 -0.093706 61
-0.654602 0.0164451 -0.0541462 58
-0.795353 0.155915 -0.150468 53
-0.792478 0.0183767 -0.120196 55
-0.785432 0.154504 -0.20498 52
-0.782351 0.0174262 -0.172389 52
-2.77574 0.559762 0.644633 49
-2.78661 0.561466 0.443685 50
-2.79805 0.563281 0.246651 55
-0.69117 0.138202 0.0116931 11
-3.04463 0.0738771 0.157793 21
-0.643846 0.12876 -0.0326876 88
-0.636781 0.0194518 -0.0105151 4
-0.778708 0.156444 -0.0930975 59
-0.652021 0.0197012 -0.0539288 58
-0.794554 0.159939 -0.150468 53
-0.794839 0.0225809 -0.120587 55
-0.78464 0.158477 -0.20498 52
-0.777378 0.0214185 -0.171266 52
-2.77724 0.564608 0.645195 50
-2.78563 0.566328 0.443685 50
-7.16697 0.164977 1.38546 32
-2.7995 0.56866 0.246869 56
-7.25342 0.177006 0.885339 29
-0.686029 0.13841 0.0116058 9
-3.04948 0.0793129 0.158055 24
-0.641175 0.129384 -0.0325564 83
-0.644243 0.020749 -0.010646 4
-0.785727 0.159295 -0.0940102 59
-0.656965 0.0209617 -0.0543637 59
-0.794273 0.161325 -0.150468 53
-0.79233 0.0239087 -0.120196 55
-0.784363 0.159846 -0.20498 52
-0.779775 0.0228314 -0.171827 52
-2.77166 0.57961 0.644633 49
-6.89331 0.184198 1.83587 1
-2.78252 0.581392 0.443685 50
-7.1537 0.203411 1.38308 30
-2.79638 0.583798 0.246869 65
-7.25732 0.216393 0.885948 30
-0.677931 0.140582 0.011475 8
-3.04652 0.0957364 0.157924 23
-0.645352 0.133876 -0.0328189 80
-0.639124 0.0240835 -0.0105587 4
-0.784854 0.163543 -0.0940102 59
-0.654352 0.0244412 -0.0541462 59
-0.793389 0.16562 -0.150468 53
-0.794662 0.0281294 -0.120587 55
-0.781124 0.163588 -0.204334 52
-0.774769 0.0269115 -0.170704 53
-2.77075 0.583963 0.644633 50
-6.92677 0.197167 1.84491 1
-2.77677 0.584742 0.442904 55
-7.15579 0.215969 1.38355 29
-2.7978 0.589193 0.247087 83
-7.25945 0.227868 0.886252 30
-0.682576 0.142798 0.0115622 4
-3.04636 0.100522 0.157924 23
-0.63779 0.133452 -0.0324251 71
-0.636583 0.0251191 -0.0105151 4
-0.782168 0.164262 -0.093706 59
-0.654309 0.0255832 -0.0541462 62
-0.790698 0.166495 -0.149992 55
-0.792144 0.0294396 -0.120196 55
-0.787923 0.166462 -0.206274 52
-0.777161 0.0282015 -0.171266 52
-2.76765 0.598462 0.644633 52
-6.92086 0.232065 1.84362 1
-2.7785 0.600318 0.443685 55
-7.15706 0.25227 1.38403 30
-2.79721 0.603873 0.247304 90
-7.26807 0.266232 0.887469 32
-0.672072 0.144135 0.0113877 3
-3.0433 0.11638 0.157793 24
-0.637082 0.13679 -0.0324251 67
-0.628954 0.0280634 -0.0103842 4
-0.778873 0.167828 -0.0934018 59
-0.651677 0.0289166 -0.0539288 65
-0.794641 0.171539 -0.150945 56
-0.796914 0.033766 -0.120979 56
-0.78707 0.170447 -0.206274 52
-0.781872 0.0324421 -0.172389 52
-2.76185 0.602252 0.64351 50
-6.91562 0.243977 1.84233 1
-2.77021 0.603586 0.442514 38
-7.16637 0.266368 1.38594 32
-2.79372 0.608223 0.247087 89
-7.26016 0.278636 0.886556 33
-0.674236 0.145959 0.0114313 4
-3.04559 0.121787 0.157924 23
-0.634404 0.137368 -0.0322938 65
-0.628904 0.0291611 -0.0103842 8
-0.78585 0.170781 -0.0943145 59
-0.651626 0.030054 -0.0539288 65
-0.791944 0.172399 -0.150468 56
-0.801789 0.0353447 -0.121762 58
-0.789099 0.172478 -0.20692 52
-0.774511 0.0335363 -0.170704 52
-2.75855 0.617186 0.64351 50
-6.92626 0.281873 1.84556 1
-2.76931 0.619105 0.442904 53
-7.16488 0.303887 1.38594 32
-2.78553 0.622241 0.246651 64
-7.25359 0.3177 0.885948 33
-0.688098 0.152767 0.0116931 3
-3.04239 0.138154 0.157793 23
-0.633676 0.140688 -0.0322938 62
-0.641223 0.033115 -0.0106023 8
-0.782494 0.174486 -0.0940102 59
-0.651459 0.0334655 -0.0539288 70
-0.790999 0.176682 -0.150468 53
-0.799126 0.0394355 -0.12137 58
-0.788186 0.176607 -0.20692 52
-0.774318 0.0377263 -0.170704 52
-2.75282 0.620444 0.642387 50
-6.92576 0.293961 1.84556 1
-2.76593 0.622911 0.442514 52
-7.15943 0.316178 1.38498 30
-2.77715 0.625457 0.245997 56
-7.2506 0.328982 0.885643 32
-0.68783 0.153967 0.0116931 3
-3.04466 0.143046 0.157924 24
-0.630994 0.141243 -0.0321625 61
-0.63617 0.0340047 -0.0105151 8
-0.787059 0.176811 -0.0946187 58
-0.6514 0.0346024 -0.0539288 71
-0.79069 0.178062 -0.150468 53
-0.796589 0.0407191 -0.120979 58
-0.783167 0.17691 -0.205627 52
-0.774258 0.0389425 -0.170704 52
-2.75191 0.635399 0.642949 50
-6.92901 0.329237 1.84685 1
-2.76022 0.636828 0.442124 52
-7.16019 0.35253 1.38546 32
-2.77638 0.640066 0.246215 58
-7.24878 0.366942 0.885643 33
-0.689477 0.15801 0.0117367 3
-0.632703 0.144998 -0.0322938 61
-0.633493 0.0370969 -0.0104714 9
-0.783705 0.180369 -0.0943145 58
-0.648729 0.0377726 -0.0537113 74
-0.787388 0.181506 -0.149992 53
-0.793899 0.0447653 -0.120587 58
-0.786965 0.181968 -0.20692 50
-0.77161 0.0428761 -0.170143 53
-2.74853 0.639168 0.642387 50
-6.91877 0.340862 1.84427 1
-2.76151 0.642205 0.442514 56
-7.14976 0.364533 1.38355 35
-2.78011 0.64604 0.246651 79
-7.2506 0.379721 0.885948 33
-0.630018 0.145535 -0.0321625 61
-0.635924 0.0383342 -0.0105151 8
-0.783389 0.181736 -0.0943145 58
-0.646175 0.038774 -0.0534938 77
-0.789459 0.18344 -0.150468 53
-0.796285 0.0462793 -0.120979 58
-0.788997 0.183894 -0.207567 50
-0.771534 0.0442228 -0.170143 52
-2.74977 0.655161 0.64351 52
-6.91689 0.377084 1.84427 1
-2.75571 0.656082 0.442124 47
-7.15265 0.402236 1.38451 35
-2.77184 0.659433 0.246215 99
-7.24604 0.417538 0.885643 33
-0.626819 0.148252 -0.0320313 61
-0.787253 0.186991 -0.094923 56
-0.645963 0.0421568 -0.0534938 79
-0.788488 0.187571 -0.150468 53
-0.796032 0.0504479 -0.120979 58
-0.785676 0.187458 -0.20692 50
-0.773724 0.0483987 -0.170704 52
-2.74637 0.65891 0.642949 50
-6.92105 0.389423 1.84556 1
-2.75696 0.661468 0.442514 45
-7.15684 0.415 1.38546 35
-2.77311 0.664851 0.246433 172
-7.24778 0.43033 0.885948 33
-0.626559 0.149346 -0.0320313 61
-0.784514 0.187783 -0.0946187 56
-0.645889 0.0432841 -0.0534938 80
-0.785774 0.18837 -0.149992 53
-0.795943 0.0518372 -0.120979 58
-0.780653 0.187691 -0.205627 50
-0.776071 0.0498902 -0.171266 53
-2.7404 0.673177 0.642387 44
-6.91168 0.425216 1.84362 1
-2.75586 0.676485 0.442904 56
-7.15457 0.452468 1.38546 35
-2.76717 0.678768 0.246215 173
-7.24542 0.468273 0.885948 33
-0.623318 0.152136 -0.0319 59
-0.627925 0.0456139 -0.0103842 8
-0.785929 0.192482 -0.094923 56
-0.64813 0.0469397 -0.0537113 86
-0.784777 0.192482 -0.149992 53
-0.790732 0.0556871 -0.120196 58
