# .PCD v0.7 - Point Cloud Data file format
VERSION 0.7
FIELDS x y z intensity
SIZE 4 4 4 4
TYPE F F F F
COUNT 1 1 1 1
WIDTH 1547
HEIGHT 1
VIEWPOINT 0 0 0 1 0 0 0
POINTS 1547
DATA ascii
-0.234232 -2.26878 -0.601362 59
0.170051 -2.28906 -0.521097 45
-0.576299 -5.56197 1.28084 15
-0.553871 -5.35501 0.845226 1
-0.232124 -2.25201 0.195011 15
-0.235686 -2.28247 0.0394424 90
0.163973 -2.2982 0.118933 58
-0.236314 -2.28464 -0.118936 85
0.162431 -2.29357 -0.0395297 67
-0.236197 -2.27586 -0.27625 58
0.162945 -2.29526 -0.197884 55
-0.237624 -2.27803 -0.437596 52
0.164539 -2.29544 -0.359413 47
-0.238192 -2.26836 -0.601362 59
0.166274 -2.28689 -0.520536 45
-0.612287 -5.62184 1.29544 14
-0.607051 -5.58279 0.881907 14
-0.243519 -2.2508 0.195011 14
-0.246693 -2.27628 0.0393552 90
0.151598 -2.29405 0.118672 59
-0.248001 -2.28089 -0.118804 80
0.150482 -2.28937 -0.0394424 68
-0.248651 -2.27952 -0.276859 58
0.150757 -2.29359 -0.197666 55
-0.249151 -2.2768 -0.437596 52
0.15235 -2.29381 -0.359021 47
-0.249936 -2.26953 -0.602009 59
0.154297 -2.28773 -0.520536 45
-0.615652 -5.56265 1.28197 15
-0.588252 -5.32402 0.840933 1
-0.247447 -2.25037 0.195011 14
-0.251063 -2.2758 0.0393552 90
0.147593 -2.29431 0.118672 61
-0.251706 -2.27797 -0.118673 79
0.146486 -2.28963 -0.0394424 74
-0.252629 -2.27908 -0.276859 58
0.146753 -2.29385 -0.197666 55
-0.253124 -2.27636 -0.437596 52
0.148181 -2.29161 -0.35863 49
-0.254292 -2.26904 -0.602009 59
0.150139 -2.28557 -0.519974 47
-0.620951 -5.3463 1.23255 1
-0.259332 -2.24653 0.194793 14
-0.262687 -2.27197 0.0393115 90
0.135178 -2.29507 0.118672 62
-0.262764 -2.26918 -0.118279 77
0.134399 -2.29538 -0.0395297 76
-0.26438 -2.27276 -0.27625 58
0.134892 -2.29708 -0.197884 58
-0.264579 -2.26765 -0.436168 52
0.136635 -2.29975 -0.359804 47
-0.265037 -2.25809 -0.599422 59
0.137923 -2.28878 -0.520536 45
-0.628777 -5.34048 1.23143 1
-0.262961 -2.2436 0.194575 14
-0.267238 -2.27648 0.0393988 90
0.131425 -2.29279 0.118541 67
-0.267896 -2.27864 -0.118804 74
0.130099 -2.29062 -0.0394424 80
-0.268242 -2.2748 -0.276554 56
0.130736 -2.29482 -0.197666 58
-0.269697 -2.27693 -0.438073 52
0.132179 -2.29259 -0.35863 49
-0.270414 -2.26961 -0.602656 58
0.134032 -2.28413 -0.519413 45
-0.685652 -5.57164 1.2859 17
-0.685242 -5.57622 0.882297 27
-0.273706 -2.2373 0.194139 14
-0.278451 -2.27261 0.0393552 90
0.119553 -2.29594 0.118672 70
-0.278204 -2.26734 -0.118279 70
0.118637 -2.29375 -0.0394861 79
-0.279844 -2.2709 -0.27625 56
0.119119 -2.29545 -0.197666 59
-0.279706 -2.26336 -0.435692 50
0.120308 -2.29571 -0.359021 49
-0.281 -2.26102 -0.600716 59
0.122341 -2.28966 -0.520536 47
-0.693799 -5.56572 1.28477 17
0.313539 -5.66025 1.5076 8
-0.694361 -5.57012 0.881517 27
-0.278535 -2.24423 0.194793 14
-0.283347 -2.27957 0.0394861 90
0.115284 -2.29116 0.11841 71
-0.28247 -2.26933 -0.118411 64
0.114374 -2.28896 -0.0393988 85
-0.284116 -2.27287 -0.276554 56
0.114982 -2.29317 -0.197449 59
-0.284882 -2.27261 -0.437596 50
0.116041 -2.29099 -0.358238 49
-0.285553 -2.26532 -0.602009 59
0.117952 -2.28258 -0.518851 45
-0.723587 -5.55947 1.28421 14
0.289188 -5.76553 1.53538 4
-0.723516 -5.56641 0.881517 17
0.280491 -5.79266 1.11952 14
-0.288997 -2.23286 0.193922 12
0.270282 -5.74797 0.701274 15
-0.293987 -2.26814 0.0393115 83
0.103404 -2.29422 0.118541 71
-0.294349 -2.26782 -0.118411 62
0.102504 -2.29202 -0.0394424 90
-0.296013 -2.27135 -0.276554 56
0.103208 -2.29872 -0.197884 59
-0.296139 -2.26622 -0.436644 50
0.104278 -2.2965 -0.359021 49
-0.297726 -2.26619 -0.602656 58
0.106117 -2.2856 -0.519413 45
-0.713509 -5.41583 1.25108 1
0.279719 -5.77808 1.53861 17
-0.739047 -5.6092 0.888541 21
0.269682 -5.77843 1.11666 18
-0.292894 -2.23235 0.193922 12
0.253392 -5.59971 0.683019 23
-0.298927 -2.27505 0.0394424 82
0.099173 -2.28941 0.118279 74
-0.297979 -2.26483 -0.118279 61
0.0981663 -2.28471 -0.0393115 90
-0.29965 -2.26837 -0.27625 53
0.0987454 -2.28894 -0.197014 61
-0.301389 -2.27543 -0.438549 52
0.10027 -2.29668 -0.359021 50
-0.302001 -2.26806 -0.603302 59
0.102013 -2.28334 -0.518851 45
-0.772339 -5.62669 1.30106 15
0.250204 -5.79636 1.54314 12
0.231444 -5.59096 1.07996 27
-0.30424 -2.22832 0.193704 12
0.223967 -5.59848 0.682715 30
-0.310495 -2.27098 0.0393988 77
0.0872846 -2.29239 0.11841 79
-0.310569 -2.26565 -0.118411 62
0.0864012 -2.29018 -0.0393988 90
-0.311863 -2.26923 -0.276554 55
0.0866569 -2.29691 -0.197666 64
-0.311953 -2.2641 -0.436644 50
0.0881432 -2.2947 -0.35863 52
-0.312874 -2.25927 -0.601362 59
0.0902588 -2.28871 -0.519974 47
-0.786527 -5.6567 1.30836 20
0.230502 -5.56997 1.48239 14
0.220215 -5.57914 1.07758 24
-0.3095 -2.23765 0.194575 12
0.214681 -5.61126 0.684236 17
-0.314509 -2.26791 0.0393552 73
0.0831876 -2.29005 0.118279 80
-0.315213 -2.27005 -0.118673 61
0.0822138 -2.28534 -0.0393115 90
-0.31651 -2.2736 -0.277163 55
0.0825531 -2.29457 -0.197449 64
-0.316926 -2.27084 -0.438073 52
0.0839468 -2.28992 -0.357847 49
-0.318223 -2.26584 -0.603302 58
0.0860703 -2.284 -0.518851 45
-0.818517 -5.662 1.3106 21
0.199829 -5.55666 1.47852 14
-0.814153 -5.63871 0.894784 29
0.192118 -5.6121 1.08378 15
-0.32089 -2.23102 0.194139 11
0.186825 -5.68674 0.693364 26
-0.32638 -2.26623 0.0393552 71
0.0709608 -2.29546 0.118541 88
-0.327094 -2.26837 -0.118673 61
0.0700925 -2.29324 -0.0394424 90
-0.328093 -2.26694 -0.276554 55
0.0706194 -2.29746 -0.197666 64
-0.328854 -2.26666 -0.437596 52
0.0721212 -2.29526 -0.35863 52
-0.330083 -2.26414 -0.603302 59
0.0737952 -2.28687 -0.519413 47
-0.823881 -5.6366 1.30499 15
0.191147 -5.58596 1.48627 14
-0.82158 -5.62766 0.893223 27
0.184123 -5.66639 1.09426 15
-0.326225 -2.24031 0.195011 12
0.17829 -5.69942 0.694885 38
-0.331059 -2.2706 0.0394424 70
0.0672766 -2.29307 0.11841 89
-0.332139 -2.27521 -0.119067 59
0.0658583 -2.28587 -0.0393115 90
-0.331653 -2.26642 -0.276554 53
0.0663774 -2.29011 -0.197014 64
-0.333884 -2.27337 -0.439025 52
0.0679582 -2.29045 -0.357847 50
-0.334388 -2.26595 -0.603949 58
0.0700431 -2.28211 -0.51829 47
-0.850458 -5.61295 1.3005 15
0.164539 -5.64238 1.50113 14
-0.848444 -5.60619 0.890492 26
0.156204 -5.69423 1.0995 26
-0.336814 -2.23371 0.194575 11
0.148379 -5.6978 0.694581 35
-0.342922 -2.27137 0.0394861 67
0.0552039 -2.29089 0.118279 90
-0.344025 -2.27597 -0.119198 59
0.0542877 -2.28617 -0.0393115 90
-0.344263 -2.26956 -0.277163 53
0.0548501 -2.29291 -0.197231 68
-0.345015 -2.26922 -0.438549 52
0.0558991 -2.28831 -0.357455 50
-0.346585 -2.26901 -0.605242 58
0.0580259 -2.28001 -0.517728 47
-0.857427 -5.59956 1.29769 15
0.156329 -5.70059 1.51664 18
-0.857479 -5.59982 0.889711 27
0.146525 -5.70431 1.10141 23
-0.341843 -2.2405 0.195229 11
0.138247 -5.69061 0.693668 30
-0.347264 -2.27324 0.0395297 61
0.0512055 -2.29099 0.118279 90
-0.347618 -2.2729 -0.119067 58
0.0503577 -2.28876 -0.0393552 90
-0.348224 -2.26896 -0.277163 55
0.0507877 -2.29051 -0.197014 68
-0.34935 -2.27104 -0.439025 52
0.0519664 -2.29087 -0.357847 52
-0.350544 -2.2684 -0.605242 59
0.0541723 -2.28498 -0.518851 47
-0.8858 -5.58281 1.29488 15
0.126312 -5.69409 1.5147 17
-0.88369 -5.57574 0.886589 26
0.116133 -5.68046 1.09664 15
-0.35357 -2.23868 0.195229 11
0.107758 -5.65652 0.689408 23
-0.359554 -2.27386 0.0395733 59
0.0392092 -2.29122 0.118279 90
-0.359911 -2.27098 -0.119067 58
0.0383732 -2.28899 -0.0393552 90
-0.360099 -2.2671 -0.277163 52
0.0383003 -2.28577 -0.196579 71
-0.361236 -2.26918 -0.439025 52
0.0399225 -2.28864 -0.357455 50
-0.362417 -2.26653 -0.605242 58
0.0421573 -2.2828 -0.51829 47
-0.892063 -5.55961 1.28983 15
0.115757 -5.66533 1.50695 14
-0.851932 -5.31574 0.845226 1
0.104704 -5.65368 1.0914 14
-0.357082 -2.2356 0.195011 11
0.0973004 -5.62444 0.685453 29
-0.363522 -2.27069 0.0395297 58
0.0352538 -2.29378 0.11841 90
-0.365063 -2.27774 -0.119461 56
0.0344208 -2.29155 -0.0393988 90
-0.364055 -2.26647 -0.277163 52
0.0343534 -2.28832 -0.196796 71
-0.365979 -2.2734 -0.439977 50
0.035928 -2.28871 -0.357455 52
-0.366768 -2.26583 -0.605242 56
0.038173 -2.28287 -0.51829 47
-0.926126 -5.57873 1.29544 14
0.0845657 -5.63207 1.4979 12
-0.930849 -5.61312 0.893613 18
0.074476 -5.60998 1.08282 18
-0.36958 -2.23609 0.195229 11
0.0668679 -5.62489 0.685453 30
-0.374588 -2.26383 0.0394424 55
0.0228428 -2.29394 0.11841 90
-0.375347 -2.26595 -0.118936 56
0.0220219 -2.29171 -0.0393988 90
-0.376721 -2.26692 -0.277467 52
0.0223714 -2.28847 -0.196796 73
-0.37787 -2.26896 -0.439501 50
0.024006 -2.2938 -0.358238 52
-0.378626 -2.26388 -0.605242 58
0.0258538 -2.28548 -0.518851 47
-0.940938 -5.61331 1.30387 15
0.0739847 -5.57908 1.48369 14
-0.944974 -5.64331 0.898686 21
0.0648063 -5.61992 1.08473 21
-0.372659 -2.23053 0.194793 11
0.0582817 -5.64732 0.688191 30
-0.378952 -2.26564 0.0394861 58
0.0192394 -2.29398 0.11841 90
-0.380542 -2.27268 -0.11933 56
0.0180221 -2.29174 -0.0393988 90
-0.380693 -2.26877 -0.277771 52
0.018352 -2.28602 -0.196579 76
-0.382647 -2.27314 -0.440453 52
0.0199491 -2.2889 -0.357455 52
-0.382577 -2.26322 -0.605242 58
0.0222059 -2.28064 -0.517728 47
-0.974475 -5.63231 1.30948 15
0.0458114 -5.58663 1.48562 15
-0.981669 -5.67965 0.90532 24
0.0363966 -5.62508 1.08568 21
-0.383944 -2.22862 0.194793 11
0.0287854 -5.65995 0.689713 30
-0.389988 -2.26122 0.0394424 55
0.00722801 -2.29404 0.11841 90
-0.392863 -2.27311 -0.119461 55
0.00642233 -2.2918 -0.0393988 90
-0.391718 -2.26186 -0.277163 52
0.00638226 -2.28608 -0.196579 76
-0.393726 -2.26875 -0.439977 50
0.0079504 -2.2865 -0.357064 53
-0.394027 -2.26125 -0.605242 58
0.0102481 -2.27829 -0.517167 47
-0.991025 -5.66899 1.31847 24
0.036167 -5.60119 1.4895 15
-0.995409 -5.69982 0.908832 32
0.0256901 -5.64232 1.08902 23
-0.387404 -2.22549 0.194575 11
0.0190108 -5.68481 0.692755 30
-0.394329 -2.26047 0.0394424 53
0.00322414 -2.29405 0.11841 90
-0.396399 -2.26997 -0.11933 55
0.00242237 -2.29181 -0.0393988 92
-0.396094 -2.26361 -0.277467 50
0.00238447 -2.2836 -0.196362 79
-0.397685 -2.26806 -0.439977 50
0.00396917 -2.28898 -0.357455 53
-0.39963 -2.26762 -0.607182 58
0.0062836 -2.28074 -0.517728 47
-1.02342 -5.67314 1.32071 21
0.00587982 -5.61096 1.49209 14
-1.02141 -5.66762 0.90454 20
-0.00384855 -5.66938 1.09426 21
-0.399881 -2.22581 0.194793 9
-0.0117653 -5.69972 0.694581 35
-0.406603 -2.26084 0.0394861 53
-0.00918787 -2.29404 0.11841 90
-0.408723 -2.27032 -0.119461 55
-0.0099775 -2.29179 -0.0393988 96
-0.40922 -2.26632 -0.278076 50
-0.00957762 -2.28607 -0.196579 82
-0.409951 -2.26588 -0.439977 50
-0.00841154 -2.2865 -0.357064 53
-0.411497 -2.2655 -0.607182 56
-0.00605515 -2.27831 -0.517167 47
-1.02621 -5.63797 1.31285 14
-0.00390684 -5.64719 1.50178 14
-1.02244 -5.61724 0.896735 15
-0.0137782 -5.69145 1.09855 21
-0.403765 -2.22511 0.194793 9
-0.0217794 -5.72202 0.697319 38
-0.412341 -2.26996 0.0396606 55
-0.0131826 -2.29152 0.118279 90
-0.413133 -2.27206 -0.119592 53
-0.0139774 -2.29177 -0.0393988 96
-0.412728 -2.26316 -0.277771 50
-0.0135675 -2.28605 -0.196579 82
-0.413905 -2.26516 -0.439977 50
-0.0124022 -2.28648 -0.357064 53
-0.416762 -2.2719 -0.609122 58
-0.0100315 -2.27829 -0.517167 47
-1.04853 -5.59421 1.30387 14
-0.0326077 -5.67125 1.50824 15
-1.04586 -5.5853 0.892443 15
-0.0427151 -5.71094 1.10236 29
-0.414564 -2.22059 0.194575 9
-0.0507009 -5.71687 0.69671 32
-0.423364 -2.26539 0.039617 55
-0.0248026 -2.29392 0.11841 90
-0.424167 -2.26748 -0.119461 52
-0.0255769 -2.29167 -0.0393988 97
-0.424178 -2.26104 -0.277771 50
-0.0251381 -2.28595 -0.196579 82
-0.426729 -2.27027 -0.441406 50
-0.0239956 -2.28886 -0.357455 52
-0.427358 -2.26502 -0.607829 56
-0.0215628 -2.27821 -0.517167 47
-1.05233 -5.56623 1.29769 14
-0.0427301 -5.70499 1.51729 18
-1.05147 -5.56163 0.888931 21
-0.0526414 -5.70595 1.10141 17
-0.42029 -2.22965 0.195447 9
-0.0606302 -5.71181 0.696102 26
-0.427318 -2.26464 0.039617 53
-0.0288323 -2.29637 0.118541 90
-0.428589 -2.26919 -0.119592 52
-0.0295766 -2.29162 -0.0393988 97
-0.428587 -2.26274 -0.278076 50
-0.0291278 -2.2859 -0.196579 82
-0.430691 -2.26952 -0.441406 50
-0.0279404 -2.28388 -0.356672 53
-0.430857 -2.2619 -0.607182 56
-0.0255169 -2.27573 -0.516605 47
-1.07637 -5.52937 1.29039 15
-0.0724 -5.68779 1.51277 15
-1.09238 -5.61664 0.898686 21
-0.0819488 -5.66388 1.09331 15
-0.432435 -2.22987 0.195665 9
-0.439169 -2.26238 0.039617 53
-0.0407772 -2.2912 0.118279 90
-0.44086 -2.26684 -0.119592 50
-0.041575 -2.29144 -0.0393988 98
-0.440905 -2.2629 -0.27838 50
-0.0415352 -2.2882 -0.196796 85
-0.442568 -2.26724 -0.441406 50
-0.0399363 -2.28617 -0.357064 53
-0.444092 -2.26672 -0.609122 56
-0.0374322 -2.27557 -0.516605 47
-1.10154 -5.60636 1.30892 14
-0.0818667 -5.65384 1.50372 14
-1.05169 -5.35789 0.857323 1
-0.0924032 -5.63672 1.08806 15
-0.437286 -2.234 0.1961 9
-0.443512 -2.26153 0.039617 52
-0.0448632 -2.29611 0.118541 90
-0.445298 -2.26852 -0.119723 50
-0.0455743 -2.29136 -0.0393988 98
-0.444853 -2.26212 -0.27838 49
-0.0453958 -2.28066 -0.196144 83
-0.446524 -2.26646 -0.441406 50
-0.0439263 -2.2861 -0.357064 53
-0.448442 -2.26586 -0.609122 56
-0.0414038 -2.2755 -0.516605 47
-1.12316 -5.55734 1.29881 14
-0.112042 -5.63159 1.4979 14
-1.07431 -5.32065 0.85225 1
-0.121406 -5.61162 1.0833 15
-0.449366 -2.2316 0.1961 8
-0.0550666 -2.26726 0.273816 9
-0.456338 -2.26408 0.0397042 52
-0.0572285 -2.29334 0.11841 90
-0.457665 -2.2686 -0.119855 50
-0.058029 -2.29358 -0.0394424 98
-0.457579 -2.26212 -0.278684 49
-0.057394 -2.28288 -0.196362 86
-0.458781 -2.26401 -0.441406 50
-0.0558405 -2.28337 -0.356672 53
-0.461266 -2.26822 -0.610415 58
-0.053767 -2.27768 -0.517167 47
-1.12945 -5.54363 1.29601 14
-0.121119 -5.59517 1.48821 14
-0.130537 -5.58196 1.07758 15
-0.45326 -2.23081 0.1961 8
-0.058569 -2.26469 0.273512 11
-0.461288 -2.26817 0.0397915 52
-0.0607089 -2.28826 0.118148 90
-0.461124 -2.26535 -0.119723 50
-0.0619696 -2.29098 -0.0393988 99
-0.462127 -2.26626 -0.279293 49
-0.06144 -2.28526 -0.196579 86
-0.464704 -2.27282 -0.44331 50
-0.0598256 -2.28327 -0.356672 53
-0.465711 -2.26977 -0.611062 58
-0.0574009 -2.28003 -0.517728 47
-1.2104 -5.78562 1.3544 3
-0.148875 -5.57275 1.48239 14
-0.160006 -5.62538 1.08616 15
-0.466075 -2.2358 0.196754 8
-0.0704261 -2.26435 0.273512 11
-0.47225 -2.26336 0.0397479 52
-0.0728374 -2.2929 0.11841 90
-0.473491 -2.26535 -0.119855 50
-0.0735644 -2.29063 -0.0393988 99
-0.472966 -2.25895 -0.278684 49
-0.0733299 -2.28242 -0.196362 86
-0.475191 -2.26564 -0.442358 50
-0.0717075 -2.28045 -0.356281 53
-0.0692694 -2.27726 -0.517167 47
-1.21999 -5.78111 1.35384 21
-0.1594 -5.60145 1.49015 14
-0.172398 -5.67903 1.09664 15
-0.468434 -2.22767 0.1961 8
-0.074378 -2.26423 0.273512 9
-0.476595 -2.26245 0.0397479 50
-0.0767607 -2.29027 0.118279 90
-0.477444 -2.26452 -0.119855 50
-0.0774828 -2.288 -0.0393552 99
-0.478451 -2.2654 -0.279597 49
-0.0773925 -2.28478 -0.196579 89
-0.479145 -2.26481 -0.442358 50
-0.0757642 -2.28279 -0.356672 53
-0.0731707 -2.2747 -0.516605 47
-0.191138 -5.64396 1.50178 14
-0.483116 -2.23728 0.19719 4
-0.488434 -2.25993 0.0397479 50
-0.0890592 -2.28733 0.118148 90
-0.489824 -2.26443 -0.119986 50
-0.0899538 -2.29005 -0.0393988 99
-0.490701 -2.26278 -0.279597 47
-0.0893545 -2.28434 -0.196579 86
-0.491391 -2.26218 -0.442358 50
-0.0878054 -2.28483 -0.357064 53
-0.0855632 -2.27671 -0.517167 47
-0.202414 -5.68465 1.51277 18
-0.486489 -2.234 0.196972 8
-0.493446 -2.26395 0.0398351 50
-0.092652 -2.28719 0.118148 90
-0.493775 -2.26357 -0.119986 49
-0.0940478 -2.29238 -0.0394424 99
-0.495848 -2.26928 -0.28051 49
-0.0932448 -2.28169 -0.196362 89
-0.496918 -2.26851 -0.443787 50
-0.0916992 -2.28221 -0.356672 53
-0.0890492 -2.27413 -0.516605 47
-0.230512 -5.66666 1.50824 14
-0.497246 -2.22907 0.196754 4
-0.50326 -2.25411 0.0397042 50
-0.105062 -2.29665 0.118672 90
-0.50468 -2.25861 -0.119855 47
-0.105649 -2.29188 -0.0394424 99
-0.506092 -2.25939 -0.279597 49
-0.10501 -2.28617 -0.196796 88
-0.506239 -2.25639 -0.441882 50
-0.103861 -2.28663 -0.357455 53
-0.101264 -2.28094 -0.51829 47
-0.236089 -5.56249 1.48045 12
-0.502779 -2.23549 0.197408 4
-0.509395 -2.26298 0.0398787 49
-0.108617 -2.28648 0.118148 90
-0.508621 -2.25772 -0.119855 49
-0.109649 -2.29169 -0.0394424 99
-0.510034 -2.2585 -0.279597 30
-0.108774 -2.28101 -0.196362 88
-0.511805 -2.26268 -0.44331 8
-0.10763 -2.28151 -0.356672 53
-0.10503 -2.27589 -0.517167 47
-0.266001 -5.57806 1.48498 15
-0.513356 -2.22798 0.196972 4
-0.52011 -2.25541 0.0397915 35
-0.12084 -2.29087 0.11841 90
-0.519139 -2.24764 -0.119461 11
-0.121647 -2.29109 -0.0394424 99
-0.520171 -2.24855 -0.278684 30
-0.121113 -2.28039 -0.196362 86
-0.521424 -2.25041 -0.441406 8
-0.119822 -2.28585 -0.357455 53
-0.117065 -2.27774 -0.517728 47
-0.275736 -5.57759 1.48498 14
-0.518939 -2.23435 0.197626 4
-0.295663 -5.62497 0.686366 30
-0.523304 -2.24954 0.0397042 3
-0.124708 -2.28816 0.118279 90
-0.522494 -2.2443 -0.11933 11
-0.125514 -2.28837 -0.0393988 98
-0.5224 -2.24039 -0.277771 3
-0.125093 -2.28017 -0.196362 83
-0.52591 -2.25189 -0.441882 4
-0.123683 -2.28317 -0.357064 53
-0.121165 -2.27997 -0.51829 45
-0.305259 -5.56396 1.48175 15
-0.529864 -2.22667 0.19719 4
-0.332462 -5.73477 0.700057 35
-0.532753 -2.23705 0.0395297 8
-0.137518 -2.29493 0.118672 90
-0.532497 -2.23425 -0.118936 11
-0.138038 -2.29016 -0.0394424 99
-0.535091 -2.23994 -0.278076 4
-0.137463 -2.28694 -0.197014 86
-0.535796 -2.23946 -0.439977 8
-0.135777 -2.28496 -0.357455 53
-0.133224 -2.27441 -0.517167 47
-0.318463 -5.62611 1.49855 14
-0.333574 -5.71856 1.1057 24
-0.53375 -2.22574 0.19719 11
-0.340887 -5.72433 0.69884 29
-0.534317 -2.22639 0.0393552 9
-0.140679 -2.28724 0.118279 90
-0.53698 -2.23574 -0.119067 11
-0.142035 -2.28991 -0.0394424 98
-0.538027 -2.23669 -0.277771 9
-0.141009 -2.27924 -0.196362 85
-0.540858 -2.24329 -0.44093 9
-0.139474 -2.27979 -0.356672 53
-0.136514 -2.26934 -0.516044 45
-0.351627 -5.70157 1.51923 20
-0.361748 -5.70455 1.10332 20
-0.543225 -2.21575 0.196536 9
-0.367846 -5.67541 0.693059 26
-0.548565 -2.23579 0.0395733 11
-0.152492 -2.28398 0.118148 90
-0.548679 -2.2329 -0.119067 11
-0.153624 -2.28916 -0.0394424 98
-0.550326 -2.23625 -0.278076 8
-0.152941 -2.27847 -0.196362 82
-0.553382 -2.24529 -0.441882 9
-0.151409 -2.27903 -0.356672 53
-0.148549 -2.27102 -0.516605 45
-0.36022 -5.67925 1.51341 15
-0.369383 -5.65241 1.09331 15
-0.545894 -2.20997 0.1961 9
-0.374171 -5.62029 0.686366 21
-0.551652 -2.22989 0.0394861 11
-0.156809 -2.28869 0.11841 90
-0.551373 -2.22709 -0.118804 11
-0.157286 -2.2839 -0.0393552 97
-0.554826 -2.23769 -0.27838 9
-0.157083 -2.28069 -0.196579 82
-0.556707 -2.24194 -0.441406 9
-0.155386 -2.27876 -0.356672 53
-0.152354 -2.26833 -0.516044 45
-0.388976 -5.6483 1.50566 14
-0.396583 -5.61613 1.08663 14
-0.559678 -2.21422 0.196754 9
-0.402989 -5.59591 0.683628 30
-0.565164 -2.23423 0.039617 11
-0.168832 -2.28283 0.118148 90
-0.564254 -2.22902 -0.119067 11
-0.169821 -2.28551 -0.0393988 97
-0.568149 -2.23947 -0.278988 9
-0.16938 -2.2848 -0.197014 80
-0.570041 -2.24365 -0.442358 8
-0.167491 -2.28038 -0.357064 52
-0.165309 -2.27719 -0.51829 47
-0.397153 -5.62352 1.49919 14
-0.406384 -5.61543 1.08663 18
-0.564158 -2.21566 0.196972 9
-0.413398 -5.61754 0.686366 30
-0.567825 -2.2284 0.0395297 11
-0.1726 -2.28505 0.118279 90
-0.568144 -2.22803 -0.119067 11
-0.173625 -2.28272 -0.0393552 96
-0.173001 -2.27953 -0.196579 82
-0.572736 -2.2379 -0.441406 8
-0.171471 -2.28008 -0.357064 53
-0.168536 -2.27207 -0.517167 45
-0.422367 -5.57809 1.48756 14
-0.435363 -5.62064 1.08806 18
-0.577878 -2.22241 0.197844 8
-0.444735 -5.64004 0.689408 26
-0.580989 -2.23275 0.0396606 11
-0.184366 -2.28163 0.118148 90
-0.579414 -2.22512 -0.119067 11
-0.185373 -2.2843 -0.0393988 94
-0.184537 -2.27863 -0.196579 77
-0.585922 -2.2421 -0.442834 4
-0.183407 -2.27915 -0.357064 53
-0.180243 -2.26873 -0.516605 45
-0.432286 -5.57976 1.48821 15
-0.445172 -5.61987 1.08806 15
-0.58302 -2.22622 0.198279 8
-0.457932 -5.6813 0.694581 26
-0.58298 -2.22448 0.0395297 9
-0.188348 -2.2813 0.118148 82
-0.585835 -2.23377 -0.119592 9
-0.18936 -2.28398 -0.0393988 91
-0.188513 -2.2783 -0.196579 77
-0.589834 -2.24107 -0.442834 3
-0.187385 -2.27883 -0.357064 52
-0.184202 -2.26841 -0.516605 45
-0.463269 -5.59908 1.49403 14
-0.479091 -5.67126 1.09855 15
-0.596604 -2.23035 0.198933 4
-0.490406 -5.71097 0.698536 33
-0.595267 -2.22382 0.0395733 9
-0.200077 -2.2778 0.118018 80
-0.599465 -2.2379 -0.119986 4
-0.201531 -2.28544 -0.0394424 91
-0.20044 -2.27729 -0.196579 73
-0.60156 -2.23795 -0.442834 3
-0.199524 -2.28028 -0.357455 52
-0.603648 -2.23955 -0.611708 3
-0.196281 -2.26984 -0.517167 45
-0.476462 -5.63917 1.50501 14
-0.49212 -5.7071 1.1057 23
-0.598548 -2.22209 0.198279 4
-0.501016 -5.71752 0.699448 39
-0.597192 -2.21553 0.0394424 8
-0.204052 -2.27744 0.118018 73
-0.602719 -2.23444 -0.119855 4
-0.205519 -2.28509 -0.0394424 90
-0.204632 -2.27941 -0.196796 73
-0.603537 -2.22979 -0.441406 3
-0.203718 -2.28238 -0.357847 52
-0.607556 -2.23849 -0.611708 3
-0.200243 -2.2695 -0.517167 45
-0.511251 -5.68462 1.51793 15
-0.523213 -5.7068 1.10617 27
-0.615197 -2.23563 0.199805 8
-0.530348 -5.69743 0.697319 29
-0.6105 -2.21709 0.0395297 3
-0.21614 -2.27382 0.117887 67
-0.611476 -2.21912 -0.119198 4
-0.217415 -2.27897 -0.0393552 90
-0.216731 -2.27579 -0.196579 71
-0.614282 -2.22176 -0.440453 4
-0.215439 -2.27883 -0.357455 52
-0.618365 -2.23052 -0.610415 4
-0.212075 -2.26353 -0.516044 45
-0.522264 -5.69575 1.52117 20
-0.530457 -5.67655 1.10046 15
-0.614434 -2.21775 0.198279 14
-0.535588 -5.65706 0.692451 18
-0.61303 -2.2112 0.0394424 3
-0.220417 -2.28093 0.118279 59
-0.615348 -2.21805 -0.119198 11
-0.221392 -2.27858 -0.0393552 90
-0.220938 -2.27789 -0.196796 70
-0.61552 -2.21123 -0.438549 3
-0.219415 -2.27845 -0.357455 52
-0.623558 -2.23408 -0.611708 4
-0.216534 -2.27289 -0.51829 45
-0.549241 -5.6738 1.516 14
-0.555841 -5.6396 1.09378 14
-0.627686 -2.2218 0.198933 14
-0.560062 -5.60232 0.686062 20
-0.618763 -2.18883 0.0390934 12
-0.232109 -2.27726 0.118148 56
-0.623546 -2.20278 -0.118542 11
-0.233172 -2.27992 -0.0393988 90
-0.23311 -2.27918 -0.197014 67
-0.62939 -2.21753 -0.440453 3
-0.231587 -2.27972 -0.357847 52
-0.63552 -2.23322 -0.612355 4
-0.227716 -2.26446 -0.516605 45
-0.555151 -5.63197 1.50501 12
-0.563261 -5.60433 1.08711 15
-0.629515 -2.21352 0.198279 8
-0.570586 -5.60875 0.686975 24
-0.62708 -2.20206 0.0393552 9
-0.236335 -2.27934 0.118279 52
-0.62739 -2.20169 -0.118542 9
-0.236897 -2.27702 -0.0393552 90
-0.237087 -2.27877 -0.197014 64
-0.630557 -2.20699 -0.438549 3
-0.235317 -2.27686 -0.357455 50
-0.642474 -2.24128 -0.614941 4
-0.232153 -2.2689 -0.517728 45
-0.582393 -5.59766 1.49661 14
-0.591317 -5.5891 1.08473 15
-0.640786 -2.20769 0.198061 9
-0.601973 -5.61545 0.688191 14
-0.6393 -2.20115 0.0393988 9
-0.248664 -2.27803 0.118279 49
-0.641004 -2.20557 -0.118936 9
-0.249213 -2.27571 -0.0393552 90
-0.249016 -2.2775 -0.197014 64
-0.643866 -2.20826 -0.439501 3
-0.246973 -2.27314 -0.357064 52
-0.6542 -2.23789 -0.614941 4
-0.244426 -2.26761 -0.517728 45
-0.592413 -5.59903 1.49726 14
-0.602893 -5.60514 1.08806 14
-0.641839 -2.19701 0.19719 4
-0.606799 -5.57749 0.683628 27
-0.645952 -2.20963 0.0395733 8
-0.251972 -2.27515 0.118148 45
-0.643448 -2.19966 -0.118673 8
-0.253185 -2.27527 -0.0393552 90
-0.25326 -2.27954 -0.197231 64
-0.656721 -2.23774 -0.445691 3
-0.251206 -2.27516 -0.357455 50
-0.66152 -2.24832 -0.618175 23
-0.248247 -2.26965 -0.51829 45
-0.629074 -5.58251 1.08425 17
-0.652951 -2.19373 0.19719 4
-0.643532 -5.64081 0.691842 26
-0.659273 -2.21351 0.0397042 4
-0.263316 -2.26884 0.117887 41
-0.66529 -2.23225 -0.120642 3
-0.264698 -2.27396 -0.0393552 90
-0.666734 -2.23285 -0.281422 11
-0.264512 -2.27575 -0.197014 62
-0.667335 -2.23204 -0.445215 45
-0.263673 -2.27872 -0.358238 50
-0.673587 -2.24726 -0.618821 61
-0.2604 -2.27074 -0.518851 45
-0.643247 -5.62042 1.09188 21
-0.657495 -2.19497 0.197408 3
-0.652809 -5.63474 0.691234 29
-0.668169 -2.22912 0.0400096 11
-0.268137 -2.27582 0.118279 42
-0.668466 -2.2287 -0.120511 27
-0.268954 -2.27598 -0.0393988 90
-0.671346 -2.23405 -0.281727 52
-0.269057 -2.28023 -0.197449 61
-0.677606 -2.25202 -0.449501 53
-0.267366 -2.2758 -0.357847 50
-0.680303 -2.25533 -0.621408 64
-0.264363 -2.27028 -0.518851 47
-0.670059 -5.59504 1.08759 23
-0.671893 -2.20103 0.198279 4
-0.67934 -5.60661 0.688191 29
-0.680563 -2.22798 0.0400533 52
-0.279449 -2.26943 0.118018 38
-0.690026 -2.25608 -0.122218 53
-0.280566 -2.27206 -0.0393552 90
-0.688858 -2.24949 -0.28416 56
-0.28109 -2.27627 -0.197231 61
-0.69083 -2.25313 -0.450453 53
-0.279279 -2.27437 -0.357847 49
-0.692813 -2.25404 -0.622054 61
-0.276535 -2.27129 -0.519413 45
-0.679917 -5.58643 1.08616 23
-0.673535 -2.19271 0.197626 4
-0.68732 -5.59064 0.686366 27
-0.691465 -2.24817 0.0404459 53
-0.283105 -2.26646 0.117887 35
-0.693962 -2.25487 -0.122218 55
-0.284531 -2.27156 -0.0393552 86
-0.694247 -2.25302 -0.284769 56
-0.285367 -2.27825 -0.197449 59
-0.696211 -2.25661 -0.451405 53
-0.283548 -2.27633 -0.358238 49
-0.69857 -2.25732 -0.623348 67
-0.280206 -2.26838 -0.518851 45
-0.697705 -5.56985 1.49273 15
-0.707007 -5.56575 1.08282 18
-0.687626 -2.19616 0.198279 3
-0.723524 -5.63361 0.692147 21
-0.705473 -2.25167 0.0405768 55
-0.295364 -2.26489 0.117887 32
-0.706507 -2.25359 -0.122349 53
-0.297136 -2.27247 -0.0393988 85
-0.707917 -2.25397 -0.285377 55
-0.297292 -2.27672 -0.197449 59
-0.707673 -2.25047 -0.450929 55
-0.295463 -2.27482 -0.358238 49
-0.711107 -2.25593 -0.623994 64
-0.292168 -2.26441 -0.51829 45
-1.68512 -5.33945 1.28253 1
-0.706518 -5.56144 1.49079 15
-1.69144 -5.36268 0.883077 1
-0.719523 -5.58642 1.08711 14
-0.695206 -2.20683 0.199369 3
-0.732691 -5.63492 0.692451 23
-0.711661 -2.25759 0.0407077 55
-0.299243 -2.2669 0.118018 27
-0.71044 -2.25235 -0.122349 53
-0.300779 -2.26947 -0.0393552 80
-0.711457 -2.25285 -0.285377 55
-0.301265 -2.2762 -0.197449 58
-0.712341 -2.25157 -0.451405 61
-0.298799 -2.2694 -0.357455 49
-0.715775 -2.25699 -0.624641 59
-0.295725 -2.26395 -0.51829 45
-1.72275 -5.36071 1.28983 1
-0.739374 -5.59371 1.50049 14
-1.73159 -5.39137 0.889321 1
-0.752645 -5.6192 1.09426 15
-0.705605 -2.20092 0.199151 3
-0.765823 -5.65806 0.695797 29
-0.723843 -2.25633 0.0407514 55
-0.310774 -2.26283 0.117887 23
-0.722988 -2.25098 -0.12248 53
-0.312933 -2.27287 -0.0394424 76
-0.724765 -2.25382 -0.285986 53
-0.313514 -2.27706 -0.197666 58
-0.725989 -2.25494 -0.452834 53
-0.311667 -2.27515 -0.35863 49
-0.727189 -2.25334 -0.624641 61
-0.308221 -2.2672 -0.519413 45
-1.73885 -5.37855 1.29488 1
-0.752003 -5.61396 1.5063 14
-1.73795 -5.37894 0.88776 1
-0.769343 -5.66152 1.10284 20
-0.710212 -2.20205 0.199369 3
-0.778378 -5.67639 0.698231 33
-0.726635 -2.25018 0.0406641 90
-0.314045 -2.25734 0.117625 20
-0.726916 -2.24971 -0.12248 58
-0.31724 -2.2748 -0.0394861 74
-0.729463 -2.25491 -0.28629 55
-0.317826 -2.27898 -0.197884 56
-0.730681 -2.25601 -0.45331 53
-0.315303 -2.27215 -0.358238 49
-0.733009 -2.25653 -0.625934 59
-0.311523 -2.26183 -0.51829 45
-1.85638 -5.63745 1.36002 24
-0.786676 -5.6409 1.5147 15
-1.76858 -5.37415 0.888541 1
-0.800341 -5.66713 1.10475 24
-0.722115 -2.19818 0.199369 3
-0.808382 -5.66718 0.697623 32
-0.740752 -2.25347 0.040795 55
-0.326606 -2.25807 0.117756 17
-0.741811 -2.25536 -0.123005 53
-0.329543 -2.27305 -0.0394861 70
-0.741652 -2.25093 -0.28629 55
-0.329755 -2.27728 -0.197884 55
-0.742106 -2.24969 -0.452834 55
-0.328237 -2.2778 -0.359413 47
-0.745574 -2.25496 -0.626581 61
-0.324096 -2.26253 -0.518851 45
-1.8591 -5.61603 1.35553 15
-0.798198 -5.65148 1.51793 15
-1.85929 -5.61985 0.929904 24
-0.809885 -5.6633 1.10427 21
-0.728299 -2.20401 0.200022 3
-0.814465 -5.64625 0.695189 27
-0.746257 -2.25692 0.0408823 52
-0.329796 -2.25509 0.117625 15
-0.744175 -2.24932 -0.122743 53
-0.33351 -2.27247 -0.0394861 68
-0.74675 -2.25448 -0.286899 59
-0.333373 -2.27424 -0.197666 55
-0.74758 -2.25305 -0.453786 53
-0.33186 -2.27478 -0.359021 47
-0.750271 -2.25594 -0.627227 59
-0.32765 -2.26202 -0.518851 45
-1.88537 -5.59699 1.35328 15
-0.826445 -5.64498 1.51729 15
-0.835678 -5.6397 1.10046 18
-0.738651 -2.19793 0.199805 3
-0.841827 -5.62718 0.693364 27
-0.755276 -2.24601 0.0407514 55
-0.341599 -2.25333 0.117625 15
-0.757145 -2.25026 -0.123005 53
-0.345378 -2.27322 -0.0395297 65
-0.758544 -2.25053 -0.286899 56
-0.344879 -2.27252 -0.197666 55
-0.758974 -2.24924 -0.453786 53
-0.343767 -2.27302 -0.359021 47
-0.76323 -2.25669 -0.628521 59
-0.340202 -2.26509 -0.519974 45
-1.89025 -5.58248 1.35047 15
-0.832776 -5.61963 1.51083 15
-1.88659 -5.57165 0.924051 20
-0.84371 -5.6261 1.09807 18
-0.744882 -2.20372 0.200458 3
-0.849431 -5.61098 0.691538 27
-0.761602 -2.25179 0.0408823 53
-0.346278 -2.25767 0.117887 14
-0.761873 -2.2513 -0.123137 53
-0.349345 -2.27262 -0.0395297 62
-0.764067 -2.25391 -0.287507 58
-0.349218 -2.27438 -0.197884 53
-0.763689 -2.25023 -0.454262 52
-0.347733 -2.27241 -0.359021 47
-0.767168 -2.25535 -0.628521 59
-0.343433 -2.25967 -0.518851 45
-1.91487 -5.55605 1.34654 15
-0.861096 -5.60803 1.50889 14
-1.83285 -5.32124 0.883858 1
-0.86941 -5.59735 1.09331 17
-0.753977 -2.19272 0.199805 3
-0.878034 -5.60155 0.69093 27
-0.774196 -2.25013 0.0409259 55
-0.358867 -2.26076 0.118148 14
-0.774857 -2.2495 -0.123268 52
-0.362015 -2.2757 -0.039617 61
-0.777479 -2.25457 -0.288116 59
-0.361132 -2.27 -0.197666 50
-0.776263 -2.24852 -0.454738 53
-0.359246 -2.26812 -0.35863 47
-0.779757 -2.25359 -0.629167 61
-0.356007 -2.26266 -0.519974 45
-1.92137 -5.5435 1.3443 15
-0.869039 -5.59459 1.50566 15
-1.92302 -5.55134 0.92288 18
-0.878638 -5.58597 1.0914 18
-0.761064 -2.20081 0.200676 3
-0.887809 -5.60001 0.69093 23
-0.777695 -2.24628 0.0408823 53
-0.362812 -2.26013 0.118148 12
-0.780419 -2.25286 -0.12353 53
-0.365594 -2.27259 -0.0395733 59
-0.781412 -2.2532 -0.288116 59
-0.365874 -2.27428 -0.198101 50
-0.781798 -2.2518 -0.455691 53
-0.363974 -2.27237 -0.359413 47
-0.784082 -2.25209 -0.629167 61
-0.359578 -2.25963 -0.519413 45
-1.96025 -5.55829 1.35047 15
-0.896625 -5.57311 1.50113 14
-0.905522 -5.56676 1.08854 15
-0.771304 -2.19197 0.20024 3
-0.92449 -5.63431 0.695797 23
-0.791109 -2.24689 0.0409695 53
-0.374228 -2.2532 0.117887 12
-0.792204 -2.24875 -0.12353 53
-0.377885 -2.27058 -0.0395733 59
-0.792765 -2.2466 -0.287811 90
-0.377374 -2.26988 -0.197884 52
-0.79397 -2.24754 -0.455691 53
-0.376264 -2.27037 -0.359413 47
-0.795863 -2.24795 -0.629167 62
-0.37258 -2.26246 -0.520536 45
-1.97957 -5.58505 1.35777 15
-0.90635 -5.57154 1.50113 14
-1.98581 -5.60261 0.933807 17
-0.922368 -5.60877 1.09712 15
-0.776793 -2.19531 0.200676 3
-0.937151 -5.64983 0.697927 26
-0.795865 -2.24786 0.0410132 53
-0.377343 -2.24762 0.117625 11
-0.797798 -2.25206 -0.123793 53
-0.382256 -2.27238 -0.039617 58
-0.797516 -2.24756 -0.288116 56
-0.381335 -2.26921 -0.197884 50
-0.799538 -2.25077 -0.456643 53
-0.380629 -2.27214 -0.359804 45
-0.80222 -2.25338 -0.631107 61
-0.376923 -2.26421 -0.521097 45
-2.02464 -5.61551 1.36788 15
-0.93989 -5.59292 1.50824 14
-2.02935 -5.63162 0.94044 23
-0.959491 -5.64984 1.10617 15
-0.787433 -2.18887 0.200458 3
-0.973806 -5.68643 0.703099 27
-0.80932 -2.24837 0.0411004 53
-0.388685 -2.24315 0.117494 11
-0.811273 -2.25255 -0.124055 53
-0.393727 -2.26789 -0.0395733 55
-0.81096 -2.24802 -0.288724 55
-0.394473 -2.27455 -0.198536 50
-0.811312 -2.24655 -0.456643 53
-0.392105 -2.26768 -0.359413 45
-0.813184 -2.24688 -0.630461 61
-0.388366 -2.2598 -0.520536 45
-2.04508 -5.64438 1.37574 23
-0.956088 -5.62937 1.51858 14
-2.04844 -5.65361 0.944733 30
-0.975546 -5.68444 1.11332 20
-0.794646 -2.19686 0.20133 2
-0.988361 -5.71162 0.706446 33
-0.814095 -2.2493 0.041144 53
-0.393876 -2.24985 0.117887 11
-0.816055 -2.25348 -0.124187 55
-0.398538 -2.27212 -0.0396606 55
-0.81573 -2.24893 -0.289028 55
-0.397593 -2.26895 -0.198101 49
-0.817748 -2.25205 -0.458072 53
-0.396902 -2.27186 -0.360196 45
-0.818759 -2.25 -0.631754 62
-0.393133 -2.26392 -0.521659 45
-2.07461 -5.6336 1.37574 20
-0.99037 -5.65777 1.52763 15
-2.07105 -5.62695 0.942001 26
-1.00643 -5.69151 1.11571 27
-0.804895 -2.19047 0.201112 2
-1.01422 -5.68944 0.704316 23
-0.827197 -2.24984 0.0412313 55
-0.403507 -2.238 0.117363 9
-0.826979 -2.24684 -0.124055 52
-0.410033 -2.27008 -0.0396606 53
-0.828821 -2.24943 -0.289637 55
-0.41078 -2.27419 -0.198754 49
-0.829136 -2.24789 -0.458072 53
-0.408395 -2.26982 -0.360196 45
-0.831813 -2.25035 -0.633047 61
-0.403315 -2.25471 -0.519974 45
-2.07936 -5.61626 1.37237 17
-1.0061 -5.68933 1.53667 20
-2.0783 -5.61638 0.940831 23
-1.01349 -5.66783 1.11142 17
-0.813039 -2.20074 0.202201 3
-1.01452 -5.63393 0.697623 15
-0.829778 -2.24356 0.041144 49
-0.408739 -2.24466 0.117756 9
-0.832635 -2.25007 -0.124318 52
-0.413551 -2.2669 -0.039617 52
-0.831882 -2.24565 -0.289333 55
-0.414749 -2.27347 -0.198754 49
-0.833913 -2.24874 -0.458548 53
-0.412793 -2.27154 -0.360587 45
-0.837818 -2.25328 -0.63434 61
-0.408533 -2.26119 -0.521659 45
-2.10542 -5.59353 1.36957 15
-1.03126 -5.65291 1.52827 15
-2.09996 -5.58194 0.936928 23
-1.0343 -5.61416 1.10189 15
-0.826688 -2.20097 0.202637 2
-1.04003 -5.60152 0.694276 15
-0.843275 -2.24387 0.0412313 53
-0.419967 -2.23751 0.117494 8
-0.846165 -2.25035 -0.124581 52
-0.426723 -2.26954 -0.0397042 52
-0.845772 -2.24576 -0.289941 53
-0.426647 -2.27127 -0.198754 49
-0.847802 -2.24878 -0.4595 55
-0.42513 -2.27177 -0.360979 45
-0.847895 -2.24434 -0.633047 85
-0.420762 -2.25895 -0.521659 44
-2.10989 -5.57882 1.36676 15
-1.03633 -5.62497 1.52117 14
-2.10348 -5.56477 0.934587 23
-1.03829 -5.58098 1.09569 15
-0.832291 -2.20419 0.203073 3
-1.04701 -5.59012 0.693059 17
-0.848075 -2.24473 0.0412749 53
-0.424859 -2.24421 0.117887 4
-0.850975 -2.25121 -0.124712 52
-0.429762 -2.26388 -0.039617 50
-0.852816 -2.25371 -0.291158 53
-0.431069 -2.27297 -0.198971 49
-0.852597 -2.24959 -0.459976 52
-0.429094 -2.27103 -0.360979 45
-0.856105 -2.25414 -0.63628 65
-0.425199 -2.26308 -0.522782 45
-2.13121 -5.54723 1.3617 15
-1.05763 -5.58169 1.51083 14
-2.1255 -5.53524 0.931465 20
-1.06193 -5.55154 1.09092 15
-0.843436 -2.19995 0.203073 3
-1.09356 -5.67473 0.704316 18
-0.859426 -2.24041 0.0412749 53
-0.436603 -2.24195 0.117887 4
-0.863647 -2.24905 -0.124843 52
-0.442162 -2.26659 -0.0397042 49
-0.862822 -2.24458 -0.290549 52
-0.442493 -2.26824 -0.198754 47
-0.864855 -2.24754 -0.460452 53
-0.441445 -2.27118 -0.36137 45
-0.864893 -2.24302 -0.63434 83
-0.436128 -2.25603 -0.521659 45
-2.13298 -5.52305 1.35665 15
-1.06195 -5.55136 1.50307 14
-2.13071 -5.52001 0.929514 24
-1.07815 -5.57842 1.09664 15
-0.85176 -2.21009 0.204162 3
-1.09592 -5.63383 0.699448 15
-0.865527 -2.24342 0.0413622 50
-0.440516 -2.24119 0.117887 3
-0.867571 -2.24754 -0.124843 52
-0.447073 -2.27072 -0.0397915 49
-0.868529 -2.2477 -0.291158 53
-0.447403 -2.27235 -0.199188 47
-0.869663 -2.24832 -0.460928 53
-0.445409 -2.2704 -0.36137 44
-0.873569 -2.25261 -0.637573 71
-0.440988 -2.26005 -0.522782 44
-2.16461 -5.51597 1.35777 14
-1.09383 -5.55501 1.50566 14
-2.16866 -5.52909 0.933026 15
-1.11115 -5.59195 1.10046 15
-0.861886 -2.20081 0.203727 3
-1.11959 -5.59375 0.695189 15
-0.877262 -2.23886 0.0413622 50
-0.452146 -2.23632 0.117756 2
-0.88024 -2.24529 -0.124974 50
-0.458861 -2.26581 -0.0397479 49
-0.883402 -2.2499 -0.292071 53
-0.458806 -2.26753 -0.198971 45
-0.882714 -2.24586 -0.461405 52
-0.457773 -2.27046 -0.361762 45
-0.887125 -2.2525 -0.638867 61
-0.453209 -2.25763 -0.522782 45
-2.19294 -5.56242 1.37013 15
-1.10915 -5.58153 1.51341 14
-2.22083 -5.63594 0.951757 26
-1.11467 -5.55872 1.09426 14
-0.868466 -2.20625 0.20438 3
-0.88392 -2.2443 0.0414931 52
-0.457632 -2.2454 0.118279 3
-0.884157 -2.24375 -0.124974 50
-0.463805 -2.26991 -0.0398351 49
-0.887847 -2.25082 -0.292375 53
-0.463256 -2.26917 -0.199188 45
-0.887535 -2.2466 -0.461881 52
-0.461735 -2.26966 -0.361762 44
-0.891055 -2.25095 -0.638867 61
-0.455799 -2.25214 -0.521659 44
-2.25012 -5.62096 1.38753 20
-1.13258 -5.55217 1.50695 14
-2.24755 -5.61736 0.950586 26
-1.15363 -5.6059 1.10475 9
-0.879622 -2.20183 0.20438 3
-0.897126 -2.24443 0.0415804 52
-0.46837 -2.23808 0.118018 2
-0.899216 -2.24852 -0.125499 50
-0.474781 -2.26509 -0.0397915 47
-0.901468 -2.25074 -0.292983 53
-0.475746 -2.27168 -0.199623 45
-0.900724 -2.24663 -0.462833 52
-0.473113 -2.26479 -0.36137 45
-0.901535 -2.24417 -0.63822 59
-0.469057 -2.25688 -0.523343 45
-2.25167 -5.59934 1.38304 17
-2.24906 -5.59281 0.947074 26
-1.21061 -5.83219 1.15002 2
-0.885322 -2.20491 0.204816 3
-0.901042 -2.24287 0.0415804 52
-0.473296 -2.24215 0.118279 2
-0.901274 -2.24231 -0.125237 50
-0.479245 -2.2667 -0.0398351 47
-0.904467 -2.24686 -0.292679 52
-0.479201 -2.2684 -0.199406 45
-0.905562 -2.24733 -0.463309 52
-0.477569 -2.26638 -0.361762 42
-0.909072 -2.25155 -0.640806 61
-0.473985 -2.26083 -0.524467 45
-2.27456 -5.56904 1.37855 15
-1.22451 -5.79701 1.57609 8
-2.27364 -5.56953 0.945123 26
-1.23501 -5.79697 1.1443 11
-0.897796 -2.20255 0.205034 3
-0.914664 -2.24275 0.0416676 52
-0.485553 -2.24208 0.11841 2
-0.915283 -2.24202 -0.125499 50
-0.491632 -2.2666 -0.0398787 47
-0.918099 -2.24669 -0.293288 53
-0.49199 -2.26821 -0.199623 44
-0.917317 -2.24256 -0.463309 52
-0.489946 -2.26626 -0.362153 42
-0.920849 -2.24676 -0.640806 59
-0.484801 -2.25355 -0.523343 44
-2.27872 -5.55154 1.37518 17
-1.23362 -5.79013 1.5748 26
-2.27679 -5.54956 0.942392 26
-1.23586 -5.74659 1.13477 14
-0.898803 -2.19407 0.20438 2
-0.919918 -2.2433 0.0417112 52
-0.491048 -2.24855 0.118803 2
-0.92299 -2.24966 -0.126025 50
-0.495587 -2.26574 -0.0398787 47
-0.923907 -2.24967 -0.293896 53
-0.495948 -2.26735 -0.199623 44
-0.922164 -2.24323 -0.463785 52
-0.494422 -2.26782 -0.362545 44
-0.926082 -2.24722 -0.641453 61
-0.489245 -2.25509 -0.523905 45
-2.3031 -5.52564 1.37181 18
-1.25362 -5.73146 1.56058 12
-2.30203 -5.52576 0.94044 26
-1.2554 -5.6921 1.12524 24
-0.913534 -2.19607 0.205034 3
-0.932613 -2.24076 0.0417549 53
-0.502666 -2.24342 0.118672 2
-0.935718 -2.2471 -0.126156 50
-0.508381 -2.26547 -0.0399224 45
-0.936065 -2.24464 -0.293896 53
-0.507813 -2.26472 -0.199623 44
-0.936181 -2.24273 -0.464738 52
-0.506289 -2.2652 -0.362545 41
-0.937835 -2.24234 -0.641453 59
-0.500915 -2.25003 -0.523343 39
-2.31084 -5.51977 1.37125 18
-1.25429 -5.68681 1.54895 21
-2.30785 -5.51531 0.93927 26
-0.919289 -2.19907 0.20547 3
-0.937488 -2.24143 0.0417985 52
-0.508368 -2.25238 0.119195 3
-0.940603 -2.24777 -0.126287 52
-0.510148 -2.25482 -0.0397479 35
-0.94151 -2.24775 -0.294505 52
-0.510676 -2.25897 -0.199188 20
-0.940094 -2.2411 -0.464738 52
-0.507553 -2.25226 -0.360587 12
-0.944559 -2.24738 -0.643393 67
-0.50392 -2.24686 -0.522782 3
-2.34352 -5.51656 1.3735 14
-2.34056 -5.51224 0.940831 15
-0.936249 -2.20814 0.206777 3
-0.949799 -2.23896 0.0418421 52
-0.519597 -2.24725 0.119064 3
-0.954314 -2.24741 -0.12655 50
-0.519877 -2.2449 -0.039617 35
-0.95521 -2.24735 -0.295113 52
-0.52027 -2.24656 -0.198319 20
-0.952387 -2.23857 -0.465214 52
-0.518788 -2.24716 -0.360196 12
-0.954973 -2.24035 -0.642746 59
-0.513515 -2.23469 -0.520536 2
-2.38089 -5.57743 1.38978 14
-2.39284 -5.60807 0.958 26
-0.939124 -2.20421 0.206559 3
-0.958023 -2.24633 0.0420167 52
-0.521833 -2.23904 0.118672 4
-0.958235 -2.24574 -0.12655 50
-0.521542 -2.23425 -0.0394424 9
-0.957179 -2.24112 -0.294505 52
-0.522507 -2.23837 -0.197666 9
-0.959191 -2.24367 -0.466643 52
-0.521046 -2.23904 -0.359021 9
-0.961178 -2.24295 -0.64404 59
-0.517415 -2.23379 -0.520536 8
-2.43332 -5.61587 1.4027 20
-2.42413 -5.59731 0.958391 27
-0.953016 -2.20367 0.206995 3
-0.968777 -2.23899 0.041973 52
-0.53394 -2.23619 0.118672 11
-0.96998 -2.24069 -0.12655 50
-0.533623 -2.23139 -0.0394424 12
-0.971267 -2.24046 -0.295113 52
-0.534793 -2.23802 -0.197884 9
-0.972294 -2.2407 -0.467119 52
-0.53106 -2.22907 -0.357847 9
-0.974837 -2.24231 -0.645333 59
-0.527821 -2.22384 -0.518851 8
-2.43728 -5.60087 1.39989 17
-2.42996 -5.5867 0.95722 26
-0.957855 -2.20429 0.207213 3
-0.533305 -2.22475 0.27625 9
-0.973682 -2.23958 0.0420167 52
-0.536295 -2.23049 0.11841 12
-0.977878 -2.24815 -0.127075 50
-0.538678 -2.23532 -0.0395297 11
-0.977761 -2.24575 -0.296026 52
-0.536387 -2.2274 -0.197014 11
-0.977185 -2.24125 -0.467595 50
-0.536093 -2.23294 -0.35863 9
-0.978749 -2.24061 -0.645333 59
-0.534681 -2.23723 -0.52222 8
-2.46657 -5.58804 1.39989 17
-2.45519 -5.56487 0.955659 24
-0.973021 -2.20852 0.208084 3
-0.546119 -2.22675 0.276859 8
-0.988033 -2.24149 0.0421476 50
-0.546784 -2.2228 0.118148 11
-0.988627 -2.24071 -0.126944 50
-0.547613 -2.22285 -0.0393552 12
-0.99051 -2.24287 -0.29633 52
-0.549223 -2.2294 -0.197449 11
-0.98951 -2.23852 -0.468071 50
-0.545441 -2.22051 -0.357064 9
-0.992035 -2.24004 -0.646626 58
-0.54524 -2.22967 -0.521097 8
-2.46743 -5.56368 1.39483 15
-2.46089 -5.55154 0.954098 23
-0.974855 -2.20227 0.207649 3
-0.549414 -2.22339 0.276554 8
-0.991321 -2.2373 0.0421039 50
-0.552449 -2.22911 0.118541 11
-0.995575 -2.24583 -0.127337 50
-0.552686 -2.22675 -0.0394424 12
-0.994423 -2.24114 -0.29633 52
-0.554898 -2.23569 -0.198101 11
-0.996408 -2.24351 -0.469499 50
-0.551668 -2.22915 -0.35863 9
-0.996334 -2.23813 -0.646626 59
-0.549709 -2.23108 -0.521659 8
-2.49449 -5.54359 1.39315 15
-2.48279 -5.52013 0.950976 18
-0.991865 -2.20832 0.208738 3
-0.561436 -2.22038 0.276554 9
-1.00507 -2.23664 0.0421912 50
-0.56511 -2.22851 0.118672 11
-1.00937 -2.24514 -0.1276 49
-0.564726 -2.22373 -0.0394424 12
-1.00857 -2.24025 -0.296939 52
-0.564166 -2.22309 -0.197231 11
-1.00954 -2.24033 -0.469976 50
-0.565135 -2.23341 -0.359804 8
-1.00903 -2.23508 -0.647273 58
-0.562362 -2.23044 -0.52222 4
-2.49417 -5.51968 1.3881 15
-2.49756 -5.52973 0.953318 26
-0.996743 -2.20885 0.208956 3
-0.567351 -2.22912 0.277771 9
-1.01001 -2.23716 0.0422348 52
-0.566773 -2.22036 0.118279 11
-1.01432 -2.24565 -0.127731 50
-0.569835 -2.22758 -0.0395297 12
-1.01312 -2.24093 -0.297243 53
-0.569881 -2.22935 -0.197884 11
-1.01548 -2.24303 -0.470928 52
-0.570242 -2.23721 -0.360587 8
-1.01593 -2.23991 -0.649213 58
-0.564082 -2.22246 -0.520536 4
-2.52912 -5.51984 1.39146 15
-2.52751 -5.51882 0.953708 21
-1.00895 -2.20604 0.209174 3
-0.577776 -2.22131 0.277163 8
-1.02444 -2.23883 0.0423657 50
-0.579016 -2.21978 0.11841 9
-1.02567 -2.24049 -0.127731 50
-0.581729 -2.22709 -0.0395733 11
-1.02587 -2.23785 -0.297547 50
-0.580533 -2.22402 -0.197666 9
-1.02784 -2.24009 -0.471404 49
-0.580713 -2.22941 -0.359804 8
-1.03028 -2.24132 -0.651152 58
-0.578138 -2.22892 -0.522782 3
-2.54696 -5.53577 1.39652 14
-2.58567 -5.61982 0.972049 26
-1.01592 -2.21107 0.209827 3
-0.583523 -2.22751 0.278076 8
-1.02835 -2.23704 0.0423657 47
-0.584148 -2.2236 0.118672 9
-1.03062 -2.24096 -0.127862 50
-0.586246 -2.22849 -0.039617 11
-1.03081 -2.2383 -0.297851 52
-0.583157 -2.21819 -0.197231 9
-1.03175 -2.23829 -0.471404 49
-0.585225 -2.23078 -0.360196 4
-1.03318 -2.23733 -0.650506 58
-0.580195 -2.22083 -0.521097 3
-2.61908 -5.60975 1.41898 15
-2.61708 -5.60799 0.972439 26
-1.03208 -2.21456 0.210699 3
-0.593656 -2.21712 0.277163 4
-1.04361 -2.23824 0.0424966 52
-0.598097 -2.22764 0.119064 8
-1.04273 -2.23535 -0.127862 49
-0.597651 -2.22287 -0.0395733 11
-1.04606 -2.23944 -0.298764 52
-0.596433 -2.21981 -0.197666 8
-1.04593 -2.23713 -0.472356 50
-0.597531 -2.23008 -0.360587 4
-1.04527 -2.23171 -0.650506 58
-0.593449 -2.22237 -0.52222 2
-2.61858 -5.58578 1.41393 15
-2.60597 -5.56139 0.965025 17
-1.03383 -2.20825 0.210263 3
-0.5997 -2.22578 0.27838 4
-1.04963 -2.24094 0.0425839 50
-0.599011 -2.21706 0.118541 9
-1.04875 -2.23805 -0.128125 50
-0.599585 -2.21458 -0.0394424 9
-1.05063 -2.24004 -0.299068 50
-0.597725 -2.20915 -0.196796 3
-1.04983 -2.2353 -0.472356 50
-0.59887 -2.21949 -0.359021 4
-1.05534 -2.24299 -0.654386 56
-0.595685 -2.21672 -0.521097 2
-2.63001 -5.53459 1.40438 14
-2.63717 -5.55213 0.965805 15
-1.0482 -2.20974 0.210917 3
-0.608081 -2.21064 0.276859 3
-1.05989 -2.23334 0.0425402 52
-0.609952 -2.21148 0.11841 12
-1.06328 -2.23947 -0.128519 50
-0.610786 -2.21152 -0.0394424 4
-1.06342 -2.23675 -0.299372 50
-0.609556 -2.20849 -0.197014 4
-1.0643 -2.2366 -0.473785 50
-0.609832 -2.21394 -0.35863 4
-1.06772 -2.2398 -0.655032 56
-0.605365 -2.20652 -0.519413 4
-2.64289 -5.53924 1.40663 14
-2.6309 -5.51409 0.959952 17
-1.05527 -2.21465 0.211571 3
-0.613253 -2.21436 0.277467 3
-1.06594 -2.236 0.0426275 50
-0.613811 -2.21041 0.11841 9
-1.06827 -2.23987 -0.12865 50
-0.611322 -2.1984 -0.0392243 11
-1.06839 -2.23713 -0.299677 52
-0.610762 -2.19782 -0.196144 11
-1.07032 -2.23917 -0.474737 50
-0.609766 -2.19859 -0.356281 9
-1.07267 -2.24011 -0.655679 56
-0.609215 -2.20546 -0.519413 4
-2.65584 -5.48978 1.39764 14
-2.65759 -5.4958 0.959171 21
-1.07011 -2.21582 0.212224 3
-0.622829 -2.20395 0.276554 8
-1.07872 -2.23264 0.0426711 52
-0.621323 -2.19275 0.117625 11
-1.08255 -2.23855 -0.128913 50
-0.62147 -2.19036 -0.039137 9
-1.08333 -2.2382 -0.300589 52
-0.623994 -2.19928 -0.196579 9
-1.08417 -2.23795 -0.47569 50
-0.622604 -2.20012 -0.357064 8
-1.08544 -2.23663 -0.656326 55
-0.620755 -2.20224 -0.519413 4
-2.66755 -5.48952 1.39876 15
-2.67581 -5.50892 0.962293 23
-1.07941 -2.22515 0.213314 3
-0.626001 -2.20047 0.27625 9
-1.08738 -2.23956 0.0428457 50
-0.625149 -2.19166 0.117625 9
-1.08645 -2.23666 -0.128913 50
-0.62461 -2.18686 -0.0390934 9
-1.08724 -2.23631 -0.300589 52
-0.626474 -2.1934 -0.196144 9
-1.08807 -2.23605 -0.47569 50
-0.627114 -2.20141 -0.357455 8
-1.09291 -2.24105 -0.658265 55
-0.626577 -2.20819 -0.521097 4
-2.70691 -5.49467 1.40382 15
-2.69903 -5.48107 0.959952 26
-1.09584 -2.22821 0.214185 3
-0.636523 -2.19228 0.275642 9
-1.10019 -2.23607 0.0428893 50
-0.638383 -2.19304 0.117887 9
-1.10036 -2.23542 -0.129175 49
-0.641989 -2.20266 -0.0394424 9
-1.10262 -2.23707 -0.301502 52
-0.63795 -2.19009 -0.196144 9
-1.10124 -2.23233 -0.476166 50
-0.638632 -2.19809 -0.357455 8
-1.1057 -2.23747 -0.658912 56
-0.641206 -2.21413 -0.523343 4
-2.71445 -5.48823 1.40326 15
-2.71311 -5.48789 0.961903 23
-1.09973 -2.2263 0.214185 4
-1.10631 -2.23863 0.0429765 52
-0.641827 -2.19204 0.117887 9
-1.10426 -2.23349 -0.129175 50
-0.645832 -2.20154 -0.0394424 9
-1.10723 -2.23755 -0.301806 52
-0.649424 -2.21528 -0.198536 8
-1.10841 -2.237 -0.477594 49
-0.6521 -2.23017 -0.362936 4
-1.11283 -2.24202 -0.660852 56
-0.649418 -2.22951 -0.527274 9
-2.75626 -5.50007 1.40999 15
-2.77611 -5.54204 0.974 21
-1.11544 -2.22961 0.215057 4
-1.11875 -2.23524 0.0430202 50
-0.659678 -2.21019 0.119064 8
-1.12041 -2.23661 -0.1297 52
-0.668339 -2.23658 -0.0401405 11
-1.12005 -2.23394 -0.302111 52
-0.665263 -2.22617 -0.199841 14
-1.12082 -2.23356 -0.47807 50
-0.66657 -2.2362 -0.364502 17
-1.12416 -2.23636 -0.660852 55
-0.664526 -2.23776 -0.530082 29
-2.77243 -5.50831 1.41336 14
-2.778 -5.52175 0.971268 20
-1.12157 -2.23211 0.215493 4
-1.12416 -2.23532 0.0430638 52
-0.668527 -2.22578 0.11998 15
-1.12319 -2.23242 -0.129569 49
-0.680106 -2.26176 -0.0406205 36
-1.12618 -2.23642 -0.302719 52
-0.67912 -2.25842 -0.202885 52
-1.12582 -2.23379 -0.478547 50
-0.676813 -2.25633 -0.368026 52
-1.13064 -2.23851 -0.662145 56
-0.672587 -2.25061 -0.533451 50
-2.85535 -5.59738 1.44032 18
-2.85497 -5.59902 0.987657 29
-1.13589 -2.23044 0.215928 4
-1.13926 -2.23608 0.0431947 52
-0.692178 -2.26035 0.122074 47
-1.14054 -2.23762 -0.130225 50
-0.691606 -2.25566 -0.0405768 52
-1.14052 -2.23471 -0.303328 52
-0.69311 -2.26198 -0.203538 52
-1.14013 -2.23203 -0.479499 50
-0.690769 -2.25985 -0.369201 52
-1.14234 -2.23256 -0.662145 56
-0.684754 -2.24694 -0.533451 50
-2.86303 -5.59072 1.43976 17
-2.85926 -5.58574 0.986097 23
-1.14092 -2.23067 0.216146 4
-1.14202 -2.23186 0.0431511 52
-0.694998 -2.25688 0.121943 47
-1.14558 -2.23785 -0.130357 49
-0.697006 -2.25923 -0.0406641 53
-1.14629 -2.23733 -0.303936 52
-0.696328 -2.25838 -0.20332 52
-1.14514 -2.23222 -0.479975 50
-0.696154 -2.26336 -0.369984 55
-1.14955 -2.237 -0.664085 55
-0.688992 -2.24819 -0.534012 50
-2.87991 -5.55187 1.43358 15
-2.87482 -5.54439 0.981414 20
-1.15564 -2.2315 0.2168 8
-1.68249 -5.39898 0.689104 1
-1.1556 -2.23049 0.0432383 52
-0.70829 -2.25797 0.122204 47
-1.15804 -2.23424 -0.130488 49
-0.70992 -2.26044 -0.0407514 52
-1.15914 -2.2335 -0.30424 52
-0.708491 -2.25721 -0.203538 50
-1.15982 -2.23293 -0.481404 50
-0.707262 -2.25733 -0.369592 58
-1.16309 -2.23544 -0.665378 56
-0.701475 -2.24688 -0.534574 50
-2.88188 -5.53437 1.43021 15
-2.8708 -5.51308 0.976731 20
-1.75427 -5.62295 1.13715 15
-1.16068 -2.23169 0.217018 4
-1.76891 -5.64235 0.720745 21
-1.16296 -2.23512 0.0433692 50
-0.71223 -2.25673 0.122204 47
-1.1631 -2.23443 -0.130619 50
