# .PCD v0.7 - Point Cloud Data file format
VERSION 0.7
FIELDS x y z intensity
SIZE 4 4 4 4
TYPE F F F F
COUNT 1 1 1 1
WIDTH 1519
HEIGHT 1
VIEWPOINT 0 0 0 1 0 0 0
POINTS 1519
DATA ascii
-0.83516 -0.300041 -0.228259 44
-5.7939 -3.34081 1.78029 9
-7.2418 -4.16032 1.61518 14
-3.13021 -1.12101 0.287832 2
-7.38514 -4.23082 1.03928 35
-1.70362 -0.610448 0.030978 50
-7.33335 -4.19434 0.44093 1
-0.68368 -0.245726 -0.0363633 50
-3.1547 -1.79902 -0.062785 32
-0.841073 -0.301632 -0.105267 47
-0.644193 -0.363116 -0.0615397 36
-0.832368 -0.29804 -0.164753 45
-0.833407 -0.297774 -0.227612 44
-0.83724 -0.475438 -0.213942 44
-5.82332 -3.31863 1.78417 9
-7.24783 -4.11512 1.61184 12
-3.11235 -1.09689 0.285653 3
-7.39208 -4.18353 1.03716 35
-1.70904 -0.602647 0.0310216 50
-7.35738 -4.15711 0.441061 1
-0.680247 -0.240488 -0.0361008 50
-3.15723 -1.77933 -0.0626541 32
-0.842641 -0.297224 -0.105267 47
-0.646085 -0.359738 -0.0615397 36
-0.833866 -0.293824 -0.164753 45
-0.834904 -0.293552 -0.227612 44
-0.839718 -0.471048 -0.213942 44
-5.82701 -3.30726 1.78352 9
-7.23863 -4.09153 1.60803 12
-3.10956 -1.08981 0.285217 3
-7.38424 -4.16209 1.03503 35
-1.70312 -0.59689 0.0308908 50
-7.36028 -4.14181 0.4408 1
-0.675952 -0.237653 -0.0358382 50
-3.1538 -1.77014 -0.0625232 32
-0.838473 -0.294117 -0.104659 47
-0.642372 -0.356166 -0.0611048 36
-0.84133 -0.294792 -0.166182 47
-0.830904 -0.290363 -0.226319 44
-0.84266 -0.47078 -0.214503 44
-7.25353 -4.04998 1.6066 12
-7.39581 -4.11603 1.0335 35
-1.70385 -0.587151 0.0308471 50
-7.39567 -4.10921 0.441585 15
-0.68427 -0.236544 -0.0362321 50
-3.15459 -1.7482 -0.0623487 32
-0.835357 -0.287967 -0.10405 47
-0.639875 -0.350377 -0.0606699 36
-0.835947 -0.287849 -0.164753 45
-0.830128 -0.285227 -0.225673 42
-0.84094 -0.463839 -0.21338 42
-7.24343 -4.02776 1.60279 12
-7.38057 -4.09237 1.03046 35
-1.69778 -0.581752 0.0307162 50
-7.38465 -4.08791 0.440538 15
-0.679957 -0.233735 -0.0359695 50
-3.14889 -1.73784 -0.0621742 32
-0.838157 -0.287455 -0.104354 47
-0.642664 -0.350466 -0.0608873 35
-0.834125 -0.285598 -0.164277 45
-0.830624 -0.283778 -0.225673 44
-0.83741 -0.46015 -0.212257 44
-7.3023 -4.02882 2.2223 35
-7.24653 -3.98158 1.59897 12
-7.38885 -4.04651 1.02864 35
-1.7007 -0.573151 0.0307162 50
-7.39719 -4.04439 0.440015 15
-0.681172 -0.230172 -0.0359695 50
-3.15326 -1.71948 -0.0620869 32
-0.832593 -0.280696 -0.103442 47
-0.642305 -0.345901 -0.0606699 36
-0.833233 -0.280593 -0.163801 45
-0.827469 -0.278039 -0.224379 44
-0.839808 -0.455759 -0.212257 42
-7.29451 -4.00792 2.21777 35
-7.2477 -3.96413 1.59754 12
-7.38501 -4.02766 1.02712 35
-1.69706 -0.568301 0.030629 50
-7.39109 -4.0243 0.439229 14
-0.679204 -0.228192 -0.0358382 52
-3.15187 -1.71159 -0.0619997 33
-0.833081 -0.279242 -0.103442 49
-0.642908 -0.344779 -0.0606699 35
-0.833721 -0.279139 -0.163801 45
-0.830293 -0.277211 -0.225026 45
-0.840602 -0.454293 -0.212257 42
-7.30547 -3.96263 2.21454 35
-7.25325 -3.91795 1.59421 12
-7.3914 -3.9794 1.02499 35
-1.70001 -0.559407 0.030629 52
-7.40616 -3.98071 0.438837 14
-0.68039 -0.224633 -0.0358382 52
-3.15228 -1.68977 -0.0618251 33
-0.83458 -0.274731 -0.103442 47
-0.644704 -0.341408 -0.0606699 36
-0.83522 -0.274624 -0.163801 47
-0.841374 -0.447937 -0.145644 45
-0.834029 -0.273609 -0.225673 45
-0.836617 -0.446265 -0.210573 44
-7.28901 -3.93724 2.20744 35
-7.24495 -3.89714 1.59087 12
-7.38016 -3.95839 1.02255 35
-1.69623 -0.554889 0.0305417 52
-7.3948 -3.95963 0.43779 12
-0.678407 -0.222671 -0.035707 52
-3.15302 -1.68309 -0.0617815 33
-0.832651 -0.272651 -0.103137 49
-0.838032 -0.273924 -0.164277 47
-0.835628 -0.442965 -0.14447 45
-0.832208 -0.271408 -0.225026 45
-0.839462 -0.446105 -0.211134 42
-7.29394 -3.89233 2.20291 33
-7.24942 -3.85235 1.58754 12
-7.33439 -2.35486 0.670881 18
-7.38544 -3.91156 1.02042 35
-1.69426 -0.54477 0.0304544 53
-7.39778 -3.91151 0.436744 9
-0.681903 -0.219996 -0.0358382 52
-3.15045 -1.66126 -0.0615634 33
-0.836431 -0.269044 -0.103442 49
-0.834732 -0.268185 -0.163325 47
-0.846663 -0.443208 -0.146036 47
-0.82897 -0.265725 -0.223733 45
-0.841786 -0.441703 -0.211134 42
-6.94962 -2.21671 1.67335 1
-7.29219 -3.87505 2.20033 36
-7.25179 -3.83739 1.58658 12
-7.32188 -2.33676 0.669356 18
-7.38347 -3.89402 1.0192 35
-1.69283 -0.541053 0.0304108 52
-7.40018 -3.89626 0.436482 8
-0.679907 -0.218048 -0.035707 52
-3.15113 -1.6546 -0.0615197 33
-0.825075 -0.263824 -0.10192 47
-0.835198 -0.266728 -0.163325 47
-0.845251 -0.440578 -0.145644 47
-0.829432 -0.264278 -0.223733 45
-0.838249 -0.437955 -0.210011 44
-7.25214 -2.26999 1.74354 36
-7.29314 -3.82671 2.19451 35
-7.23948 -2.2674 1.19331 30
-7.25221 -3.78913 1.58229 12
-7.32927 -2.2969 0.66892 17
-7.38396 -3.84499 1.01647 35
-1.70041 -0.533675 0.0304981 53
-7.40276 -3.84824 0.435435 11
-0.676274 -0.212994 -0.0354444 52
-3.15088 -1.63346 -0.0613452 33
-0.831183 -0.260979 -0.102529 47
-0.836584 -0.262351 -0.163325 47
-0.843167 -0.433864 -0.144861 47
-0.83311 -0.260649 -0.224379 45
-0.838372 -0.432432 -0.20945 42
-7.24174 -2.25426 1.74017 39
-7.29125 -3.80949 2.19193 35
-7.23399 -2.25183 1.19174 33
-7.25229 -3.77306 1.58086 12
-7.30473 -2.27522 0.666306 15
-7.38185 -3.82752 1.01525 36
-1.6894 -0.526994 0.0302799 53
-7.39395 -3.82727 0.434519 11
-0.679029 -0.212555 -0.0355757 52
-3.15151 -1.62681 -0.0613016 33
-0.829267 -0.258793 -0.102225 47
-0.830008 -0.258711 -0.161896 47
-0.839539 -0.430118 -0.144078 47
-0.824335 -0.256341 -0.221793 45
-0.841286 -0.432092 -0.210011 42
-7.23791 -2.2088 1.73624 32
-7.29459 -3.76112 2.18676 35
-7.23662 -2.20978 1.19018 26
-7.2595 -3.72704 1.578 12
-7.31931 -2.23639 0.666524 15
-7.38037 -3.77621 1.01221 35
-1.69701 -0.519305 0.0303672 53
-7.39677 -3.77812 0.433473 9
-0.675393 -0.207421 -0.0353131 52
-3.15136 -1.60519 -0.061127 35
-0.830655 -0.254302 -0.102225 50
-0.833743 -0.25493 -0.162373 47
-0.84178 -0.425716 -0.144078 45
-0.828021 -0.252578 -0.222439 45
-0.83711 -0.424197 -0.208327 42
-7.22738 -2.19319 1.73287 32
-7.28825 -3.74176 2.18288 35
-7.23299 -2.19625 1.18901 26
-7.26162 -3.71213 1.57705 12
-7.30176 -2.21711 0.664563 15
-7.37524 -3.75897 1.01069 35
-1.69074 -0.514166 0.0302363 53
-7.39157 -3.76082 0.432818 9
-0.675754 -0.206242 -0.0353131 52
-3.15193 -1.59855 -0.0610834 35
-0.826303 -0.251559 -0.101616 50
-0.831837 -0.252765 -0.161896 50
-0.842522 -0.424246 -0.144078 45
-0.823836 -0.249739 -0.221146 45
-0.839944 -0.42399 -0.208888 42
-7.23643 -2.15462 1.73231 33
-7.29418 -3.69826 2.179 33
-7.24203 -2.15765 1.18862 26
-7.26718 -3.66868 1.57419 12
-7.31288 -2.18012 0.664563 15
-7.37488 -3.71025 1.00795 35
-1.69332 -0.505602 0.0302363 53
-7.39332 -3.7131 0.431772 8
-0.672038 -0.201278 -0.0350506 50
-0.827609 -0.247229 -0.101616 50
-0.830753 -0.247854 -0.16142 47
-0.835909 -0.415388 -0.142512 45
-0.82509 -0.245566 -0.221146 47
-0.835628 -0.416294 -0.207204 42
-7.2285 -2.13853 1.7295 33
-7.28769 -3.67899 2.17512 33
-7.23394 -2.1415 1.18667 26
-7.26982 -3.65251 1.57324 11
-7.29519 -2.16099 0.662602 14
-7.37247 -3.69292 1.00673 35
-1.68709 -0.500224 0.0301054 53
-7.39532 -3.69795 0.43151 8
-0.674783 -0.200812 -0.0351819 50
-0.820899 -0.243678 -0.100704 49
-0.828831 -0.24571 -0.160944 49
-0.838841 -0.415035 -0.142904 45
-0.820926 -0.24262 -0.219853 47
-0.840707 -0.417022 -0.208327 42
-7.23294 -2.09736 1.72782 33
-7.29452 -3.63304 2.17125 33
-7.24542 -2.10233 1.18667 26
-7.27786 -3.60894 1.57085 11
-7.31873 -2.12496 0.663691 14
-7.37232 -3.64308 1.00399 35
-1.69449 -0.492776 0.0301927 55
-7.39732 -3.64904 0.430463 8
-0.678223 -0.197971 -0.0353131 50
-0.831741 -0.24199 -0.10192 49
-0.848274 -0.413533 -0.079371 53
-0.825432 -0.23986 -0.159992 49
-0.838789 -0.409542 -0.142512 47
-0.824505 -0.238987 -0.2205 47
-0.836403 -0.409221 -0.206642 42
-7.22921 -2.08397 1.72613 33
-7.28787 -3.61386 2.16737 35
-7.24397 -2.08958 1.18589 26
-7.27535 -3.59188 1.56895 11
-7.32721 -2.11356 0.664127 12
-7.37136 -3.6282 1.00308 35
-1.68574 -0.48705 0.0300181 55
-7.4008 -3.63631 0.430332 8
-0.668971 -0.194025 -0.034788 50
-0.824965 -0.238626 -0.101008 49
-0.853464 -0.414249 -0.0798059 53
-0.82349 -0.237742 -0.159516 47
-0.843933 -0.41026 -0.143295 49
-0.824921 -0.237548 -0.2205 47
-0.841413 -0.410064 -0.207765 42
-7.24002 -2.04609 1.72613 33
-7.29306 -3.57054 2.16349 35
-7.25719 -2.05229 1.18628 27
-7.278 -3.54748 1.56561 11
-7.31865 -2.07103 0.662384 11
-7.36794 -3.5787 1.00004 35
-1.68818 -0.478511 0.0300181 53
-7.39728 -3.58661 0.429024 4
-0.674783 -0.191875 -0.0350506 50
-0.83098 -0.23565 -0.101616 50
-0.85114 -0.407601 -0.079371 53
-0.829408 -0.234901 -0.160468 49
-0.839407 -0.402597 -0.142121 47
-0.828438 -0.234022 -0.221146 47
-0.832599 -0.400317 -0.204957 44
-7.22247 -2.02753 1.72108 33
-7.28626 -3.55145 2.15962 36
-7.25363 -2.03762 1.18511 26
-7.27817 -3.53028 1.56418 11
-7.36971 -3.56367 0.999429 35
-1.68429 -0.473919 0.0299309 53
-7.38555 -3.565 0.427977 4
-0.672713 -0.190023 -0.0349193 49
-0.826611 -0.232861 -0.101008 50
-0.849607 -0.405031 -0.0791535 53
-0.822726 -0.23147 -0.159039 50
-0.842331 -0.402207 -0.142512 49
-0.821907 -0.230487 -0.219206 47
-0.833297 -0.398864 -0.204957 44
-7.22629 -1.98649 1.7194 33
-7.28796 -3.5036 2.15445 35
-7.26217 -1.99769 1.18472 27
-7.28549 -3.48682 1.5618 11
-7.37545 -3.51733 0.997604 36
-1.69157 -0.466419 0.0300181 53
-0.678514 -0.187821 -0.0351819 52
-0.827859 -0.228386 -0.101008 49
-0.849468 -0.399506 -0.078936 53
-0.831068 -0.228959 -0.160468 50
-0.837741 -0.3946 -0.141338 47
-0.827762 -0.227452 -0.2205 49
-0.83764 -0.395401 -0.205519 42
-7.2106 -1.97 1.7149 32
-7.27882 -3.48356 2.14992 35
-7.26053 -1.98498 1.18394 27
-7.28935 -3.47304 1.56132 9
-7.36528 -3.49828 0.995474 35
-1.68514 -0.461491 0.0298872 53
-0.676432 -0.185979 -0.0350506 52
-0.821034 -0.225128 -0.100095 50
-0.854665 -0.400158 -0.079371 53
-0.819625 -0.224289 -0.158087 50
-0.840658 -0.394197 -0.141729 47
-0.818834 -0.223479 -0.217913 47
-0.840459 -0.395132 -0.206081 44
-7.2114 -1.9297 1.71266 32
-7.2789 -3.43841 2.14475 33
-7.2756 -1.94822 1.18472 29
-7.28907 -3.42774 1.55751 9
-7.37002 -3.45334 0.993649 35
-1.68987 -0.453602 0.0299309 55
-0.674985 -0.181791 -0.0349193 52
-0.829395 -0.222745 -0.101008 50
-0.849981 -0.39251 -0.0787186 53
-0.825492 -0.221402 -0.159039 50
-0.831533 -0.384549 -0.139772 47
-0.824623 -0.220572 -0.219206 47
-0.831494 -0.385544 -0.203273 42
-7.20769 -1.91524 1.71097 33
-7.27615 -3.42159 2.14217 35
-7.26705 -1.93234 1.18277 29
-7.2912 -3.41165 1.55656 11
-7.36929 -3.43732 0.992736 33
-1.68591 -0.449074 0.0298436 56
-0.675301 -0.180612 -0.0349193 52
-0.817789 -0.21812 -0.0994866 50
-0.85518 -0.39313 -0.0791535 53
-0.825878 -0.219961 -0.159039 50
-0.829965 -0.382053 -0.13938 47
-0.820375 -0.217757 -0.217913 47
-0.834372 -0.385125 -0.203834 44
-7.21795 -1.87621 1.71097 33
-7.27703 -3.37403 2.137 33
-7.2774 -1.893 1.18277 30
-7.29337 -3.36622 1.55322 11
-7.36749 -3.38806 0.989998 33
-1.68824 -0.44024 0.0298436 55
-0.678654 -0.177702 -0.0350506 53
-0.821359 -0.214314 -0.0997908 50
-0.848174 -0.384487 -0.0782837 53
-0.827056 -0.215489 -0.159039 50
-0.831954 -0.377702 -0.13938 49
-0.823842 -0.214062 -0.21856 47
-0.832019 -0.378563 -0.202711 44
-7.21381 -1.86305 1.70929 33
-7.28071 -3.36031 2.13635 35
-7.2708 -1.87909 1.18121 30
-7.29923 -3.35349 1.55322 12
-7.36153 -3.37131 0.988477 35
-1.68174 -0.435419 0.0297127 56
-0.674128 -0.17527 -0.034788 52
-0.819291 -0.212405 -0.0994866 49
-0.851109 -0.384042 -0.0785011 53
-0.822676 -0.212824 -0.158087 50
-0.837101 -0.378307 -0.140163 50
-0.819535 -0.211425 -0.217266 47
-0.834826 -0.378273 -0.203273 44
-7.21402 -1.82286 1.70704 33
-7.28445 -3.31741 2.13248 35
-7.29012 -1.84342 1.18277 30
-7.30941 -3.31346 1.55179 14
-7.36552 -3.32658 0.986651 33
-1.68635 -0.427514 0.0297564 55
-0.672586 -0.171245 -0.0346568 53
-0.820392 -0.208112 -0.0994866 50
-0.850772 -0.378705 -0.0782837 53
-0.830883 -0.210453 -0.159516 50
-0.832321 -0.370868 -0.138989 49
-0.827622 -0.209037 -0.219206 47
-0.825701 -0.368869 -0.200465 44
-7.20978 -1.80975 1.70536 33
-7.27043 -3.2957 2.12666 35
-7.28374 -1.82829 1.18121 32
-7.28834 -3.28857 1.54607 14
-7.32372 -1.83966 0.65759 11
-7.35321 -3.30557 0.984217 33
-1.68467 -0.423962 0.0297127 56
-0.670462 -0.169464 -0.0345255 53
-2.07217 -0.925162 -0.0390061 4
-0.823162 -0.207282 -0.0997908 50
-0.844616 -0.374158 -0.0776313 53
-0.826487 -0.207813 -0.158563 50
-0.832967 -0.369414 -0.138989 49
-0.823299 -0.206426 -0.217913 47
-0.828564 -0.368429 -0.201027 44
-7.21474 -1.76956 1.70424 35
-7.27436 -3.25167 2.12278 35
-7.29082 -1.78954 1.18082 30
-7.28753 -3.24237 1.54226 21
-7.28488 -1.78942 0.653232 14
-7.35681 -3.26098 0.982392 33
-1.68686 -0.415135 0.0297127 56
-0.676219 -0.167021 -0.034788 55
-2.07927 -0.915312 -0.0390498 4
-0.831467 -0.204737 -0.100704 52
-0.844351 -0.368574 -0.0774139 53
-0.827564 -0.203483 -0.158563 50
-0.825861 -0.361043 -0.137423 49
-0.831408 -0.203825 -0.219853 49
-0.832708 -0.365076 -0.201588 44
-7.21308 -1.75581 1.70311 35
-7.27121 -3.23503 2.1202 36
-7.29153 -1.77623 1.18043 32
-7.2713 -3.21842 1.53749 35
-7.30009 -1.77965 0.654322 17
-7.34433 -3.24011 0.979958 33
-1.68766 -0.411896 0.0297127 56
-3.1448 -1.3818 0.178204 3
-0.671657 -0.164662 -0.0345255 53
-2.08772 -0.914705 -0.0391806 4
-0.829412 -0.202701 -0.100399 50
-0.842714 -0.366096 -0.0771964 53
-0.825533 -0.201461 -0.158087 50
-0.831008 -0.361596 -0.138206 49
-0.824755 -0.200529 -0.217913 47
-0.822206 -0.358691 -0.198781 44
-7.21774 -1.71563 1.70199 33
-7.27755 -3.19079 2.11697 35
-7.29623 -1.73561 1.17965 32
-7.27906 -3.17638 1.53559 35
-7.2975 -1.73724 0.653232 20
-7.3572 -3.19835 0.979349 33
-1.68979 -0.403054 0.0297127 56
-3.15223 -1.36476 0.178204 3
-0.674939 -0.161719 -0.0346568 55
-2.09952 -0.906383 -0.0393115 4
-0.828082 -0.197638 -0.100095 53
-0.846903 -0.36267 -0.0774139 55
-0.82661 -0.196991 -0.158087 50
-0.83289 -0.35724 -0.138206 49
-0.821093 -0.195099 -0.21662 47
-0.819669 -0.352289 -0.197658 44
-7.20857 -1.7015 1.69918 33
-7.26761 -3.17131 2.11244 33
-7.29895 -1.72414 1.17965 33
-7.25309 -3.14996 1.52891 35
-7.29809 -1.72393 0.653014 20
-7.35084 -3.18185 0.977828 33
-1.68076 -0.397809 0.0295382 58
-3.14292 -1.35485 0.17755 3
-0.675221 -0.160541 -0.0346568 53
-0.821145 -0.194632 -0.0991823 50
-0.845249 -0.360204 -0.0771964 55
-0.831732 -0.19667 -0.159039 50
-0.831246 -0.354804 -0.137814 49
-0.826135 -0.194766 -0.217913 47
-0.822456 -0.351971 -0.198219 44
-7.21975 -1.66428 1.69974 35
-7.26805 -3.1278 2.10792 35
-7.29825 -1.68368 1.17809 32
-7.26668 -3.11224 1.52844 35
-7.28974 -1.68305 0.651489 17
-7.3423 -3.13259 0.974482 32
-1.69006 -0.390981 0.0296691 56
-3.14078 -1.33446 0.177026 3
-0.673619 -0.156444 -0.0345255 53
-0.831826 -0.192553 -0.100399 53
-0.842541 -0.35382 -0.0767615 55
-0.82554 -0.190811 -0.157611 50
-0.828551 -0.348508 -0.137031 49
-0.822402 -0.189506 -0.21662 47
-0.822048 -0.346701 -0.197658 44
-7.21077 -1.64896 1.69694 35
-7.26462 -3.1113 2.10533 33
-7.29877 -1.67039 1.1777 33
-7.25684 -3.09154 1.5251 33
-7.28538 -1.66866 0.650836 17
-7.34318 -3.11783 0.973873 32
-1.68593 -0.386622 0.0295818 56
-3.13851 -1.32702 0.176765 3
-0.671457 -0.154712 -0.0343942 53
-0.827322 -0.189998 -0.0997908 53
-0.843157 -0.352349 -0.0767615 55
-0.823479 -0.188826 -0.157135 50
-0.835975 -0.349958 -0.138206 49
-0.822764 -0.187926 -0.21662 47
-0.818169 -0.343356 -0.196535 44
-7.2077 -1.60727 1.69413 33
-7.268 -3.06631 2.10146 33
-7.06427 -1.5766 1.13828 1
-7.25483 -3.04589 1.52129 33
-7.29187 -1.62867 0.650618 15
-7.34393 -3.07134 0.971743 33
-1.68305 -0.376702 0.0294946 58
-3.14104 -1.3081 0.176503 3
-0.672258 -0.151194 -0.0343942 53
-0.823493 -0.184442 -0.0991823 53
-0.840395 -0.346009 -0.0763266 55
-0.824488 -0.184367 -0.157135 50
-0.833301 -0.343523 -0.137423 49
-0.823737 -0.183616 -0.21662 47
-0.822261 -0.339867 -0.197096 44
-7.20546 -1.5949 1.693 33
-7.25776 -3.04706 2.09693 33
-7.29848 -1.61546 1.17575 33
-7.25561 -3.03133 1.52034 33
-7.28498 -1.61379 0.649746 15
-7.3424 -3.05566 0.970831 33
-1.68371 -0.373763 0.0294946 56
-0.674958 -0.150559 -0.0345255 53
-0.823814 -0.183005 -0.0991823 50
-0.843297 -0.345498 -0.076544 55
-0.820015 -0.181873 -0.156182 50
-0.827061 -0.339221 -0.136248 49
-0.828774 -0.183213 -0.217913 49
-0.822853 -0.338432 -0.197096 44
-7.21371 -1.55715 1.693 33
-7.26416 -3.00659 2.09435 33
-7.30898 -1.57902 1.17614 35
-7.25952 -2.98989 1.51795 33
-7.30036 -1.57848 0.6504 15
-7.35319 -3.01657 0.970222 33
-1.68558 -0.365237 0.0294946 56
-0.673297 -0.146497 -0.0343942 53
-0.819878 -0.177789 -0.0985738 50
-0.84279 -0.340133 -0.0763266 53
-0.828124 -0.179266 -0.157611 50
-0.831052 -0.335968 -0.136639 47
-0.824968 -0.178005 -0.21662 49
-0.822303 -0.333335 -0.196535 44
-7.2045 -1.54201 1.6902 35
-7.2627 -2.99114 2.09241 35
-7.30448 -1.56471 1.17497 35
-7.24708 -2.96849 1.51414 33
-7.29579 -1.56417 0.649746 15
-7.34236 -2.99716 0.968093 32
-1.68383 -0.361477 0.0294509 58
-0.67111 -0.1448 -0.0342629 53
-0.820187 -0.176358 -0.0985738 50
-0.843382 -0.338662 -0.0763266 53
-0.828435 -0.177821 -0.157611 52
-0.829351 -0.333583 -0.136248 49
-0.822945 -0.17592 -0.215973 49
-0.822884 -0.331899 -0.196535 44
-7.2032 -1.50102 1.68795 33
-7.26759 -2.94726 2.08918 35
-7.29833 -1.52214 1.17262 35
-7.2557 -2.92775 1.51271 35
-7.29927 -1.52365 0.64931 17
-7.35387 -2.95553 0.967484 32
-1.68081 -0.351636 0.0293637 58
-0.671859 -0.141284 -0.0342629 53
-0.823559 -0.172422 -0.0988781 50
-0.840522 -0.332385 -0.0758917 55
-0.824579 -0.17234 -0.156659 50
-0.826505 -0.327393 -0.135465 47
-0.823855 -0.171608 -0.215973 47
-0.820149 -0.325619 -0.195412 42
-7.19362 -1.48724 1.68514 35
-7.26601 -2.93186 2.08724 35
-7.25397 -2.91233 1.51128 36
-7.29217 -1.5089 0.648439 20
-7.34468 -2.93844 0.965659 32
-1.67163 -0.34668 0.0291891 55
-0.66477 -0.138598 -0.0338691 53
-0.823829 -0.171128 -0.0988781 53
-0.848039 -0.33369 -0.076544 53
-0.824879 -0.1709 -0.156659 50
-0.83166 -0.327785 -0.136248 49
-0.817056 -0.168717 -0.214033 47
-0.827441 -0.327054 -0.197096 42
-7.19892 -1.44907 1.68458 35
-7.2628 -2.88789 2.08207 35
-7.25264 -2.86925 1.50794 35
-7.29727 -1.47148 0.648221 26
-7.34842 -2.89539 0.964137 29
-1.68316 -0.340187 0.0293637 55
-0.670381 -0.136099 -0.0341317 53
-0.824713 -0.166812 -0.0988781 53
-0.840504 -0.325597 -0.0756742 53
-0.825733 -0.166723 -0.156659 52
-0.828771 -0.321615 -0.135465 49
-0.822636 -0.165524 -0.215327 49
-0.817816 -0.318237 -0.194288 42
-7.19427 -1.43508 1.6829 35
-7.26783 -2.87521 2.08207 33
-7.03743 -1.40509 1.12853 1
-7.28761 -1.4563 0.647131 33
-1.68136 -0.336467 0.02932 58
-0.670618 -0.134929 -0.0341317 53
-0.820136 -0.164405 -0.0982696 53
-0.845709 -0.325946 -0.0761091 53
-0.821208 -0.164326 -0.155706 50
-0.831629 -0.321069 -0.135856 47
-0.815845 -0.162541 -0.213387 47
-0.825171 -0.319486 -0.195973 42
-7.20432 -1.3966 1.68346 36
-7.04251 -1.36652 1.12814 1
-7.03378 -1.36609 0.623817 1
-1.6831 -0.327658 0.02932 58
-0.676217 -0.132365 -0.0343942 53
-0.828322 -0.161377 -0.0991823 53
-0.842757 -0.319722 -0.0756742 53
-0.824495 -0.160345 -0.156182 50
-0.826444 -0.313897 -0.134682 47
-0.819056 -0.158722 -0.214033 47
-0.8178 -0.311497 -0.193727 42
-7.19694 -1.38344 1.68121 35
-7.02791 -1.35097 1.12541 1
-3.16375 -1.21624 0.651504 9
-7.02393 -1.35146 0.622728 1
-3.09137 -1.18338 0.401597 11
-1.67631 -0.323306 0.0291891 59
-0.66664 -0.129303 -0.0338691 53
-1.70759 -0.649341 -0.0312834 38
-0.818854 -0.158066 -0.0979654 52
-0.843313 -0.31825 -0.0756742 53
-0.819952 -0.157986 -0.15523 50
-0.82699 -0.312454 -0.134682 47
-0.814587 -0.15639 -0.21274 47
-0.825162 -0.312697 -0.195412 41
-7.20432 -1.34448 1.68121 35
-7.04217 -1.31551 1.12658 1
-3.13566 -1.18658 0.644355 2
-7.02846 -1.31421 0.62251 1
-3.12305 -1.17684 0.404944 11
-1.68043 -0.314983 0.0292328 58
-0.672216 -0.126726 -0.0341317 53
-1.70863 -0.639509 -0.0312398 53
-0.824549 -0.154683 -0.0985738 53
-0.842638 -0.312951 -0.0754568 53
-0.825594 -0.154585 -0.156182 52
-0.823942 -0.306517 -0.133899 47
-0.820144 -0.153001 -0.214033 47
-0.817677 -0.304916 -0.193165 42
-7.19923 -1.33183 1.67953 36
-7.03451 -1.30265 1.12502 1
-3.15839 -1.18891 0.648645 2
-7.02585 -1.30104 0.622074 1
-3.13418 -1.17543 0.406161 2
-1.67361 -0.310687 0.0291019 58
-0.665071 -0.124192 -0.0337378 53
-1.70506 -0.634769 -0.0311525 53
-0.822351 -0.152938 -0.0982696 53
-0.845515 -0.312355 -0.0756742 53
-0.818621 -0.151814 -0.154754 50
-0.83372 -0.308557 -0.135465 47
-0.82041 -0.151569 -0.214033 47
-0.822713 -0.305352 -0.194288 44
-7.20611 -1.29412 1.67953 36
-7.04124 -1.2658 1.12502 1
-3.14596 -1.16606 0.644832 2
-7.02744 -1.26458 0.621638 1
-3.11703 -1.15038 0.403118 2
-1.67762 -0.302654 0.0291455 58
-0.66817 -0.121149 -0.0338691 55
-1.70122 -0.623532 -0.0310216 50
-0.823141 -0.14863 -0.0982696 53
-0.842466 -0.306197 -0.0752393 53
-0.826627 -0.148962 -0.156182 50
-0.828378 -0.301615 -0.13429 47
-0.814034 -0.146147 -0.212093 47
-7.20356 -1.28069 1.67841 33
-7.02642 -1.25048 1.12228 1
-3.1459 -1.15917 0.644355 2
-7.01983 -1.25056 0.620767 1
-3.12369 -1.14665 0.403727 11
-1.67081 -0.298122 0.0290146 62
-1.70943 -0.62385 0.0935505 47
-0.663464 -0.11911 -0.0336066 55
-1.70465 -0.621424 -0.0310653 50
-0.818512 -0.146328 -0.0976611 50
-0.845337 -0.305586 -0.0754568 53
-0.819636 -0.146238 -0.154754 52
-0.826586 -0.299316 -0.133899 49
-0.814313 -0.144583 -0.212093 47
-7.20318 -1.24046 1.67672 36
-7.03795 -1.21329 1.12307 1
-3.13809 -1.13764 0.641496 2
-7.02894 -1.21299 0.620985 1
-3.12051 -1.12635 0.40251 2
-1.67481 -0.289793 0.0290583 44
-1.70339 -0.611195 0.0930272 45
-0.668999 -0.116481 -0.0338691 55
-1.69858 -0.608793 -0.0308908 50
-0.821737 -0.142317 -0.0979654 52
-0.839899 -0.298614 -0.0748044 53
-0.822834 -0.142215 -0.15523 50
-0.828142 -0.294983 -0.133899 49
-0.824581 -0.14194 -0.21468 50
-0.812696 -0.290142 -0.190919 44
-7.19551 -1.2275 1.67447 36
-7.03741 -1.20182 1.12268 1
-3.13776 -1.13133 0.641019 2
-7.04578 -1.20323 0.622292 1
-3.12461 -1.12229 0.402814 2
-1.68517 -0.288549 0.0292328 14
-1.70435 -0.608518 0.0930272 47
-0.669202 -0.115313 -0.0338691 53
-1.69964 -0.605828 -0.0308908 52
-0.826853 -0.141857 -0.0985738 52
-0.842762 -0.297991 -0.0750219 53
-0.823081 -0.140779 -0.15523 50
-0.828655 -0.293538 -0.133899 49
-0.817684 -0.139296 -0.21274 47
-0.815442 -0.289694 -0.191481 45
-7.20184 -1.18981 1.67447 35
-7.03142 -1.16294 1.12072 1
-3.12726 -1.10966 0.637683 2
-7.05915 -1.16877 0.622946 1
-3.12109 -1.10259 0.401597 2
-1.70141 -0.28246 0.0294946 12
-1.7028 -0.597919 0.0927655 49
-0.669796 -0.111808 -0.0338691 53
-1.69798 -0.59555 -0.0308035 52
-0.822687 -0.13672 -0.0979654 53
-0.834919 -0.290252 -0.074152 55
-0.821361 -0.136214 -0.154754 50
-0.830181 -0.289195 -0.133899 49
-0.823145 -0.135935 -0.214033 47
-0.812357 -0.283787 -0.190358 44
-7.1967 -1.17606 1.67279 35
-7.02857 -1.14987 1.11994 1
-7.04398 -1.15364 0.62142 1
-3.12301 -1.09715 0.401597 2
-1.69913 -0.593288 0.0925038 50
-0.667526 -0.110237 -0.0337378 55
-1.69901 -0.592586 -0.0308035 52
-0.830272 -0.13648 -0.0988781 53
-0.837774 -0.289621 -0.0743695 55
-0.82402 -0.135173 -0.15523 52
-0.823698 -0.285283 -0.132724 49
-0.818636 -0.133585 -0.21274 49
-0.815148 -0.283181 -0.190919 45
-7.19814 -1.13635 1.67167 35
-7.02249 -1.1099 1.11799 1
-7.28627 -1.15283 0.642338 36
-3.11249 -1.07454 0.399467 2
-1.6976 -0.582453 0.0922421 49
-0.668094 -0.10674 -0.0337378 56
-1.69983 -0.582568 -0.0307599 52
-0.823644 -0.13083 -0.0979654 53
-0.839279 -0.28523 -0.0743695 53
-0.822315 -0.130333 -0.154754 52
-0.822848 -0.280157 -0.132333 49
-0.814552 -0.128552 -0.211447 47
-0.814367 -0.277967 -0.190358 45
-7.19029 -1.12354 1.66942 35
-7.01935 -1.0981 1.11721 1
-7.29319 -1.14088 0.642774 33
-3.12825 -1.07451 0.401293 3
-1.69851 -0.579786 0.0922421 49
-0.660879 -0.104421 -0.033344 56
-1.69848 -0.578788 -0.0307162 52
-0.821397 -0.129155 -0.0976611 53
-0.83742 -0.282955 -0.074152 55
-0.820116 -0.128522 -0.154278 50
-0.823335 -0.27872 -0.132333 47
-0.826709 -0.128971 -0.21468 50
-0.819407 -0.27828 -0.191481 45
-7.21294 -1.08842 1.67335 27
-7.30824 -1.10407 1.16248 41
-7.27671 -1.1006 0.640813 29
-3.13618 -1.05891 0.401597 3
-1.69916 -0.570084 0.0921113 49
-0.663886 -0.10133 -0.0334753 56
-1.69902 -0.569383 -0.0306726 53
-0.824516 -0.12522 -0.0979654 53
-0.836531 -0.277769 -0.0739346 53
-0.823183 -0.124733 -0.154754 52
-0.824784 -0.274406 -0.132333 47
-0.820185 -0.123717 -0.21274 50
-0.811627 -0.270849 -0.189235 44
-7.1329 -1.06363 1.65426 14
-7.30039 -1.08986 1.16092 39
-7.01999 -1.04929 0.617934 1
-1.69779 -0.566321 0.0919804 49
-0.661592 -0.0998042 -0.033344 56
-1.69527 -0.564824 -0.0305853 53
-0.824733 -0.123781 -0.0979654 55
-0.832293 -0.274721 -0.0734997 55
-0.818544 -0.122577 -0.153802 52
-0.820581 -0.271389 -0.13155 49
-0.8252 -0.122845 -0.214033 50
-0.816714 -0.270992 -0.190358 45
-7.07103 -1.01534 1.63854 26
-7.02264 -1.00964 1.11565 1
-7.01077 -1.00917 0.616627 1
-1.69372 -0.554777 0.0915879 49
-0.664577 -0.0966932 -0.0334753 55
-1.69118 -0.553293 -0.0304544 52
-0.822934 -0.118966 -0.0976611 53
-0.840815 -0.272703 -0.074152 53
-0.821625 -0.118493 -0.154278 52
-0.824335 -0.267865 -0.131941 49
-0.818659 -0.117505 -0.212093 49
-0.815857 -0.265802 -0.189796 44
-7.06297 -1.00286 1.63629 26
-7.01933 -0.99791 1.11487 1
-7.01252 -0.996932 0.616627 1
-1.69696 -0.552895 0.0917188 49
-0.664745 -0.0955331 -0.0334753 55
-1.6969 -0.551899 -0.0305417 53
-0.82312 -0.117673 -0.0976611 53
-0.834191 -0.268904 -0.0734997 55
-0.82183 -0.117058 -0.154278 52
-0.829492 -0.26797 -0.132724 49
-0.818863 -0.116076 -0.212093 49
-0.818586 -0.265284 -0.190358 45
-7.06571 -0.965536 1.63573 26
-7.01956 -0.960475 1.11409 1
-7.01007 -0.960413 0.615973 1
-7.03413 -2.27234 0.902072 1
-1.69983 -0.544003 0.0917188 49
-0.66522 -0.0921673 -0.0334753 55
-1.69729 -0.542536 -0.0304981 53
-0.823725 -0.113362 -0.0976611 53
-0.833171 -0.263913 -0.0732822 55
-0.81998 -0.112568 -0.153802 50
-0.828534 -0.262863 -0.132333 49
-0.821833 -0.112253 -0.21274 50
-0.813013 -0.258738 -0.188673 45
-7.06963 -0.954761 1.63629 26
-7.01633 -0.947562 1.11331 1
-6.94399 -2.24044 1.41024 1
-7.0068 -0.94751 0.615537 1
-7.04517 -2.26234 0.902985 1
-3.11361 -0.421268 0.0542333 35
-1.6984 -0.540272 0.0915879 50
-0.662906 -0.0906729 -0.033344 53
-1.68871 -0.536519 -0.0303236 52
-0.821462 -0.111594 -0.0973569 53
-0.831259 -0.261698 -0.0730648 55
-0.812878 -0.11016 -0.152373 50
-0.824291 -0.259905 -0.13155 49
-0.819634 -0.1105 -0.212093 50
-0.813463 -0.257319 -0.188673 45
-7.0676 -0.914326 1.63461 26
-6.97306 -2.22159 1.94895 1
-7.01891 -0.90927 1.11292 1
-7.23905 -2.29268 1.46791 42
-7.00936 -0.909266 0.61532 1
-7.34125 -2.31388 0.939494 39
-3.11832 -0.404736 0.054277 30
-1.70606 -0.532575 0.0918496 50
-0.66091 -0.0867651 -0.0332127 55
-1.69159 -0.527375 -0.0303236 53
-0.817132 -0.106515 -0.0967484 53
-0.827912 -0.2557 -0.0726299 55
-0.818331 -0.106385 -0.153325 52
-0.825685 -0.255442 -0.13155 49
-0.817824 -0.105758 -0.211447 49
-0.814843 -0.252914 -0.188673 47
-7.06661 -0.902915 1.63404 26
-6.98843 -2.21307 1.95218 1
-7.01314 -0.89608 1.11175 1
-7.23134 -2.27635 1.46553 36
-7.01093 -0.897031 0.61532 1
-7.32397 -2.29437 0.936756 32
-3.11407 -0.398661 0.0541897 17
-1.70222 -0.528105 0.0915879 50
-0.663537 -0.085927 -0.033344 55
-1.69251 -0.524422 -0.0303236 55
-0.817316 -0.105089 -0.0967484 53
-0.830734 -0.254999 -0.0728473 55
-0.818515 -0.104956 -0.153325 52
-0.823773 -0.253262 -0.131158 49
-0.815611 -0.104029 -0.2108 47
-0.81296 -0.25076 -0.188112 47
-7.07381 -0.864963 1.63461 26
-7.25124 -2.25477 2.02262 38
-7.01528 -0.859048 1.11136 1
-7.23612 -2.23627 1.4641 32
-7.01059 -0.859704 0.614884 1
-7.32403 -2.25234 0.935235 32
-3.10867 -0.38144 0.0540588 24
-1.70258 -0.518451 0.0914571 50
-0.659022 -0.0818465 -0.0330815 56
-1.70001 -0.51702 -0.0304108 55
-0.817855 -0.100808 -0.0967484 53
-0.832057 -0.250646 -0.0728473 53
-0.819053 -0.100669 -0.153325 50
-0.825045 -0.249089 -0.131158 49
-0.818542 -0.100046 -0.211447 50
-0.816589 -0.247219 -0.188673 47
-7.06549 -0.852685 1.63236 27
-7.23671 -2.2364 2.01745 32
-7.01907 -0.848323 1.11175 1
-7.22829 -2.22003 1.46171 32
-7.00466 -0.846572 0.61423 1
-7.32044 -2.23865 0.934322 32
-3.10933 -0.376014 0.0540588 29
-1.69384 -0.512856 0.0909337 50
-0.661642 -0.0809944 -0.0332127 58
-1.69135 -0.511134 -0.0302363 53
-0.818013 -0.0995229 -0.0967484 55
-0.825348 -0.247011 -0.0721949 55
-0.816791 -0.0989486 -0.152849 52
-0.825478 -0.247648 -0.131158 49
-0.82591 -0.0994712 -0.213387 50
-0.819305 -0.246652 -0.189235 47
-7.0747 -0.816236 1.63348 27
-7.241 -2.19763 2.01551 33
-7.01851 -0.810994 1.11097 1
-7.23004 -2.18058 1.45981 32
-7.00638 -0.810822 0.614012 1
-7.32018 -2.19672 0.932801 32
-3.11119 -0.360271 0.0540588 30
-1.69889 -0.504698 0.0910646 50
-0.657097 -0.0769585 -0.0329502 56
-1.69391 -0.502567 -0.0302363 53
-0.816057 -0.0949559 -0.0964442 55
-0.833787 -0.244831 -0.0728473 53
-0.814843 -0.0945346 -0.152373 52
-0.822034 -0.241902 -0.130375 49
-0.819205 -0.094472 -0.211447 50
-0.811256 -0.239545 -0.186989 47
-7.06885 -0.803064 1.6318 27
-7.23558 -2.1822 2.01293 33
-7.01501 -0.798186 1.11019 1
-7.22011 -2.16246 1.45695 30
-7.00036 -0.797748 0.613359 1
-7.31925 -2.18252 0.932192 32
-3.11188 -0.354298 0.0540588 29
-1.69498 -0.500305 0.0908029 50
-0.662192 -0.0763733 -0.0332127 56
-1.69239 -0.498896 -0.0301927 55
-0.821153 -0.0940881 -0.0970526 55
-0.824665 -0.240532 -0.0719775 53
-0.815007 -0.0931122 -0.152373 52
-0.820089 -0.239761 -0.129984 49
-0.821784 -0.093167 -0.212093 50
-0.811673 -0.238129 -0.186989 47
-7.06825 -0.764283 1.63068 26
-7.24034 -2.14096 2.01099 33
-7.01432 -0.759689 1.10941 1
-7.23133 -2.12462 1.45695 33
-7.28437 -0.790157 0.63798 36
-7.31904 -2.13939 0.930671 33
-3.10872 -0.337462 0.0539716 26
-1.69287 -0.489727 0.0905412 50
-0.6601 -0.0726372 -0.0330815 56
-1.69507 -0.489732 -0.0301927 56
-0.814249 -0.0888489 -0.0961399 55
-0.830694 -0.237608 -0.0724124 53
-0.815498 -0.0887013 -0.152373 52
-0.821333 -0.235464 -0.129984 49
-0.81986 -0.0886075 -0.211447 50
-0.812949 -0.233734 -0.186989 47
-7.06944 -0.753179 1.63068 26
-7.23711 -2.12627 2.00905 33
-7.01059 -0.748146 1.10863 1
-7.23032 -2.11062 1.456 33
-7.27831 -0.77665 0.637326 36
-7.31763 -2.12651 0.930062 32
-3.10682 -0.331771 0.0539279 23
-1.69364 -0.487067 0.0905412 50
-0.662709 -0.0717485 -0.0332127 58
-1.69352 -0.486077 -0.030149 55
-0.816855 -0.0878309 -0.0964442 55
-0.823932 -0.234075 -0.07176 52
-0.815652 -0.0872778 -0.152373 52
-0.819372 -0.23334 -0.129592 50
-0.815209 -0.0866741 -0.210153 50
-0.813315 -0.232457 -0.186989 47
-6.84787 -0.693376 1.57845 1
-7.24082 -2.0876 2.00711 33
-7.00458 -0.710434 1.10707 1
-7.23383 -2.07197 1.45457 35
-7.27967 -0.739551 0.637109 38
-7.31434 -2.08407 0.928237 32
-3.10597 -0.31579 0.0538843 17
-1.69617 -0.478192 0.0905412 50
-0.658107 -0.0677765 -0.0329502 56
-1.69836 -0.478183 -0.0301927 61
-0.817303 -0.0835527 -0.0964442 55
-0.827542 -0.23044 -0.0719775 53
-0.813641 -0.0829038 -0.151897 53
-0.813459 -0.227015 -0.128418 49
-0.818041 -0.0827859 -0.2108 50
-0.812179 -0.227524 -0.186427 47
-6.85392 -0.681905 1.57958 1
-7.23517 -2.07229 2.00453 33
-7.00827 -0.698452 1.10746 1
-7.23307 -2.05673 1.45361 35
-7.28838 -0.727585 0.637762 30
-7.30842 -2.0686 0.92702 32
-3.10657 -0.309827 0.0538843 14
-1.6946 -0.474551 0.0904104 50
-0.663193 -0.0671202 -0.0332127 58
-1.69438 -0.473858 -0.0301054 74
-0.817448 -0.0821261 -0.0964442 55
-0.820753 -0.226963 -0.0713251 52
-0.816227 -0.0817239 -0.152373 52
-0.818605 -0.226941 -0.129201 49
-0.820602 -0.0814496 -0.211447 50
-0.814918 -0.226773 -0.186989 47
-6.85023 -0.644129 1.57789 1
-7.24163 -2.03181 2.00323 33
-6.99965 -0.659368 1.10551 1
-7.23902 -2.01751 1.45266 35
-7.27733 -0.686739 0.636455 36
-7.3219 -2.02969 0.927324 35
-3.10068 -0.292855 0.0537534 12
-1.69714 -0.465376 0.0904104 50
-0.658565 -0.0631804 -0.0329502 58
-1.69933 -0.465351 -0.030149 90
-0.81541 -0.0774716 -0.0961399 55
-0.826731 -0.223992 -0.07176 52
-0.814214 -0.0770794 -0.151897 52
-0.819782 -0.222652 -0.129201 50
-0.816207 -0.0767083 -0.210153 50
-0.816133 -0.22236 -0.186989 49
-6.92644 -0.640305 1.5953 1
-7.23586 -2.01657 2.00065 33
-6.99822 -0.648145 1.10512 1
-7.22834 -2.00093 1.4498 33
-7.281 -0.674266 0.636673 36
-7.31312 -2.01488 0.925803 33
-3.10119 -0.287443 0.0537534 11
-1.69306 -0.461384 0.0901487 53
-0.656188 -0.0618021 -0.0328189 56
-1.69532 -0.461059 -0.0300618 90
-0.81553 -0.0761906 -0.0961399 55
-0.822318 -0.221228 -0.0713251 52
-0.816791 -0.0758811 -0.152373 53
-0.813029 -0.219251 -0.128026 50
-0.813935 -0.075066 -0.209507 50
-0.807091 -0.218477 -0.184742 47
-7.06318 -0.615637 1.62618 1
-7.23665 -1.97737 1.99806 33
-6.99414 -0.610851 1.10394 1
-7.23127 -1.96239 1.44837 35
-7.2744 -0.636539 0.635801 36
-7.32117 -1.97591 0.925499 33
-3.08019 -0.269789 0.0533607 11
-1.69786 -0.453163 0.0902795 52
-0.654015 -0.0581496 -0.0326876 56
-1.69763 -0.452473 -0.0300618 85
-0.813446 -0.0717058 -0.0958357 55
-0.823465 -0.216919 -0.0713251 52
-0.812274 -0.071325 -0.151421 52
-0.821317 -0.216923 -0.129201 50
-0.811898 -0.0707399 -0.20886 50
-0.815277 -0.216162 -0.186427 47
-7.07881 -0.604549 1.62955 1
-7.23776 -1.9641 1.99742 33
-7.00012 -0.599063 1.10472 1
-7.22791 -1.94658 1.44694 35
-7.27798 -0.624054 0.636019 36
-7.31502 -1.96056 0.924282 33
-3.09316 -0.264936 0.0535789 11
-1.68418 -0.446322 0.0894945 49
-0.654116 -0.057008 -0.0326876 56
-1.69359 -0.448217 -0.0299745 82
-0.811097 -0.0700766 -0.0955314 56
-0.811813 -0.212263 -0.0702379 50
-0.814843 -0.0701134 -0.151897 52
-0.819309 -0.214849 -0.128809 50
-0.816846 -0.0695827 -0.210153 52
-0.813301 -0.214105 -0.185866 47
-7.07469 -0.56566 1.62787 1
-7.23895 -1.92243 1.99483 33
-7.00079 -0.560983 1.10433 1
-7.23326 -1.90746 1.44599 35
-7.27876 -0.584468 0.635801 36
-7.10714 -1.86354 0.896596 1
-3.09201 -0.248538 0.0535353 11
-1.6914 -0.438469 0.0897562 52
-0.651917 -0.0533838 -0.0325564 56
-1.69115 -0.437781 -0.0298872 76
-0.808991 -0.0654912 -0.0952272 56
-0.810504 -0.207378 -0.0700204 50
-0.812764 -0.0655107 -0.151421 55
-0.815683 -0.209159 -0.128026 50
-0.817199 -0.0653048 -0.210153 50
-0.80738 -0.207838 -0.184181 47
-7.06828 -0.553976 1.62618 1
-7.22595 -1.90547 1.99031 32
-6.99684 -0.548379 1.10355 1
-7.22709 -1.89234 1.44408 35
-7.27977 -0.571764 0.635801 36
-7.31206 -1.90378 0.922152 33
-3.09992 -0.243725 0.0536661 11
-1.68733 -0.434259 0.0894945 52
-0.652009 -0.0522459 -0.0325564 56
-1.68466 -0.432942 -0.0297564 49
-0.811578 -0.0642708 -0.0955314 56
-0.808454 -0.205336 -0.069803 50
-0.81043 -0.0639033 -0.150945 53
-0.820826 -0.208981 -0.128809 49
-0.814904 -0.0636944 -0.209507 50
-0.814812 -0.20828 -0.185866 49
-7.06875 -0.515549 1.62562 1
-7.22414 -1.86458 1.98708 32
-6.99222 -0.511198 1.10238 1
-7.22976 -1.85264 1.44265 35
-7.28267 -0.533639 0.635801 36
-7.31952 -1.86485 0.921848 33
-3.11112 -0.228218 0.0538407 8
-1.68716 -0.424802 0.0893636 52
-0.649783 -0.0486502 -0.0324251 56
-1.67237 -0.420419 -0.0294946 15
-0.814378 -0.0601992 -0.0958357 56
-0.811932 -0.201715 -0.0700204 50
-0.813201 -0.059835 -0.151421 53
-0.819481 -0.204213 -0.128418 49
-0.812817 -0.0592553 -0.20886 52
-0.818251 -0.204615 -0.186427 47
-7.06955 -0.504445 1.62562 1
-7.22036 -1.85017 1.98514 32
-6.99302 -0.500214 1.10238 1
-7.2211 -1.83698 1.44027 35
-7.27117 -0.520042 0.634712 36
-7.31042 -1.8503 0.920327 33
-1.69025 -0.422763 0.0894945 52
-0.809521 -0.0585703 -0.0952272 56
-0.812282 -0.200297 -0.0700204 49
-0.815753 -0.0585872 -0.151897 52
-0.817442 -0.202176 -0.128026 49
-0.812919 -0.0578366 -0.20886 50
-0.81385 -0.202128 -0.185304 49
-7.07452 -0.467582 1.62618 1
-7.22027 -1.81124 1.98256 32
-6.99554 -0.463592 1.10238 1
-7.2184 -1.79744 1.43788 35
-7.27868 -0.483562 0.635147 36
-7.31278 -1.8102 0.919414 33
-1.68759 -0.412708 0.0892328 52
-0.812293 -0.0544927 -0.0955314 56
-0.801231 -0.193054 -0.0689331 49
-0.808692 -0.0539799 -0.150468 53
-0.816093 -0.197299 -0.127635 49
-0.813202 -0.0537213 -0.20886 52
-0.810169 -0.196687 -0.184181 47
-7.07047 -0.454922 1.62506 1
-7.20936 -1.79513 1.97868 33
-6.99388 -0.451223 1.10199 1
-7.21707 -1.7824 1.43693 35
-7.27951 -0.470857 0.635147 36
-7.3087 -1.79565 0.918501 33
-1.68588 -0.409167 0.089102 53
-0.657658 -0.0434561 -0.0328189 58
-0.812387 -0.0530749 -0.0955314 56
-0.803986 -0.192249 -0.0691506 49
-0.808785 -0.0525684 -0.150468 53
-0.816436 -0.195875 -0.127635 49
-0.808483 -0.0518592 -0.207567 50
-0.815241 -0.196441 -0.185304 47
-6.97555 -0.410949 1.6026 1
-7.22131 -1.75667 1.97932 33
-6.99622 -0.413376 1.10199 1
-7.21915 -1.74285 1.4355 35
-7.27698 -0.431171 0.634712 32
-7.3159 -1.7555 0.918197 35
-1.68807 -0.400039 0.089102 53
-0.657876 -0.0400121 -0.0328189 58
-1.56382 -0.369662 -0.0274439 18
-0.812662 -0.0486787 -0.0955314 56
-0.800137 -0.186875 -0.0687157 47
-0.811507 -0.0483334 -0.150945 55
-0.81505 -0.19102 -0.127243 49
-0.813565 -0.0479008 -0.20886 52
-0.811556 -0.190884 -0.184181 47
-6.86431 -0.3936 1.57677 1
-7.21733 -1.74235 1.97739 33
-7.27544 -0.418351 1.14609 38
-7.20786 -1.72681 1.43264 33
-7.27772 -0.41847 0.634712 33
-1.68384 -0.39623 0.0888403 53
-0.650467 -0.0384379 -0.0324251 59
-1.56447 -0.366932 -0.0274439 20
-0.807783 -0.0471216 -0.094923 56
-0.798039 -0.184902 -0.0684982 47
-0.80914 -0.0467795 -0.150468 53
-0.815382 -0.189597 -0.127243 50
-0.813648 -0.0464808 -0.20886 52
-0.809486 -0.189042 -0.183619 47
-6.86141 -0.357401 1.57565 1
-7.219 -1.70413 1.97545 33
-7.27506 -0.380123 1.1457 38
-7.20934 -1.68862 1.43121 33
-7.27974 -0.381629 0.634712 32
-1.68589 -0.387408 0.0888403 55
-0.650654 -0.0351451 -0.0324251 59
-1.56143 -0.357878 -0.0273566 23
-0.812975 -0.043146 -0.0955314 56
-0.786836 -0.17804 -0.0674109 42
-0.811818 -0.0428085 -0.150945 53
-0.813959 -0.184765 -0.126852 50
-0.813872 -0.042362 -0.20886 50
-0.810464 -0.1848 -0.183619 47
-6.87169 -0.347112 1.57789 1
-7.22197 -1.69153 1.97545 33
-7.27325 -0.367301 1.14531 36
-7.2075 -1.67492 1.43026 35
-7.29035 -0.369425 0.635583 33
-7.08406 -1.63577 0.887165 1
-1.68657 -0.384465 0.0888403 53
-0.645727 -0.0337594 -0.0321625 59
-1.57423 -0.357959 -0.0275748 23
-0.813049 -0.041727 -0.0955314 56
-0.787145 -0.176667 -0.0674109 42
-0.814342 -0.0415123 -0.151421 52
-0.811874 -0.182787 -0.12646 50
-0.813945 -0.0409414 -0.20886 50
-0.815531 -0.184488 -0.184742 49
-6.87109 -0.308619 1.57733 1
-7.2216 -1.65027 1.97286 35
-7.27019 -0.327722 1.14453 36
-7.21167 -1.63481 1.42931 35
-7.28229 -0.329526 0.634712 33
-7.07587 -1.59359 0.885035 1
-1.68619 -0.374786 0.0887094 55
-0.648394 -0.0303767 -0.0322938 59
-1.59322 -0.353274 -0.0278802 23
-0.813263 -0.0373274 -0.0955314 56
-0.7808 -0.170765 -0.0667586 42
-0.817007 -0.0372132 -0.151897 52
-0.810412 -0.17799 -0.126069 50
-0.814155 -0.036537 -0.20886 50
-0.80939 -0.178458 -0.183058 49
-6.86913 -0.297721 1.57677 1
-7.21975 -1.6366 1.97157 35
-7.2707 -0.316302 1.14453 36
-7.21212 -1.62168 1.42883 35
-7.28534 -0.316924 0.63493 32
-7.2987 -1.63188 0.912721 32
-1.68434 -0.371592 0.0885786 55
-0.645952 -0.0291379 -0.0321625 59
-1.61823 -0.355933 -0.0283165 29
-0.810841 -0.0359443 -0.0952272 56
-0.776236 -0.168317 -0.0663237 42
-0.812167 -0.0355808 -0.150945 53
-0.810721 -0.176576 -0.126069 50
-0.814217 -0.035116 -0.20886 49
-0.814423 -0.178256 -0.184181 49
-6.87546 -0.261934 1.57789 1
-7.22087 -1.59846 1.96963 33
-7.26979 -0.278134 1.14414 36
-7.21064 -1.58305 1.42692 35
-7.28685 -0.280045 0.63493 32
-7.08413 -1.54486 0.884731 1
-3.12217 -0.120237 0.0539279 9
-1.68382 -0.362236 0.0884478 55
-0.646096 -0.0257553 -0.0321625 59
-1.63711 -0.351459 -0.0286219 42
-0.808539 -0.0316056 -0.094923 56
-0.772239 -0.163191 -0.0658888 41
-0.809884 -0.0313788 -0.150468 52
-0.816459 -0.173382 -0.126852 50
-0.816798 -0.0310821 -0.209507 49
-0.808207 -0.172422 -0.182496 47
-7.05607 -0.256446 1.61944 21
-7.21658 -1.5843 1.96769 33
-7.27026 -0.265446 1.14414 36
-7.21367 -1.5692 1.42692 35
-7.28733 -0.267327 0.63493 32
-7.29779 -1.57826 0.9112 35
-3.1149 -0.113971 0.053797 9
-1.68201 -0.358769 0.0883169 55
-0.64614 -0.0246276 -0.0321625 59
-1.66215 -0.353875 -0.0290583 52
-0.808593 -0.0301944 -0.094923 56
-0.76522 -0.160267 -0.0652364 41
-0.809937 -0.0299653 -0.150468 52
-0.814347 -0.171434 -0.12646 50
-0.816856 -0.0295139 -0.209507 50
-0.806126 -0.170493 -0.181935 49
-6.87229 -0.212579 1.57677 1
-7.22032 -1.54422 1.9664 33
-7.27159 -0.226106 1.14414 36
-7.21459 -1.52988 1.42549 35
-7.28369 -0.22774 0.634494 30
-7.29408 -1.53619 0.909678 33
-3.12045 -0.0978148 0.0538843 11
-1.68148 -0.349149 0.0881861 55
-0.643765 -0.0211674 -0.0320313 59
-1.67383 -0.346934 -0.0292328 55
-0.811224 -0.025894 -0.0952272 56
-0.761174 -0.155233 -0.0648015 41
-0.810087 -0.0255827 -0.150468 53
-0.812818 -0.166658 -0.126069 50
-0.816999 -0.0252364 -0.209507 50
-0.807037 -0.166129 -0.181935 49
-6.86531 -0.20157 1.57508 1
-7.21119 -1.5291 1.96317 33
-7.267 -0.214539 1.14336 36
-7.21244 -1.51627 1.42454 35
-7.28906 -0.215174 0.63493 30
-7.06577 -1.47636 0.880776 1
-3.09813 -0.0917128 0.0534916 11
-1.68447 -0.347018 0.0883169 55
-0.651287 -0.0202608 -0.0324251 61
-1.67443 -0.344012 -0.0292328 58
-0.811264 -0.0246197 -0.0952272 56
-0.75413 -0.152378 -0.0641491 41
-0.810131 -0.0241688 -0.150468 53
-0.820358 -0.166756 -0.127243 49
-0.812214 -0.0236781 -0.208214 50
-0.807297 -0.164861 -0.181935 49
-6.85897 -0.165446 1.5734 1
-7.2212 -1.49307 1.96382 33
-7.27296 -0.176605 1.14414 36
-7.21522 -1.47876 1.42359 35
-7.28756 -0.178217 0.634712 30
-7.06854 -1.43835 0.880167 1
-3.10605 -0.0762113 0.0536225 12
-1.68137 -0.337198 0.0880552 56
-0.651384 -0.0168504 -0.0324251 59
-1.6786 -0.33603 -0.0292764 61
-0.808901 -0.0203135 -0.094923 56
-0.752476 -0.147932 -0.0639317 39
-0.812696 -0.0201246 -0.150945 52
-0.811542 -0.160486 -0.125677 50
-0.809909 -0.0195129 -0.207567 50
-0.812922 -0.16161 -0.183058 49
-6.87873 -0.153907 1.57789 1
-7.21907 -1.47949 1.96252 33
-7.27079 -0.163856 1.14375 35
-7.20361 -1.46196 1.42073 35
-7.28786 -0.165498 0.634712 32
-7.0686 -1.42552 0.879863 1
-3.10619 -0.070248 0.0536225 15
-1.67951 -0.333769 0.0879244 56
-0.651413 -0.0157135 -0.0324251 61
-1.68163 -0.333593 -0.02932 62
-0.808935 -0.0189017 -0.094923 56
-0.74785 -0.145636 -0.0634968 39
-0.807823 -0.0186016 -0.149992 53
-0.80698 -0.158092 -0.124894 50
-0.81236 -0.0180073 -0.208214 50
-0.808428 -0.159221 -0.181935 49
-6.88433 -0.116769 1.57901 1
-7.2175 -1.43852 1.95994 35
-7.2691 -0.124473 1.14336 35
-7.21117 -1.42423 1.42073 35
-7.28367 -0.125979 0.634276 30
-7.07378 -1.38677 0.879559 1
-3.09902 -0.0538561 0.0534916 29
-1.67639 -0.323717 0.0876627 56
-0.646494 -0.0122188 -0.0321625 59
-1.67851 -0.323529 -0.0292328 64
-0.806545 -0.0144844 -0.0946187 56
-0.743714 -0.140761 -0.0630619 39
-0.810366 -0.0142696 -0.150468 53
-0.81022 -0.15434 -0.125285 50
-0.807613 -0.0136802 -0.20692 50
-0.811667 -0.155317 -0.182496 50
-6.92105 -0.10651 1.58744 1
-7.21763 -1.42545 1.95929 35
-7.26682 -0.113017 1.14297 35
-7.20883 -1.41069 1.41977 35
-7.06864 -1.37423 0.878646 1
-3.10161 -0.0484852 0.0535353 36
-1.67935 -0.321559 0.0877936 56
-0.646514 -0.0110905 -0.0321625 59
-1.6668 -0.318221 -0.0290146 64
-0.804085 -0.0131811 -0.0943145 58
-0.731734 -0.137091 -0.0619746 38
-0.805481 -0.0127858 -0.149516 53
-0.810488 -0.152926 -0.125285 50
-0.807636 -0.0122706 -0.20692 50
-0.807129 -0.153105 -0.181373 49
-7.21052 -1.38616 1.95542 33
-7.20865 -1.37281 1.41834 33
-7.06599 -1.33535 0.877429 1
-3.09931 -0.0327607 0.0534916 24
-1.67856 -0.312299 0.0876627 56
-0.64906 -0.00772958 -0.0322938 59
-1.67576 -0.31117 -0.0291455 64
-0.809106 -0.00901754 -0.094923 58
-0.805536 -0.00870878 -0.149516 53
-0.813704 -0.14914 -0.125677 49
-0.814932 -0.00824338 -0.20886 52
-0.805526 -0.148421 -0.180812 50
-7.21056 -1.37312 1.95477 33
-7.20645 -1.35805 1.41739 35
-3.1056 -0.0279456 0.268658 8
-7.06099 -1.32165 0.876516 1
-3.09437 -0.0267694 0.0534044 23
-1.67665 -0.308909 0.0875319 56
-0.646576 -0.00657671 -0.0321625 59
-1.66156 -0.305491 -0.0288837 58
-0.804158 -0.00756726 -0.0943145 58
-0.80555 -0.00730284 -0.149516 55
-0.81639 -0.148174 -0.126069 49
-0.810117 -0.00664762 -0.207567 50
-0.808178 -0.147467 -0.181373 49
-7.21313 -1.3332 1.95348 33
-3.10188 -0.0106012 0.484659 4
-7.21346 -1.3203 1.41739 35
-3.08578 -0.0110798 0.266914 9
-7.06804 -1.28342 0.876516 1
-3.07697 -0.0105151 0.0530989 15
-1.67829 -0.299833 0.0875319 53
-0.646601 -0.00319117 -0.0321625 59
-1.67056 -0.297834 -0.0290146 49
-0.804187 -0.00321626 -0.0943145 58
-0.805577 -0.00294431 -0.149516 55
-0.802579 -0.141244 -0.123719 50
-0.810141 -0.00240579 -0.207567 52
-0.808964 -0.143092 -0.181373 49
-7.2012 -1.31799 1.9496 33
-3.0772 -0.00569429 0.480756 2
-7.20609 -1.30595 1.41548 35
-3.07085 -0.00567323 0.265607 1
-7.06516 -1.27144 0.875908 1
-3.07449 -0.0051417 0.0530553 15
-1.67385 -0.296312 0.0872702 39
-0.644109 -0.00206002 -0.0320313 59
-0.801709 -0.00195131 -0.0940102 58
-0.808036 -0.00153874 -0.149992 53
-0.805254 -0.140281 -0.124111 50
-0.807729 -0.000993085 -0.20692 52
-0.7996 -0.140082 -0.179127 45
-7.20777 -1.28153 1.9496 35
-3.04755 0.0103041 0.476074 9
-7.21019 -1.26903 1.41501 35
-3.05341 0.00980585 0.264082 14
-7.06928 -1.234 0.875603 1
-3.05448 0.0103429 0.0527063 20
-1.67784 -0.287973 0.087401 20
-0.646608 0.001323 -0.0321625 59
-0.801709 0.00224644 -0.0940102 59
-0.810487 0.00256309 -0.150468 56
-0.805978 -0.136062 -0.124111 49
-0.807723 0.00309519 -0.20692 52
-0.805121 -0.136738 -0.18025 49
-7.20049 -1.26726 1.94701 35
-3.05 0.0156368 0.476464 9
-7.19811 -1.25265 1.41215 36
-3.05089 0.0151216 0.263864 15
-7.0592 -1.21954 0.874082 1
-3.05195 0.0161926 0.0526626 23
-1.6931 -0.287594 0.0881861 14
-0.649101 0.00246635 -0.0322938 59
-0.801704 0.00364568 -0.0940102 59
-0.709902 -0.117506 -0.0598 38
-0.805573 0.0039451 -0.149516 55
-0.815946 -0.13634 -0.125677 50
-0.807716 0.0046459 -0.20692 52
-0.807758 -0.13575 -0.180812 49
-7.20486 -1.22788 1.94637 36
-3.04493 0.0320843 0.475683 9
-7.20215 -1.21454 1.41167 36
-3.04579 0.0315743 0.263428 14
-7.06569 -1.18133 0.874082 1
-3.04433 0.0320899 0.0525317 32
-1.71679 -0.282134 0.0893636 14
-0.64159 0.00578133 -0.0319 59
-1.68689 -0.276537 -0.0292328 11
-0.794228 0.00789619 -0.0930975 61
-0.698224 -0.111736 -0.0587128 38
-0.814236 -0.131515 -0.125285 50
-0.802851 0.00881348 -0.205627 52
-0.810883 -0.131783 -0.181373 49
-7.19747 -1.21369 1.94378 36
-3.05968 0.0375874 0.478025 8
-7.20668 -1.20237 1.41215 35
-3.05569 0.0370153 0.2643 14
-7.0604 -1.16777 0.87317 1
-3.04676 0.037435 0.0525754 23
-1.74684 -0.284025 0.0909337 14
-0.644075 0.00693335 -0.0320313 61
-1.69723 -0.27522 -0.0294073 11
-0.796695 0.00931572 -0.0934018 61
-0.695961 -0.110111 -0.0584953 38
-0.807157 -0.128883 -0.124111 50
-0.810079 0.0103196 -0.207567 52
-0.808709 -0.129967 -0.180812 49
-7.19657 -1.17482 1.94184 35
-3.10636 0.0544507 0.485439 1
-6.96336 -1.12416 1.36306 1
-3.05545 0.0530143 0.2643 2
-7.05907 -1.12961 0.872257 1
-3.07652 0.0539264 0.0530989 3
-1.77542 -0.279214 0.092373 14
-0.641534 0.0102603 -0.0319 61
-1.70606 -0.267512 -0.0295382 11
-0.794154 0.0134407 -0.0930975 62
-0.686691 -0.104894 -0.0576255 39
-0.805462 0.0139271 -0.149516 55
-0.810237 -0.125187 -0.124502 50
-0.805184 0.0144658 -0.206274 52
-0.804569 -0.124954 -0.179689 50
-7.19623 -1.16187 1.9412 35
-6.96046 -1.11123 1.36211 1
-3.07777 0.0587851 0.266261 11
-7.06328 -1.11891 0.872561 1
-3.07892 0.0593452 0.0531426 14
-1.80051 -0.28033 0.0936814 14
-0.646507 0.0114793 -0.0321625 64
-1.71146 -0.265313 -0.0296255 15
-0.799094 0.0147886 -0.093706 67
-0.691793 -0.104473 -0.0580604 42
-0.807891 0.0153838 -0.149992 58
-0.803138 -0.122612 -0.123328 50
-0.807572 0.0159229 -0.20692 52
-0.804764 -0.12369 -0.179689 49
-7.19963 -1.12505 1.94055 36
-6.97085 -1.07674 1.36306 1
-7.06414 -1.08115 0.871953 1
-3.09107 0.0752379 0.0533607 14
-0.646441 0.0147514 -0.0321625 67
-0.796525 0.0189092 -0.0934018 71
-0.689851 -0.100594 -0.0578429 42
-0.807802 0.0194727 -0.149992 56
-0.801329 -0.118031 -0.122936 49
-0.802653 0.0198821 -0.205627 53
-0.800585 -0.118731 -0.178566 45
-7.14838 0.188274 1.64022 33
-7.19681 -1.11175 1.93926 35
-7.25531 0.191123 1.14141 36
-6.96302 -1.06308 1.36115 1
-7.0562 -1.06733 0.870736 1
-3.09343 0.080699 0.0534044 12
-0.653901 0.0160796 -0.0325564 70
-0.79649 0.0202994 -0.0934018 70
-0.690025 -0.0993894 -0.0578429 44
-0.805314 0.0208149 -0.149516 58
-0.803975 -0.117002 -0.123328 50
-0.797789 0.0211464 -0.204334 52
