# .PCD v0.7 - Point Cloud Data file format
VERSION 0.7
FIELDS x y z intensity
SIZE 4 4 4 4
TYPE F F F F
COUNT 1 1 1 1
WIDTH 1608
HEIGHT 1
VIEWPOINT 0 0 0 1 0 0 0
POINTS 1608
DATA ascii
-2.05689 1.29643 0.125606 35
-1.41302 1.28118 -0.0984567 49
-1.40028 1.27094 -0.227572 53
-1.40477 1.27591 -0.36141 56
-1.61263 1.01651 -0.29677 15
-1.39791 1.27142 -0.496609 59
-0.964422 0.609075 -0.254933 4
-1.39733 1.2709 0.427322 49
-2.06893 1.29808 0.644266 39
-1.39798 1.27107 0.293058 47
-2.06647 1.3015 0.467539 39
-1.39498 1.26835 0.161892 50
-2.04553 1.29182 0.292375 36
-1.39608 1.2698 0.0323306 47
-2.04852 1.29567 0.125214 36
-1.40156 1.27523 -0.0978003 50
-1.39645 1.27147 -0.227267 53
-1.39711 1.27339 -0.359981 56
-1.39034 1.26897 -0.494669 59
-0.961401 0.609294 -0.254372 4
-1.38349 1.2716 0.425076 49
-2.04804 1.29951 0.639743 39
-1.38586 1.27336 0.291888 47
-2.04327 1.30143 0.463726 38
-1.38671 1.27371 0.161674 49
-2.02618 1.29452 0.290549 38
-1.38595 1.27346 0.0322433 49
-2.02486 1.29565 0.124167 39
-1.38384 1.27241 -0.0970127 49
-1.61585 1.03587 -0.0328978 15
-1.3843 1.27372 -0.226355 53
-1.37621 1.26714 -0.356172 56
-1.38035 1.27271 -0.493376 59
-0.96231 0.616932 -0.255495 4
-1.37411 1.2674 0.42283 49
-2.03557 1.29661 0.636512 39
-1.37638 1.26907 0.290327 47
-2.02628 1.29612 0.46039 36
-1.37716 1.26937 0.160802 49
-2.01346 1.29138 0.289028 39
-1.378 1.27103 0.0321124 49
-2.01208 1.29246 0.123513 39
-1.37795 1.27143 -0.0967501 49
-1.61614 1.04003 -0.0329414 15
-1.37661 1.27108 -0.225442 53
-1.37039 1.26621 -0.35522 56
-1.37082 1.26879 -0.490789 61
-0.96534 0.62123 -0.256618 4
-1.36545 1.27316 0.422269 49
-2.01634 1.29978 0.632634 38
-1.36227 1.26976 0.288766 47
-2.00915 1.30007 0.458007 38
-1.36481 1.2717 0.160149 49
-1.99811 1.29687 0.287811 38
-1.36584 1.27311 0.0319815 49
-1.99877 1.29925 0.12312 38
-1.3658 1.27352 -0.0963563 50
-1.61259 1.05012 -0.032985 14
-1.36428 1.27342 -0.224529 55
-1.36352 1.2736 -0.35522 56
-1.35887 1.271 -0.488849 59
-0.966059 0.629085 -0.257741 4
-1.35456 1.26697 0.419461 49
-1.99985 1.29414 0.628111 39
-1.36028 1.2719 0.288766 47
-1.99452 1.29558 0.455147 39
-1.35714 1.26898 0.159495 49
-1.98566 1.29325 0.28629 38
-1.35632 1.26866 0.031807 47
-1.98416 1.29423 0.122335 38
-1.35811 1.27078 -0.0959625 50
-1.35322 1.26708 -0.223008 55
-1.35235 1.26758 -0.352839 58
-1.34609 1.26345 -0.48497 59
-0.963025 0.629278 -0.257179 4
-1.3426 1.26902 0.417776 49
-1.98113 1.29634 0.624234 39
-1.34822 1.27391 0.287595 49
-1.97972 1.30028 0.453241 39
-1.34346 1.26898 0.158623 49
-1.96433 1.29411 0.28416 39
-1.34807 1.27379 0.0317634 49
-1.96692 1.29775 0.121681 38
-1.34781 1.27444 -0.0956999 50
-1.34477 1.27244 -0.222704 55
-1.34057 1.26934 -0.35141 58
-1.96461 1.29529 -0.367635 38
-1.33793 1.26858 -0.484323 59
-0.963792 0.636981 -0.258303 4
-1.33332 1.26465 0.41553 50
-1.96674 1.29186 0.620356 39
-1.33704 1.26776 0.285644 47
-1.96491 1.296 0.450381 39
-1.33402 1.26447 0.157752 49
-1.94964 1.28934 0.282335 38
-1.33656 1.26777 0.0315452 49
-1.95632 1.29568 0.121158 38
-1.34016 1.27163 -0.0953061 50
-1.33356 1.26623 -0.221183 55
-1.32591 1.25984 -0.348077 58
-1.94998 1.29057 -0.365285 39
-1.33374 1.26948 -0.483676 61
-0.962679 0.638662 -0.258303 4
-1.32118 1.26679 0.413846 50
-1.94764 1.29449 0.616479 41
-1.32303 1.26814 0.284083 47
-1.94787 1.29948 0.447998 39
-1.32356 1.26822 0.157316 49
-1.9323 1.293 0.280814 39
-1.3263 1.27128 0.031458 49
-1.93267 1.29517 0.120111 38
-1.32988 1.27517 -0.0950435 52
-1.31953 1.26655 -0.219966 56
-1.31554 1.26359 -0.347125 58
-1.92676 1.28981 -0.362153 36
-1.32012 1.26975 -0.48109 61
-0.953124 0.639814 -0.256618 4
-1.31393 1.26379 0.412161 50
-1.94135 1.29522 0.615187 39
-1.3157 1.26507 0.282913 49
-1.93539 1.29607 0.445616 41
-1.31776 1.26707 0.15688 50
-1.92202 1.29051 0.279597 41
-1.31687 1.26666 0.0312834 49
-1.92233 1.29264 0.119588 39
-1.31866 1.26883 -0.0943872 52
-1.31575 1.2669 -0.219661 55
-1.21586 0.820325 -0.125036 12
-1.31157 1.26418 -0.346649 59
-1.91629 1.28768 -0.360587 36
-1.30748 1.26198 -0.47721 61
-0.952118 0.64131 -0.256618 4
-1.30555 1.26895 0.4116 50
-1.92475 1.29829 0.611956 41
-1.30375 1.26678 0.281742 47
-1.9166 1.29762 0.442756 39
-1.30419 1.26678 0.156009 49
-1.9029 1.29222 0.277771 41
-1.30686 1.26982 0.0311962 49
-1.90107 1.29289 0.118672 38
-1.30664 1.27049 -0.0939933 52
-1.30377 1.26858 -0.218749 56
-1.21773 0.830871 -0.125689 12
-1.29988 1.26566 -0.34522 58
-1.89521 1.28801 -0.357847 38
-1.29935 1.26689 -0.476563 59
-0.956824 0.651738 -0.258864 4
-1.29636 1.26442 0.409353 52
-1.90846 1.2922 0.607432 41
-1.29801 1.2656 0.280961 47
-1.90394 1.29442 0.440373 41
-1.29307 1.26035 0.154919 50
-1.88832 1.28718 0.275946 41
-1.29906 1.26709 0.0310653 50
-1.88848 1.28919 0.118018 39
-1.29906 1.26753 -0.0935995 52
-1.298 1.26738 -0.21814 56
-1.23069 0.842799 -0.127211 11
-1.29241 1.26278 -0.343792 59
-1.29519 1.26769 -0.475917 59
-0.957702 0.654774 -0.259426 4
-1.28603 1.26799 0.40823 52
-1.89146 1.29571 0.604201 41
-1.28587 1.2674 0.279791 47
-1.88498 1.29606 0.437513 42
-1.28268 1.26383 0.154484 49
-1.8711 1.29036 0.274425 39
-1.28707 1.26861 0.0309344 50
-1.87119 1.29232 0.117363 39
-1.2853 1.2673 -0.0930744 52
-1.8627 1.28743 -0.0389189 36
-1.2876 1.27089 -0.217532 56
-1.28207 1.2663 -0.342839 59
-1.27653 1.26256 -0.47139 59
-0.946108 0.654436 -0.257179 4
-1.27539 1.26144 0.405423 50
-1.87326 1.28809 0.599032 42
-1.28037 1.26595 0.27901 50
-1.87058 1.29101 0.434654 42
-1.2734 1.25906 0.153612 49
-1.85886 1.28626 0.272904 41
-1.27953 1.26557 0.0308035 52
-1.85683 1.28675 0.116578 39
-1.27954 1.26603 -0.0928119 52
-1.85222 1.285 -0.0387443 36
-1.27855 1.26593 -0.216315 56
-1.27463 1.26335 -0.341411 59
-1.27261 1.26308 -0.470744 59
-0.947086 0.657302 -0.257741 4
-1.26704 1.26637 0.404861 50
-1.85877 1.29206 0.596447 41
-1.26848 1.26739 0.27784 49
-1.85596 1.29486 0.432747 42
-1.26525 1.26373 0.153394 50
-1.84599 1.29172 0.271991 41
-1.2678 1.26673 0.0306726 50
-1.84188 1.29074 0.116055 39
-1.27135 1.27072 -0.0926806 50
-1.83545 1.2872 -0.0385262 36
-1.2649 1.26558 -0.215098 58
-1.26475 1.26631 -0.340459 58
-1.26279 1.26609 -0.469451 59
-0.947631 0.665034 -0.258864 4
-1.25474 1.25801 0.401492 50
-1.84659 1.28842 0.593216 44
-1.26104 1.26435 0.276669 49
-1.84565 1.29248 0.430841 44
-1.25952 1.26241 0.152958 50
-1.83153 1.2864 0.270165 42
-1.26206 1.2654 0.0305853 49
-1.83349 1.28966 0.115662 39
-1.26032 1.26409 -0.0920242 52
-1.82296 1.28323 -0.038308 38
-1.25744 1.26251 -0.214185 58
-1.25562 1.26155 -0.338554 59
-1.25718 1.26486 -0.468157 61
-0.946469 0.666687 -0.258864 4
-1.24598 1.26326 0.40093 52
-1.82971 1.29145 0.589985 44
-1.24898 1.26588 0.275498 49
-1.82258 1.29113 0.427028 42
-1.24393 1.26033 0.151869 52
-1.81846 1.292 0.269253 42
-1.24994 1.26687 0.0304544 49
-1.81426 1.2909 0.114877 41
-1.24996 1.26734 -0.0917617 52
-1.80987 1.28874 -0.0381771 38
-1.24885 1.26752 -0.213881 58
-1.24706 1.26658 -0.338078 61
-1.24186 1.26303 -0.464924 61
-0.948818 0.676014 -0.260549 4
-1.24058 1.26174 0.399807 50
-1.81562 1.28629 0.586108 44
-1.2418 1.26256 0.274328 49
-1.81632 1.29148 0.426075 42
-1.23475 1.25539 0.150997 49
-1.80227 1.2848 0.267123 42
-1.24072 1.26191 0.0302799 49
-1.80002 1.28507 0.114092 38
-1.24076 1.26239 -0.0912366 52
-1.79744 1.28465 -0.037959 38
-1.23817 1.26062 -0.21236 58
-1.23969 1.26349 -0.336649 61
-1.2329 1.25829 -0.462338 61
-0.943779 0.674687 -0.259426 4
-1.22887 1.26297 0.398123 52
-1.79925 1.28845 0.582877 45
-1.22829 1.26196 0.272767 49
-1.80177 1.29494 0.424169 42
-1.22491 1.25806 0.150562 52
-1.79148 1.29132 0.266514 42
-1.22909 1.2628 0.030149 49
-1.78515 1.28865 0.113569 41
-1.23239 1.26708 -0.0911053 52
-1.7828 1.2879 -0.0377845 38
-1.22982 1.26531 -0.212055 55
-1.22474 1.26094 -0.334268 59
-1.22147 1.25931 -0.460398 61
-0.936273 0.676781 -0.258303 4
-1.22497 1.26337 0.397561 52
-1.78914 1.28597 0.580292 44
-1.22265 1.26055 0.271986 50
-1.78932 1.29124 0.421786 42
-1.22098 1.2584 0.150344 50
-1.77312 1.28285 0.264081 42
-1.22145 1.25977 0.0300181 50
-1.77885 1.28885 0.113307 39
-1.22323 1.26205 -0.0905802 53
-1.77447 1.28662 -0.0376536 38
-1.22416 1.26388 -0.211447 58
-1.22083 1.26131 -0.333792 59
-1.22073 1.26339 -0.461044 59
-0.943002 0.684104 -0.260549 4
-1.21306 1.2647 0.395877 52
-1.77237 1.28855 0.577061 45
-1.21069 1.2618 0.270816 49
-1.77062 1.29194 0.418926 42
-1.21071 1.26139 0.149908 52
-1.75813 1.28658 0.262864 42
-1.21138 1.26253 0.0299309 50
-1.76177 1.2911 0.112653 41
-1.21488 1.26663 -0.0904489 52
-1.75536 1.28736 -0.0373918 38
-1.20873 1.26152 -0.209926 56
-1.75934 1.28981 -0.187446 39
-1.2089 1.26258 -0.332364 59
-1.20743 1.26278 -0.458458 59
-1.20602 1.26131 0.394192 52
-1.7584 1.28313 0.573184 45
-1.207 1.26191 0.270425 50
-1.76043 1.28924 0.41702 44
-1.20506 1.2599 0.149472 53
-1.74809 1.28348 0.261647 44
-1.20572 1.26103 0.0298436 50
-1.74967 1.28649 0.111999 41
-1.20577 1.26153 -0.0899238 53
-1.74303 1.28303 -0.0371736 38
-1.20503 1.26163 -0.209622 59
-1.74303 1.28257 -0.185924 39
-1.20161 1.25935 -0.330935 52
-1.19523 1.25438 -0.454578 56
-1.19773 1.26584 0.393631 52
-1.74604 1.28772 0.571245 45
-1.19698 1.26463 0.269645 49
-1.74203 1.2894 0.41416 44
-1.19525 1.26237 0.149036 52
-1.73336 1.28672 0.26043 45
-1.19417 1.26167 0.0297127 52
-1.73287 1.28821 0.111345 41
-1.19572 1.26419 -0.0896612 53
-1.73049 1.28738 -0.0370427 39
-1.1933 1.2625 -0.208709 58
-1.73028 1.28724 -0.185271 39
-1.18512 1.25471 -0.328078 49
-1.18059 1.25163 -0.451345 56
-1.19051 1.26261 0.391946 53
-1.73601 1.28504 0.56866 45
-1.19139 1.26312 0.268864 49
-1.73166 1.28691 0.412254 44
-1.18792 1.25901 0.148383 52
-1.71716 1.2794 0.2583 45
-1.18832 1.26032 0.0296255 52
-1.7206 1.28379 0.110691 41
-1.18838 1.26082 -0.0892674 53
-1.71821 1.28294 -0.0368246 39
-1.186 1.25916 -0.207796 58
-1.72004 1.28431 -0.184402 39
-1.18125 1.25498 -0.327602 45
-1.17488 1.25037 -0.450052 53
-1.17868 1.26368 0.390261 53
-1.71742 1.28576 0.564783 45
-1.17781 1.26232 0.267304 50
-1.71703 1.29008 0.410348 44
-1.1743 1.25813 0.147511 50
-1.70426 1.2842 0.257387 45
-1.1783 1.26286 0.0295382 50
-1.70564 1.28708 0.110167 41
-1.17836 1.26337 -0.0890049 55
-1.70125 1.28471 -0.0366064 41
-1.17748 1.26374 -0.207492 59
-1.16609 1.25237 -0.325221 47
-1.16175 1.24942 -0.447465 47
-1.17338 1.26196 0.389138 53
-1.7113 1.28586 0.56349 45
-1.17246 1.26055 0.266523 52
-1.703 1.28423 0.407488 44
-1.1738 1.26201 0.147729 52
-1.69034 1.27793 0.255562 45
-1.17609 1.26492 0.0295382 52
-1.69166 1.28074 0.109382 42
-1.17276 1.26177 -0.0887423 55
-1.69302 1.28316 -0.0364755 41
-1.17212 1.26195 -0.206883 59
-1.16557 1.2562 -0.325697 47
-1.15629 1.2479 -0.446172 47
-1.15852 1.25912 0.386331 53
-1.69128 1.28431 0.558967 45
-1.15916 1.2594 0.264962 50
-1.68866 1.2869 0.405582 44
-1.16234 1.26243 0.147075 50
-1.67573 1.28075 0.254345 45
-1.16122 1.26165 0.02932 50
-1.675 1.28202 0.108728 41
-1.16276 1.26422 -0.0884798 55
-1.67458 1.28262 -0.0362137 41
-1.16046 1.26259 -0.205971 59
-1.15588 1.25847 -0.324745 49
-1.15159 1.25552 -0.446819 45
-1.15632 1.26114 0.386331 53
-1.67942 1.27996 0.555736 45
-1.15529 1.2596 0.264572 50
-1.67642 1.28271 0.403199 45
-1.15341 1.25711 0.146204 52
-1.6656 1.27765 0.253128 47
-1.15373 1.25835 0.0291891 52
-1.66482 1.27887 0.108205 42
-1.15718 1.26256 -0.0882172 55
-1.6644 1.27946 -0.0360392 41
-1.1549 1.26095 -0.205362 59
-1.15037 1.25686 -0.323793 55
-1.14104 1.24881 -0.443586 45
-1.14294 1.26015 0.384085 53
-1.6648 1.28315 0.553151 45
-1.14349 1.26034 0.263401 52
-1.6619 1.28548 0.401292 45
-1.14157 1.2578 0.14555 52
-1.65277 1.28209 0.252215 47
-1.14712 1.26437 0.0291891 53
-1.64998 1.28176 0.107681 42
-1.14553 1.26305 -0.0878234 55
-1.64756 1.2808 -0.0358211 41
-1.14307 1.26166 -0.204449 61
-1.14191 1.26124 -0.323317 55
-1.1361 1.25656 -0.444232 49
-1.13932 1.26014 0.383523 53
-1.65491 1.28016 0.550566 47
-1.1382 1.25847 0.262621 53
-1.65383 1.28388 0.399862 45
-1.1377 1.25794 0.145332 52
-1.64487 1.28013 0.251302 47
-1.13654 1.25709 0.028971 53
-1.64402 1.28129 0.10742 42
-1.14165 1.26319 -0.0876921 55
-1.6394 1.27908 -0.0356902 42
-1.13776 1.25977 -0.203841 61
-1.13478 1.25776 -0.321888 59
-1.12906 1.25315 -0.442292 56
-1.12946 1.26245 0.3824 55
-1.63888 1.28111 0.547335 47
-1.12995 1.26257 0.262231 52
-1.63764 1.28468 0.39748 45
-1.128 1.25997 0.144896 52
-1.63033 1.2826 0.250086 47
-1.13016 1.26283 0.028971 53
-1.62943 1.28371 0.106896 42
-1.12837 1.2617 -0.087167 58
-1.62701 1.28273 -0.0355593 42
-1.1295 1.26385 -0.203537 59
-0.953033 0.753899 -0.103074 9
-1.12676 1.26166 -0.321412 86
-1.11949 1.25524 -0.440999 90
-1.12402 1.26078 0.381277 53
-1.63093 1.27951 0.545397 47
-1.12282 1.25901 0.26106 52
-1.62744 1.28177 0.395573 45
-1.11752 1.25264 0.143807 53
-1.62029 1.27932 0.248869 47
-1.11943 1.25566 0.0287528 53
-1.61738 1.27884 0.106242 42
-1.1245 1.26181 -0.0870357 58
-1.61888 1.28093 -0.0354284 42
-1.12235 1.26026 -0.202624 61
-0.945846 0.750938 -0.102421 9
-1.10989 1.24711 -0.317126 97
-1.11067 1.25016 -0.438412 90
-1.11718 1.26684 0.381277 55
-1.6145 1.28083 0.542166 49
-1.11599 1.26506 0.26106 52
-1.61494 1.2857 0.394143 45
-1.11237 1.26053 0.144025 53
-1.60557 1.28189 0.247652 47
-1.11284 1.2615 0.0287528 53
-1.60262 1.28135 0.105719 41
-1.11788 1.26768 -0.0870357 56
-1.60215 1.28188 -0.0352102 41
-1.1106 1.26072 -0.201711 67
-0.934107 0.749676 -0.101551 8
-1.1015 1.25126 -0.31665 90
-1.1057 1.25778 -0.439059 79
-1.10394 1.25578 0.377346 55
-1.6028 1.27615 0.538935 49
-1.10585 1.25753 0.259109 53
-1.60693 1.28393 0.392714 45
-1.10524 1.25686 0.143371 53
-1.59191 1.27513 0.245826 47
-1.10569 1.25781 0.0286219 55
-1.5928 1.27764 0.105195 42
-1.11073 1.264 -0.0866419 56
-1.5921 1.27843 -0.0350357 41
-1.10698 1.2606 -0.201407 67
-0.934743 0.75286 -0.101769 4
-1.09608 1.24948 -0.315698 70
-1.10191 1.25789 -0.438412 61
-1.09416 1.25786 0.376223 55
-1.59066 1.27972 0.536996 49
-1.09602 1.25958 0.258328 53
-1.58893 1.28283 0.389854 45
-1.09397 1.2568 0.142718 53
-1.58135 1.28033 0.245218 47
-1.09931 1.26339 0.0286219 55
-1.57832 1.27969 0.104672 42
-1.09918 1.26414 -0.0862481 55
-1.57977 1.28176 -0.0349048 41
-1.09548 1.26076 -0.200494 67
-0.932725 0.759308 -0.101986 4
-1.08814 1.25316 -0.315222 61
-1.09237 1.2598 -0.437119 58
-1.08877 1.25609 0.3751 55
-1.5809 1.27644 0.534411 50
-1.0922 1.25962 0.257938 52
-1.57883 1.27971 0.387948 45
-1.08688 1.25305 0.142064 53
-1.57332 1.27841 0.244305 47
-1.09361 1.26172 0.0285347 55
-1.56638 1.27458 0.104018 42
-1.09371 1.26228 -0.0859855 56
-1.56976 1.27823 -0.0347303 41
-1.09328 1.26267 -0.200494 64
-0.933334 0.762503 -0.102204 4
-1.08114 1.24949 -0.313793 64
-1.0868 1.25823 -0.435826 59
-1.56482 1.26981 -0.456522 45
-1.08038 1.26011 0.374539 55
-1.5646 1.27736 0.53118 50
-1.08055 1.25989 0.256768 53
-1.5664 1.28331 0.386518 45
-1.07684 1.25513 0.141628 53
-1.55486 1.27748 0.242479 47
-1.08049 1.25983 0.0283602 55
-1.55367 1.2783 0.103625 42
-1.08222 1.2623 -0.0855917 56
-1.55122 1.27719 -0.0344685 44
-1.0816 1.2629 -0.199582 65
-1.07595 1.25718 -0.314269 64
-1.07393 1.25656 -0.433239 59
-1.5485 1.27055 -0.453714 45
-1.07207 1.25439 0.372293 56
-1.553 1.27246 0.527949 50
-1.07376 1.25595 0.255597 52
-1.55466 1.27827 0.384135 44
-1.07304 1.25512 0.14141 53
-1.54326 1.27205 0.240958 49
-1.07504 1.25791 0.0282729 53
-1.54394 1.2744 0.103102 44
-1.07677 1.26039 -0.0853292 56
-1.54513 1.27672 -0.0343812 42
-1.07156 1.25516 -0.19806 65
-1.06899 1.25345 -0.312841 68
-1.07017 1.25659 -0.432593 58
-1.54084 1.26835 -0.452029 45
-1.06077 1.2544 0.370608 56
-1.54468 1.27877 0.527303 50
-1.06717 1.26155 0.255597 52
-1.54439 1.283 0.383182 45
-1.06024 1.25292 0.140539 55
-1.53084 1.27536 0.240046 49
-1.06382 1.25761 0.028142 55
-1.52956 1.27608 0.102578 44
-1.06555 1.2601 -0.0849353 56
-1.53288 1.27974 -0.0342503 44
-1.06338 1.25886 -0.197756 65
-1.50461 1.25582 -0.168092 18
-1.06105 1.25697 -0.312365 71
-1.05757 1.2546 -0.430006 59
-1.52668 1.27019 -0.449783 45
-1.05253 1.24861 0.368362 56
-1.535 1.27531 0.524718 50
-1.0602 1.25774 0.254426 53
-1.5327 1.27786 0.380799 45
-1.05645 1.25287 0.140321 55
-1.52289 1.27327 0.239133 49
-1.05841 1.25564 0.0280547 55
-1.51774 1.27076 0.101924 44
-1.05852 1.25622 -0.0845415 56
-1.51912 1.27281 -0.0339886 45
-1.05799 1.25691 -0.197148 67
-1.51581 1.26961 -0.169615 35
-1.05412 1.25318 -0.310936 71
-1.52072 1.27239 -0.308907 45
-1.05228 1.25274 -0.428713 59
-1.51884 1.26818 -0.448099 47
-1.04576 1.25429 0.368362 56
-1.51718 1.27404 0.520841 52
-1.04886 1.25759 0.253256 53
-1.51847 1.27956 0.378892 45
-1.04669 1.25455 0.139885 55
-1.51051 1.27644 0.23822 49
-1.05022 1.25924 0.0280111 55
-1.50725 1.27547 0.101663 45
-1.04714 1.25599 -0.0841477 56
-1.50479 1.2743 -0.033814 45
-1.04822 1.25862 -0.196539 67
-1.49962 1.2695 -0.168527 35
-1.0444 1.25491 -0.309984 70
-1.51026 1.27715 -0.308124 47
-1.04416 1.25638 -0.428066 59
-1.50658 1.27141 -0.446414 45
-1.04223 1.25405 0.3678 56
-1.51126 1.27358 0.519549 52
-1.04351 1.25561 0.252475 53
-1.50684 1.2743 0.376509 45
-1.03972 1.25063 0.139231 56
-1.49879 1.27107 0.236699 49
-1.04323 1.2553 0.0278802 55
-1.50121 1.27488 0.101401 45
-1.04335 1.25589 -0.0840164 58
-1.49684 1.27208 -0.0336831 45
-1.04602 1.26044 -0.196539 68
-1.4974 1.27212 -0.168527 44
-1.04065 1.25484 -0.309508 71
-1.49671 1.27023 -0.305775 45
-1.03735 1.25261 -0.426127 59
-1.50063 1.2709 -0.445291 47
-1.03079 1.25403 0.366116 58
-1.49535 1.27367 0.516317 53
-1.03222 1.25533 0.251304 53
-1.49641 1.279 0.375556 47
-1.03316 1.25605 0.139231 55
-1.48457 1.27246 0.235482 50
-1.03189 1.25495 0.0277493 55
-1.48692 1.27624 0.100878 44
-1.03201 1.25555 -0.0836226 58
-1.48446 1.27503 -0.0335523 45
-1.03626 1.26207 -0.195931 67
-1.48504 1.27509 -0.167875 44
-1.0294 1.25458 -0.308079 65
-1.48816 1.27644 -0.305383 49
-1.03078 1.25803 -0.426127 59
-1.48654 1.27242 -0.443045 45
-1.02265 1.2481 0.36387 56
-1.48577 1.27002 0.513733 52
-1.03002 1.25713 0.251304 53
-1.48671 1.27523 0.37365 47
-1.02466 1.25015 0.13836 56
-1.47669 1.27021 0.234569 50
-1.02811 1.25481 0.0277057 55
-1.479 1.27396 0.100485 45
-1.02824 1.25542 -0.0834913 58
-1.47464 1.27111 -0.0333777 47
-1.02621 1.25426 -0.19441 73
-1.47525 1.27119 -0.167005 44
-1.02565 1.25447 -0.307603 68
-1.4803 1.27422 -0.304209 49
-1.02401 1.25421 -0.424187 59
-1.4732 1.26552 -0.439676 47
-1.01282 1.24983 0.362747 56
-1.47361 1.27306 0.511794 52
-1.01877 1.25675 0.250134 53
-1.47444 1.27819 0.37222 45
-1.01653 1.25356 0.138142 55
-1.46439 1.27305 0.233657 52
-1.01838 1.25629 0.0276184 56
-1.46665 1.27678 0.100093 45
-1.01829 1.25708 -0.0832287 58
-1.46419 1.27554 -0.0332905 47
-1.01495 1.25383 -0.193497 73
-1.46458 1.2759 -0.16657 44
-1.01445 1.25409 -0.306175 62
-1.46241 1.27226 -0.30186 50
-1.01591 1.25767 -0.42354 59
-1.45918 1.26685 -0.43743 45
-1.00911 1.2497 0.362185 58
-1.46224 1.26774 0.508563 52
-1.01192 1.25276 0.248963 53
-1.4627 1.27299 0.369837 47
-1.00965 1.24951 0.137488 55
-1.45654 1.27073 0.232744 50
-1.01283 1.25435 0.0275312 55
-1.45688 1.27279 0.0995691 45
-1.01453 1.25691 -0.0830975 58
-1.45819 1.27481 -0.0332032 47
-1.0112 1.25367 -0.193193 70
-1.45484 1.27191 -0.1657 44
-1.01379 1.25777 -0.306651 64
-1.45459 1.26995 -0.300685 49
-1.00744 1.25209 -0.420954 59
-1.44961 1.26301 -0.435184 45
-0.997777 1.24942 0.360501 58
-1.45354 1.27405 0.507917 52
-1.00205 1.25436 0.248183 55
-1.45232 1.2774 0.368884 47
-0.99977 1.25107 0.137052 56
-1.44405 1.27368 0.231831 50
-1.00313 1.25573 0.0274439 56
-1.44997 1.28065 0.0995691 47
-1.00327 1.25635 -0.0827036 58
-1.44752 1.27938 -0.0331159 45
-1.00286 1.25718 -0.192888 71
-1.44068 1.27293 -0.164831 44
-0.999333 1.25364 -0.30427 65
-1.44236 1.27266 -0.299511 50
-0.999372 1.25546 -0.420307 59
-1.43725 1.26602 -0.433499 47
-0.994297 1.24908 0.359939 58
-1.44222 1.26863 0.504686 52
-1.00008 1.25593 0.248183 55
-1.44272 1.27345 0.366977 47
-0.996035 1.25086 0.136835 56
-1.43832 1.27267 0.231223 49
-0.999385 1.25552 0.0274003 55
-1.43672 1.27302 0.0987841 44
-0.996414 1.25223 -0.0823098 59
-1.43404 1.27198 -0.0328542 47
-0.996254 1.25292 -0.191976 74
-1.43472 1.27215 -0.164396 44
-0.995619 1.25346 -0.303794 64
-1.43643 1.27191 -0.298728 50
-0.99568 1.25531 -0.41966 59
-1.4316 1.26506 -0.432376 47
-0.986238 1.25235 0.359377 58
-1.43217 1.27271 0.503393 53
-0.988911 1.25532 0.247012 55
-1.42891 1.27422 0.365071 47
-0.985072 1.25001 0.136181 56
-1.42052 1.27028 0.229397 50
-0.988382 1.25467 0.0272694 56
-1.42445 1.27554 0.0983916 47
-0.991386 1.2594 -0.0824411 58
-1.42012 1.27257 -0.0326796 45
-0.986615 1.25422 -0.191367 73
-1.42246 1.27467 -0.163743 44
-0.987747 1.25655 -0.303318 65
-1.41868 1.26957 -0.296378 50
-0.989314 1.26033 -0.41966 59
-1.4195 1.26768 -0.430691 47
-0.981046 1.25024 0.358254 58
-1.42452 1.2704 0.501455 53
-0.983672 1.25316 0.246231 55
-1.41913 1.27043 0.363165 49
-0.982889 1.25173 0.136181 56
-1.41459 1.26945 0.228789 52
-0.982889 1.25263 0.0271821 56
-1.42036 1.27636 0.0982608 47
-0.98457 1.25523 -0.0820473 59
-1.41231 1.27005 -0.0325487 45
-0.982895 1.25398 -0.191063 73
-1.41281 1.27051 -0.162874 45
-0.982529 1.25441 -0.302365 65
-1.41278 1.26875 -0.295595 52
-0.982435 1.25652 -0.41772 59
-1.41001 1.26367 -0.428445 47
-0.974268 1.25553 0.358254 56
-1.41224 1.27325 0.499516 55
-0.973853 1.25456 0.245451 56
-1.40881 1.27456 0.362212 49
-0.974576 1.25506 0.135963 56
-1.39849 1.26878 0.227267 52
-0.970192 1.24986 0.0270076 56
-1.40417 1.27566 0.0976066 47
-0.973397 1.25444 -0.0816534 58
-1.40356 1.27599 -0.0325051 45
-0.970022 1.25143 -0.189846 74
-1.40059 1.27288 -0.162221 45
-0.975727 1.2597 -0.302365 67
-1.39674 1.2681 -0.293638 50
-0.965512 1.24826 -0.413194 59
-1.39591 1.26476 -0.426199 49
-0.964851 1.24742 0.355447 59
-1.40463 1.27087 0.497578 53
-0.971662 1.25626 0.245451 56
-1.40112 1.27208 0.360782 49
-0.967817 1.25085 0.135309 56
-1.38892 1.26455 0.226051 52
-0.966482 1.24957 0.026964 58
-1.39454 1.2714 0.0970832 44
-0.972732 1.25812 -0.0817847 59
-1.39023 1.26836 -0.0322433 45
-0.964807 1.24919 -0.189237 74
-1.3873 1.26528 -0.160916 45
-0.969034 1.25557 -0.300937 67
-1.39269 1.26888 -0.293246 50
-0.964804 1.25186 -0.413841 59
-1.38648 1.26065 -0.423953 49
-0.956609 1.25068 0.354885 59
-1.38902 1.27008 0.494347 53
-0.960574 1.25544 0.24428 56
-1.39082 1.27609 0.359829 49
-0.959742 1.25392 0.135091 56
-1.38228 1.27181 0.226051 52
-0.956892 1.25064 0.0268767 56
-1.37499 1.26687 0.0961673 41
-0.961586 1.25724 -0.0813909 58
-1.38172 1.27393 -0.0321997 45
-0.956748 1.25225 -0.188933 74
-1.37699 1.26916 -0.160482 44
-0.959471 1.25672 -0.299984 68
-1.38261 1.27257 -0.292463 52
-0.950924 1.24728 -0.410608 58
-1.37446 1.26297 -0.422269 49
-0.953168 1.25024 0.354324 58
-1.38323 1.26925 0.493054 53
-0.954114 1.25105 0.24311 56
-1.37954 1.27023 0.357446 49
-0.953027 1.24965 0.134438 56
-1.37114 1.26558 0.224529 50
-0.957735 1.25629 0.026964 58
-1.37116 1.26734 0.0960365 47
-0.956367 1.25494 -0.0811283 59
-1.37398 1.27126 -0.0320688 45
-0.950275 1.24783 -0.18802 73
-1.36927 1.2665 -0.159829 45
-0.954308 1.25449 -0.299032 67
-1.37129 1.26663 -0.290506 50
-0.948746 1.24894 -0.410608 59
-1.36709 1.26018 -0.420584 50
-0.943679 1.25132 0.353201 59
-1.37147 1.27132 0.491116 53
-0.941609 1.24814 0.241549 58
-1.36769 1.2722 0.356016 49
-0.94669 1.25445 0.134438 58
-1.3554 1.26431 0.223008 53
-0.940839 1.24714 0.0266585 58
-1.35901 1.2694 0.095644 47
-0.949784 1.25993 -0.0811283 59
-1.36021 1.27139 -0.0318943 45
-0.94522 1.25477 -0.188325 77
-1.35898 1.27026 -0.159394 47
-0.944998 1.25538 -0.29808 70
-1.35741 1.26707 -0.28894 50
-0.935166 1.24407 -0.407374 58
-1.3569 1.26401 -0.419461 50
-0.93857 1.24907 0.352078 59
-1.36393 1.26879 0.489177 53
-0.937947 1.24781 0.241159 58
-1.36165 1.27148 0.355063 49
-0.940014 1.25013 0.133784 56
-1.35319 1.26667 0.223008 52
-0.941442 1.25294 0.0267458 56
-1.35315 1.26837 0.0953823 47
-0.94309 1.2556 -0.0807345 59
-1.34885 1.26524 -0.0316761 49
-0.935589 1.24649 -0.186804 74
-1.34583 1.26244 -0.15809 47
-0.941335 1.25506 -0.297604 62
-1.35339 1.26776 -0.288548 52
-0.93133 1.24393 -0.406728 58
-1.34577 1.25808 -0.416653 50
-0.928896 1.25022 0.350955 58
-1.35175 1.2712 0.487238 53
-0.92824 1.2489 0.240378 58
-1.3496 1.27355 0.353633 49
-0.933236 1.2552 0.133784 56
-1.33909 1.26717 0.221791 53
-0.93189 1.25384 0.0266585 58
-1.34263 1.27225 0.0951206 49
-0.930555 1.2525 -0.0802094 61
-1.33835 1.26909 -0.0315889 49
-0.928831 1.25153 -0.186804 77
-1.33377 1.26434 -0.157437 47
-0.93161 1.25619 -0.296651 62
-1.34134 1.26975 -0.287374 52
-0.924804 1.24879 -0.406728 58
-1.3354 1.26201 -0.41553 50
-0.924035 1.24776 0.349832 58
-1.34425 1.2686 0.4853 55
-0.924809 1.24837 0.239988 58
-1.33845 1.26749 0.35125 49
-0.926602 1.25082 0.13313 56
-1.33169 1.26416 0.220878 53
-0.923757 1.24742 0.026484 58
-1.33337 1.26749 0.0945972 49
-0.929851 1.25613 -0.0803407 59
-1.32705 1.26283 -0.0313707 49
-0.926864 1.25299 -0.186804 77
-1.32613 1.26153 -0.156785 47
-0.927959 1.25584 -0.296175 61
-1.33374 1.267 -0.286199 52
-0.915463 1.24068 -0.403495 59
-1.3281 1.25909 -0.413846 50
-0.916051 1.25061 0.34927 58
-1.3308 1.26874 0.482715 53
-0.918259 1.25319 0.239988 58
-1.32846 1.27087 0.350297 49
-0.917318 1.25147 0.132695 56
-1.31967 1.26598 0.219966 55
-0.918907 1.2541 0.0265277 58
-1.3213 1.26928 0.0942047 49
-0.918842 1.25493 -0.0799469 59
-1.31703 1.26607 -0.0312834 49
-0.9159 1.25181 -0.185891 79
-1.31951 1.26846 -0.156785 47
-0.921591 1.26052 -0.296175 61
-1.31994 1.26715 -0.284633 52
-0.906327 1.24139 -0.402201 58
-1.31619 1.26099 -0.412161 50
-0.910998 1.24827 0.348147 58
-1.32159 1.2644 0.48013 53
-0.911708 1.24881 0.238817 58
-1.32069 1.26833 0.348867 50
-0.910731 1.24703 0.132041 56
-1.31029 1.26141 0.218749 53
-0.910611 1.24778 0.0263531 58
-1.31729 1.26986 0.0940739 50
-0.913711 1.2525 -0.0796843 59
-1.304 1.25798 -0.0310216 47
-0.913714 1.25341 -0.185891 77
-1.3119 1.26559 -0.156132 49
-0.91506 1.25617 -0.294747 64
-1.31416 1.26603 -0.28385 53
-0.90536 1.24508 -0.402848 58
-1.30871 1.25823 -0.410476 50
-0.901384 1.24923 0.347024 58
-1.31124 1.26819 0.478838 53
-0.902051 1.24972 0.238037 58
-1.30874 1.27011 0.347437 50
-0.902515 1.24992 0.131823 58
-1.29809 1.26331 0.217836 55
-0.905526 1.25456 0.0263968 58
-1.29785 1.2648 0.093158 49
-0.904223 1.25321 -0.0794218 59
-1.29538 1.26328 -0.030978 47
-0.904021 1.25431 -0.185282 77
-1.29632 1.26377 -0.155045 47
-0.906818 1.25911 -0.29427 62
-1.30042 1.26602 -0.282284 53
-0.896013 1.24588 -0.401555 58
-1.29488 1.25852 -0.40823 50
-0.899421 1.25064 0.347024 58
-1.30208 1.26376 0.476253 55
-0.898647 1.24912 0.237647 58
-1.30299 1.26898 0.346484 50
-0.895974 1.24542 0.131169 58
-1.29255 1.26189 0.217228 55
-0.898963 1.25005 0.0262659 58
-1.29228 1.26336 0.0928963 47
-0.900579 1.25276 -0.0792905 59
-1.28601 1.25857 -0.0308035 49
-0.900604 1.25371 -0.184978 79
-1.29411 1.26603 -0.155045 49
-0.900332 1.25471 -0.292842 61
-1.2929 1.26313 -0.281109 52
-0.889622 1.24155 -0.399615 58
-1.2894 1.25716 -0.407107 50
-0.88863 1.24938 0.345339 58
-1.29048 1.26528 0.474314 55
-0.887805 1.24777 0.236476 59
-1.29304 1.27213 0.345531 52
-0.891101 1.25197 0.131387 58
-1.27884 1.26169 0.216011 55
-0.888282 1.24847 0.026135 58
-1.2803 1.26486 0.0925038 49
-0.891336 1.25323 -0.0790279 61
-1.27606 1.26155 -0.0307162 49
-0.892592 1.25638 -0.184674 79
-1.28236 1.26733 -0.154393 49
-0.89255 1.25724 -0.292366 62
-1.27922 1.26296 -0.279543 52
-0.884722 1.24801 -0.400262 59
-1.2741 1.25537 -0.4043 50
-0.882445 1.2448 0.343655 59
-1.28654 1.26584 0.473668 56
-0.885626 1.24932 0.236476 59
-1.28382 1.2675 0.343624 50
-0.88316 1.24539 0.130516 58
-1.2731 1.26043 0.215402 53
-0.887546 1.25206 0.0261786 56
-1.27098 1.26008 0.0919804 49
-0.887706 1.25275 -0.0788966 61
-1.27029 1.26027 -0.030629 49
-0.88467 1.24983 -0.183457 77
-1.27128 1.26082 -0.153306 49
-0.89177 1.26081 -0.292842 61
-1.27173 1.25999 -0.278369 53
-0.881151 1.24758 -0.399615 59
-1.26843 1.25418 -0.403177 50
-0.874301 1.24756 0.343093 59
-1.26959 1.26237 0.469791 56
-0.877657 1.25192 0.236086 59
-1.2702 1.26729 0.341718 52
-0.875199 1.24796 0.130298 56
-1.2612 1.26183 0.214489 55
-0.87238 1.2444 0.0259168 59
-1.2626 1.26495 0.0918496 49
-0.879484 1.25548 -0.0787654 61
-1.25837 1.26161 -0.0304981 50
-0.876693 1.25241 -0.183153 76
-1.2662 1.26943 -0.153523 50
-0.878132 1.2554 -0.290461 61
-1.26162 1.26315 -0.277586 53
-0.871844 1.24821 -0.398322 59
-1.26012 1.25908 -0.402615 50
-0.872122 1.24909 0.343093 59
-1.26567 1.26288 0.469145 56
-0.869822 1.24534 0.234525 59
-1.26602 1.268 0.341241 52
-0.868746 1.24336 0.129644 58
-1.25549 1.26052 0.213881 55
-0.871418 1.24812 0.0259605 58
-1.25686 1.26363 0.0915879 49
-0.875865 1.25497 -0.0786341 61
-1.25263 1.26026 -0.0304108 50
-0.871671 1.24987 -0.182544 79
-1.25518 1.26283 -0.152436 52
-0.87594 1.25693 -0.290461 59
-1.25592 1.26186 -0.276803 55
-0.866692 1.24592 -0.397028 59
-1.25447 1.25784 -0.401492 50
-0.859823 1.24576 0.340847 59
-1.252 1.26287 0.46656 56
-0.863071 1.25003 0.234525 59
-1.25418 1.26939 0.339812 52
-0.860592 1.24599 0.129426 58
-1.24516 1.26377 0.213272 55
-0.863453 1.25061 0.0259168 59
-1.24825 1.26863 0.0914571 50
-0.863617 1.25131 -0.078109 64
-1.24052 1.26169 -0.0302799 50
-0.862082 1.25048 -0.181936 79
-1.2468 1.26762 -0.152218 50
-0.866345 1.2576 -0.289509 61
-1.24061 1.25964 -0.274845 55
-0.85879 1.24845 -0.396382 59
-1.24078 1.25769 -0.399246 52
-0.857865 1.24711 0.340847 59
-1.24129 1.25649 0.463329 58
-0.855515 1.24324 0.232964 58
-1.24505 1.2646 0.337905 52
-0.855597 1.24338 0.128991 58
-1.2362 1.25866 0.212055 55
-0.858439 1.24799 0.0258296 58
-1.23749 1.2617 0.0908029 50
-0.860019 1.25076 -0.0779777 64
-1.23656 1.26207 -0.0302363 50
-0.860117 1.25183 -0.181936 80
-1.24459 1.26979 -0.152218 52
-0.862762 1.25709 -0.289033 61
-1.23667 1.26005 -0.274453 56
-0.85252 1.24396 -0.394442 59
-1.23538 1.25617 -0.398123 52
-0.849955 1.24957 0.340286 59
-1.22814 1.25587 0.460744 56
-0.847606 1.24566 0.232574 59
-1.2352 1.26738 0.336952 52
-0.849292 1.2477 0.128991 59
-1.22612 1.26157 0.211447 55
-0.850707 1.25025 0.0257859 59
-1.23087 1.26817 0.0908029 50
-0.853677 1.2551 -0.0779777 62
-1.22492 1.26295 -0.0301054 50
-0.853551 1.25632 -0.181936 77
-1.22771 1.26538 -0.150914 50
-0.853635 1.25737 -0.28808 61
-1.22488 1.26121 -0.273279 56
-0.844859 1.24626 -0.393795 59
-1.22538 1.25914 -0.397 52
-0.846626 1.24889 0.339724 59
-1.22256 1.25456 0.459451 55
-0.845431 1.24714 0.232574 58
-1.22784 1.26426 0.335522 52
-0.842926 1.24299 0.128337 58
-1.22045 1.26015 0.210838 55
-0.847124 1.24966 0.0257423 59
-1.21821 1.25957 0.0900178 50
-0.850087 1.25452 -0.0778464 64
-1.21575 1.25791 -0.0299309 50
-0.84719 1.25163 -0.181023 80
-1.22376 1.26573 -0.150696 52
-0.84732 1.25276 -0.286652 61
-1.21752 1.25804 -0.272104 56
-0.842683 1.24774 -0.393795 59
-1.21638 1.2543 -0.394754 50
-0.835795 1.24737 0.338039 59
-1.21262 1.25748 0.458159 55
-0.83477 1.24539 0.231403 59
-1.21609 1.26538 0.334092 52
-0.836406 1.24739 0.128337 59
-1.20695 1.25938 0.209622 56
-0.836399 1.24785 0.0256114 59
-1.20987 1.26414 0.089887 50
-0.839125 1.25287 -0.0774526 61
-1.20915 1.26426 -0.0299309 52
-0.833733 1.24574 -0.179502 79
-1.20999 1.26516 -0.149826 50
-0.839387 1.25514 -0.286176 65
-1.2092 1.26262 -0.271713 55
-0.832121 1.2461 -0.391855 59
-1.20472 1.2554 -0.393069 50
-0.836317 1.25289 0.339162 59
-1.20371 1.25264 0.455574 55
-0.831226 1.24479 0.231013 58
-1.21025 1.26418 0.333139 52
-0.831465 1.2447 0.127901 59
-1.19788 1.25432 0.208405 56
-0.834002 1.24945 0.0256114 58
-1.20247 1.26084 0.0894945 50
-0.836937 1.25433 -0.0774526 67
-1.20002 1.25915 -0.0297564 52
-0.830183 1.24512 -0.179198 83
-1.20261 1.26187 -0.149174 50
-0.833118 1.25047 -0.284747 61
-1.20016 1.2576 -0.270147 55
-0.832397 1.25172 -0.393149 59
-1.1907 1.2452 -0.389138 47
-0.826847 1.25332 0.338039 58
-1.19357 1.25565 0.454282 56
-0.82312 1.24721 0.230623 59
-1.20023 1.26694 0.332186 53
-0.820607 1.24294 0.127247 59
-1.18936 1.25899 0.2081 55
-0.823324 1.24754 0.0254805 59
-1.1922 1.2637 0.0892328 50
-0.823494 1.24827 -0.0767962 71
-1.18803 1.26018 -0.0296255 52
-0.822071 1.24752 -0.178893 80
-1.19085 1.26273 -0.148522 50
-0.819601 1.2447 -0.282366 61
-1.19163 1.26228 -0.269755 55
-0.821858 1.25001 -0.391209 59
-1.17723 1.24457 -0.386892 42
-0.816859 1.2424 0.33467 59
-1.18971 1.25598 0.453636 56
-0.815524 1.24039 0.229062 59
-1.19126 1.26192 0.33028 52
-0.815703 1.24021 0.126812 59
-1.18205 1.25565 0.207188 55
-0.818403 1.2448 0.0253932 59
-1.18313 1.25853 0.0887094 52
-0.819944 1.24762 -0.076665 67
-1.18411 1.26044 -0.0295818 52
-0.818533 1.24688 -0.178589 80
-1.18864 1.26481 -0.148522 50
-0.818772 1.24819 -0.282842 61
-1.18094 1.25539 -0.267798 56
-0.815711 1.24537 -0.389269 59
-1.16836 1.23955 -0.384646 41
-0.807474 1.24271 0.333547 61
-1.1765 1.25516 0.451051 56
-0.809018 1.24464 0.229062 59
-1.18128 1.26456 0.329327 52
-0.809198 1.24446 0.126812 59
-1.17037 1.25639 0.206275 55
-0.807793 1.24277 0.0252624 61
-1.17311 1.26106 0.0884478 52
-0.809326 1.24561 -0.0762711 70
-1.17238 1.26114 -0.0294509 53
-0.810644 1.24907 -0.178285 80
-1.1735 1.26192 -0.147434 52
-0.810892 1.2504 -0.282366 61
-1.1712 1.25775 -0.267015 55
-0.805247 1.24354 -0.387329 61
-1.16185 1.24565 -0.384646 39
-0.801555 1.23784 0.331863 61
-1.1743 1.25721 0.451051 56
-0.805721 1.24383 0.228671 61
-1.17236 1.25945 0.32742 53
-0.805673 1.24378 0.126594 59
-1.16839 1.25823 0.206275 55
-0.808336 1.24838 0.0253496 59
-1.16262 1.25377 0.0877936 50
-0.804442 1.24283 -0.0760086 68
-1.16506 1.2577 -0.02932 53
-0.807335 1.24825 -0.177981 82
-1.1696 1.26214 -0.147217 52
-0.808708 1.25181 -0.282366 59
-1.17069 1.2616 -0.267406 55
-0.806997 1.25104 -0.389269 61
-1.15656 1.24391 -0.383523 39
-0.793751 1.23997 0.331301 59
-1.16135 1.25607 0.448466 56
-0.797868 1.24596 0.228281 61
-1.16263 1.26177 0.326467 53
-0.795343 1.24155 0.12594 59
-1.15674 1.25886 0.205362 56
-0.797969 1.24614 0.0252187 61
-1.15434 1.258 0.0876627 50
-0.799267 1.24913 -0.0761399 70
-1.15699 1.26174 -0.0292764 55
-0.796784 1.24619 -0.177068 82
-1.15791 1.26276 -0.146564 52
-0.797084 1.24761 -0.280462 62
-1.15569 1.25864 -0.265449 56
-0.792873 1.24288 -0.385389 59
-1.14673 1.24638 -0.3824 39
-0.78897 1.23724 0.330178 61
-1.15259 1.25101 0.445881 58
-0.79304 1.24318 0.227501 59
-1.15522 1.25859 0.325037 53
-0.793175 1.24294 0.12594 59
-1.14613 1.25175 0.203841 58
-0.792891 1.24345 0.0251315 61
-1.14877 1.25634 0.087401 50
-0.793065 1.2442 -0.075746 68
-1.14633 1.25456 -0.0290583 52
-0.794608 1.24758 -0.177068 83
-1.15402 1.26294 -0.146347 52
-0.790958 1.24278 -0.279033 62
-1.15349 1.26065 -0.265449 56
-0.790486 1.2444 -0.385389 59
-1.13629 1.23942 -0.379592 42
-0.780968 1.23943 0.329617 59
-1.14254 1.25366 0.444589 56
-0.783673 1.24327 0.22672 61
-1.14695 1.26281 0.324561 53
-0.785112 1.2451 0.125722 59
-1.13767 1.2561 0.203537 58
-0.78637 1.24758 0.0251315 61
-1.13859 1.25885 0.0871394 50
-0.787869 1.25045 -0.0758773 68
-1.13952 1.26074 -0.0290583 56
-0.783887 1.24555 -0.176155 79
-1.13901 1.25975 -0.14526 53
-0.782918 1.24497 -0.278557 61
-1.14023 1.25937 -0.263883 56
-0.777548 1.23829 -0.382156 59
-1.12793 1.24375 -0.379031 49
-0.776433 1.23653 0.328493 61
-1.13872 1.25387 0.443943 56
-0.779096 1.24032 0.22594 61
-1.13484 1.25392 0.321701 53
-0.77897 1.24014 0.125068 59
-1.13236 1.25421 0.202928 58
-0.781537 1.24472 0.0250442 62
-1.13158 1.25508 0.0867468 50
-0.779059 1.24125 -0.0752209 70
-1.13229 1.25717 -0.0289274 56
-0.780613 1.24468 -0.175851 80
-1.13681 1.26174 -0.14526 53
-0.778142 1.24217 -0.277605 61
-1.13471 1.2577 -0.263099 56
-0.777943 1.24375 -0.383449 61
-1.12269 1.24192 -0.377908 55
-0.768665 1.2385 0.327932 59
-1.1275 1.25425 0.442004 56
-0.773891 1.24648 0.22633 61
-1.12683 1.25782 0.321224 53
-0.771371 1.24195 0.124851 61
-1.12412 1.25828 0.202624 58
-0.771277 1.24228 0.0249133 61
-1.11999 1.25542 0.0863543 52
-0.773864 1.24743 -0.0753522 70
-1.12424 1.26102 -0.0288837 58
-0.771475 1.24453 -0.175242 82
-1.1252 1.26211 -0.144607 55
-0.773136 1.24818 -0.278081 61
-1.12481 1.25995 -0.262316 55
-0.769101 1.24356 -0.382156 61
-1.11618 1.24778 -0.377908 79
-0.767781 1.24192 0.328493 59
-1.12207 1.25262 0.440712 56
-0.766527 1.23942 0.224769 62
-1.12442 1.25998 0.321224 53
-0.766586 1.23906 0.124415 61
-1.11365 1.251 0.201103 58
-0.767578 1.24163 0.0248697 64
-1.11447 1.25365 0.0860926 53
-0.767754 1.2424 -0.0749584 71
-1.11371 1.25366 -0.0286656 55
-0.768 1.24376 -0.174938 85
-1.11802 1.2585 -0.143955 55
-0.767096 1.24326 -0.276652 68
-1.11602 1.25455 -0.26075 56
-0.760391 1.23474 -0.378923 61
-1.114 1.24973 -0.377908 90
-0.75598 1.23773 0.326247 59
-1.11207 1.25507 0.439419 56
-0.75981 1.24355 0.224769 61
-1.11454 1.26219 0.320271 53
-0.758574 1.24106 0.124197 61
-1.10522 1.25515 0.200799 58
-0.759766 1.2435 0.024826 65
-1.10767 1.25966 0.0860926 53
-0.754742 1.23575 -0.074302 73
-1.10195 1.25405 -0.0285347 56
-0.758678 1.24366 -0.17433 83
-1.10811 1.26061 -0.14352 55
-0.756532 1.2411 -0.275224 64
-1.1078 1.25853 -0.260359 58
-0.753915 1.23871 -0.378923 61
-1.10399 1.25209 -0.376785 59
-0.751505 1.23475 0.325124 61
-1.10827 1.2552 0.438773 55
-0.75401 1.23841 0.223598 64
-1.10909 1.26045 0.319318 53
-0.755113 1.24025 0.123979 61
-1.09503 1.24758 0.199277 58
-0.754999 1.24055 0.0247388 68
-1.10074 1.25578 0.0857001 53
-0.75388 1.2392 -0.0744333 73
-1.09975 1.25597 -0.0285347 56
-0.75415 1.24061 -0.173721 82
-1.10426 1.26067 -0.143303 55
-0.755636 1.24451 -0.2757 64
-1.09907 1.25306 -0.258793 58
-0.751752 1.24002 -0.378923 61
-1.09879 1.25017 -0.375662 55
-0.742523 1.23449 0.324001 61
-1.09871 1.25717 0.437481 56
-0.746244 1.24023 0.223208 62
-1.09622 1.25867 0.317412 53
-0.746262 1.23979 0.123543 62
-1.08359 1.24769 0.198365 58
-0.748711 1.24436 0.0247388 65
-1.09087 1.25776 0.0854384 53
-0.746097 1.24099 -0.074302 71
-1.09174 1.25964 -0.0284911 58
-0.746368 1.24241 -0.173417 86
-1.09437 1.26268 -0.142868 55
-0.746805 1.24411 -0.274748 65
-1.09087 1.25693 -0.258401 59
-0.744227 1.24174 -0.378276 61
-1.08581 1.24857 -0.373416 53
-0.740367 1.23579 0.324001 59
-1.09174 1.25364 0.435542 55
-0.745346 1.24365 0.223598 64
-1.09219 1.25892 0.316935 52
-0.742818 1.23895 0.123325 62
-1.07978 1.24771 0.19806 58
-0.74632 1.24579 0.0247388 65
-1.08048 1.25024 0.0847842 53
-0.742649 1.24014 -0.0741707 73
-1.08462 1.25588 -0.0283602 58
-0.744199 1.24371 -0.173417 85
-1.084 1.25519 -0.14178 55
-0.743375 1.24331 -0.274271 65
-1.08381 1.25325 -0.257227 61
-0.739371 1.23902 -0.376983 59
-1.08203 1.24863 -0.372854 53
-0.732431 1.23768 0.32344 59
-1.08178 1.25587 0.43425 55
-0.732326 1.23703 0.221647 64
-1.08077 1.25905 0.315505 53
-0.734837 1.24081 0.123107 61
-1.06977 1.24977 0.197452 59
-0.734702 1.24107 0.0245643 65
-1.07207 1.25418 0.0846534 53
-0.734876 1.24187 -0.0740395 74
-1.06967 1.25225 -0.028142 58
-0.734938 1.24344 -0.172808 83
-1.07579 1.25896 -0.141563 55
-0.734146 1.24308 -0.273319 67
-1.07701 1.25909 -0.257227 59
-0.730424 1.23871 -0.37569 61
-1.0689 1.24709 -0.370608 55
-0.730486 1.23883 0.32344 59
-1.0717 1.24862 0.431019 53
-0.730166 1.23831 0.221647 62
-1.07377 1.25535 0.314076 53
-0.731407 1.23994 0.12289 61
-1.06436 1.24787 0.196843 58
-0.733802 1.24451 0.0246079 65
-1.06663 1.25226 0.0843917 55
-0.730177 1.23884 -0.0737769 76
-1.06911 1.25602 -0.0281856 58
-0.731509 1.24259 -0.172504 85
-1.07035 1.25705 -0.141128 56
-0.730733 1.24224 -0.272843 65
-1.06999 1.25535 -0.256052 59
-0.729482 1.24206 -0.376336 59
-1.06513 1.2471 -0.370046 55
-0.721541 1.23842 0.322317 58
-1.06536 1.25403 0.431019 53
-0.723889 1.24199 0.221647 62
-1.06581 1.2589 0.313599 53
-0.722617 1.23932 0.122454 61
-1.05161 1.24567 0.195626 59
-0.723724 1.24173 0.024477 67
-1.05705 1.25383 0.08413 53
-0.723897 1.24252 -0.0737769 73
-1.0595 1.2576 -0.0280984 59
-0.725211 1.24627 -0.172504 85
-1.05915 1.25675 -0.140476 56
-0.724436 1.24593 -0.272843 67
-1.05724 1.25322 -0.254486 59
-0.719555 1.23947 -0.374397 59
-1.05565 1.24877 -0.368923 55
-0.717153 1.23534 0.321194 59
-1.06004 1.25221 0.429726 55
-0.719245 1.23897 0.220867 62
-1.06361 1.26076 0.313599 53
-0.719204 1.23843 0.122236 62
-1.04783 1.24561 0.195322 59
-0.720303 1.24082 0.0244334 67
-1.05003 1.24995 0.0837375 53
-0.720476 1.24162 -0.0736456 77
-1.05569 1.25753 -0.0280547 59
-0.718066 1.23894 -0.171287 88
-1.05534 1.25669 -0.140258 56
-0.719804 1.24294 -0.271891 67
-1.05345 1.25317 -0.254095 59
-0.716184 1.23863 -0.37375 59
-1.04874 1.24503 -0.367239 55
-0.709249 1.23708 0.320632 59
-1.05191 1.2559 0.42908 53
-0.711522 1.24058 0.220477 65
-1.05226 1.26067 0.312169 53
-0.708998 1.23569 0.121582 65
-1.0381 1.24728 0.194714 61
-0.713796 1.24458 0.0244334 65
-1.04027 1.2516 0.0834758 52
-0.712509 1.24334 -0.0735143 77
-1.04268 1.25537 -0.0278802 59
-0.7128 1.24484 -0.171592 85
-1.04374 1.25665 -0.139606 55
-0.710853 1.24243 -0.270938 64
-1.04212 1.25299 -0.25292 59
-0.709688 1.24237 -0.37375 59
-1.03908 1.24677 -0.366116 55
-0.705883 1.2362 0.320071 59
-1.04351 1.25033 0.426495 53
-0.709355 1.24182 0.220477 64
-1.04512 1.25704 0.310739 55
-0.70684 1.23693 0.121582 61
-1.03275 1.24528 0.194105 59
-0.708931 1.2416 0.0243461 67
-1.03648 1.2515 0.083345 53
-0.711573 1.24675 -0.0736456 71
-1.03889 1.25527 -0.0278366 61
-0.702036 1.23099 -0.169462 86
-1.03995 1.25656 -0.139388 55
-0.709896 1.2458 -0.271415 67
-1.03519 1.24912 -0.251746 59
-0.703727 1.23743 -0.37181 59
-1.03378 1.24484 -0.364993 56
-0.694407 1.23151 0.317824 61
-1.03981 1.25968 0.427787 53
-0.697782 1.23703 0.218916 67
-1.04009 1.26439 0.311216 53
-0.696472 1.23422 0.120929 56
-1.02441 1.24893 0.193801 61
-0.699968 1.24094 0.0242588 70
-1.02652 1.25324 0.0830833 53
-0.701363 1.24393 -0.0732518 74
-1.0305 1.25894 -0.027793 61
-0.695365 1.23477 -0.169462 86
-1.03019 1.25814 -0.138954 55
-0.697139 1.23892 -0.269034 67
-1.03021 1.25643 -0.252137 59
-0.693696 1.23477 -0.36987 59
-1.02858 1.2523 -0.365554 56
-0.694853 1.23685 0.318947 59
-1.03146 1.25405 0.425203 55
-0.697046 1.24028 0.219306 64
-1.03319 1.26052 0.309786 53
-0.693098 1.23326 0.120711 59
-1.0193 1.24671 0.193193 61
-0.695357 1.2378 0.0241716 65
-1.02297 1.25292 0.0829525 53
-0.700411 1.24733 -0.0733831 76
-1.02354 1.25494 -0.0276621 59
-0.692213 1.23369 -0.169158 86
-1.02167 1.25224 -0.138084 56
-0.698568 1.24656 -0.270462 67
-1.02174 1.25059 -0.250571 59
-0.69154 1.23598 -0.36987 59
-1.02041 1.24639 -0.363308 55
-0.683648 1.23195 0.316701 59
-1.02509 1.25925 0.425203 55
-0.68456 1.23311 0.217355 65
-1.0268 1.26574 0.309786 53
-0.68564 1.23458 0.120493 64
-1.01276 1.25203 0.193193 59
-0.687872 1.23912 0.0241279 67
-1.01482 1.25632 0.0828216 53
-0.689035 1.24224 -0.072858 73
-1.0156 1.25817 -0.0276184 59
-0.683342 1.23296 -0.168549 88
-1.01667 1.2595 -0.138301 56
-0.685129 1.2372 -0.267605 68
-1.01674 1.25784 -0.250962 59
-0.681776 1.23312 -0.36793 58
-1.01387 1.25172 -0.363308 56
-0.683849 1.23741 0.317824 59
-1.01068 1.24607 0.420033 56
-0.683599 1.23647 0.217745 70
-1.01663 1.25818 0.307403 55
-0.685891 1.24013 0.120929 61
-1.00432 1.24608 0.191976 61
-0.684285 1.23825 0.0240843 67
-1.00634 1.25033 0.0822983 55
-0.684456 1.23907 -0.0725954 74
-1.0134 1.25994 -0.0276184 61
-0.681189 1.23415 -0.168549 88
-1.00977 1.25547 -0.137649 55
-0.681785 1.23624 -0.267129 67
-1.00832 1.25194 -0.249396 61
-0.678245 1.23231 -0.367284 58
-1.00555 1.24592 -0.361062 56
-0.674815 1.23681 0.316701 59
-1.00392 1.25152 0.420033 55
-0.676899 1.24015 0.217745 67
-1.00695 1.25967 0.30645 55
-0.675597 1.23727 0.120275 62
-0.996009 1.24956 0.191671 59
-0.676597 1.23962 0.0240407 68
-0.996438 1.25186 0.0820366 55
-0.674378 1.23606 -0.0722016 79
-0.9972 1.25369 -0.0273566 58
-0.672132 1.23345 -0.167941 89
-0.998514 1.2549 -0.136996 56
-0.67743 1.24422 -0.268081 68
-0.998664 1.25335 -0.248613 61
-0.669481 1.2316 -0.36599 59
-0.995739 1.24754 -0.359939 56
-0.670549 1.23358 0.315578 61
-0.997196 1.24762 0.418094 55
-0.673773 1.23904 0.217355 64
-1.00168 1.25759 0.305497 55
-0.669874 1.23188 0.119621 64
-0.992495 1.24919 0.191367 59
-0.67324 1.2386 0.0239971 68
-0.991356 1.24952 0.0817749 55
-0.676979 1.24601 -0.0727267 71
-0.99501 1.25543 -0.0273566 61
-0.666648 1.22796 -0.167028 89
-0.993216 1.25275 -0.136562 56
-0.674089 1.24324 -0.267605 67
-0.991851 1.2493 -0.247439 61
-0.67192 1.24127 -0.368577 62
-0.990733 1.2453 -0.358816 56
-0.664081 1.23708 0.315578 59
-0.989364 1.25077 0.417448 55
-0.664944 1.2382 0.216574 65
-0.990727 1.25688 0.304067 53
-0.66363 1.23525 0.119621 62
-0.982862 1.25048 0.190759 61
-0.664602 1.23758 0.0239098 70
-0.981705 1.25077 0.0815132 53
-0.665949 1.24062 -0.0722016 74
-0.982449 1.2526 -0.0271821 58
-0.659039 1.22925 -0.166724 89
-0.985319 1.25581 -0.136344 56
-0.666631 1.24448 -0.267129 68
-0.977641 1.24479 -0.245481 59
-0.659946 1.234 -0.365344 59
-0.979661 1.24474 -0.357131 56
-0.66099 1.23597 0.315017 59
-0.982678 1.24681 0.41551 55
-0.661619 1.23718 0.216184 67
-0.98701 1.25668 0.30359 55
-0.661473 1.23641 0.119621 64
-0.976071 1.24634 0.189846 61
-0.662441 1.23874 0.0239098 71
-0.977977 1.25052 0.0813824 53
-0.664958 1.24398 -0.0723329 73
-0.977171 1.25038 -0.0270949 59
-0.656893 1.2304 -0.166724 86
-0.978506 1.25165 -0.135692 55
-0.656388 1.23047 -0.263796 65
-0.975467 1.2465 -0.245481 59
-0.660057 1.23941 -0.366637 59
-0.97296 1.24071 -0.355447 56
-0.653158 1.23737 0.314455 59
-0.970173 1.24434 0.412925 56
-0.652831 1.23625 0.215404 67
-0.977394 1.25796 0.302637 53
-0.656152 1.24206 0.119839 61
-0.96648 1.24752 0.189237 61
-0.652451 1.23556 0.0237789 73
-0.966815 1.24972 0.0809899 53
-0.655892 1.24314 -0.0720703 76
-0.967541 1.25154 -0.0270076 59
-0.649286 1.23162 -0.166419 86
-0.97172 1.25693 -0.135692 56
-0.651078 1.23606 -0.264272 62
-0.96741 1.24964 -0.24509 62
-0.650193 1.23644 -0.364697 59
-0.964951 1.24387 -0.354885 56
-0.652129 1.24067 0.315017 58
-0.962049 1.23842 0.41034 58
-0.651819 1.23958 0.215794 65
-0.973469 1.2579 0.302161 55
-0.647039 1.22997 0.118532 59
-0.961257 1.24529 0.188629 61
-0.650077 1.23681 0.0237789 70
-0.964632 1.2514 0.0809899 53
-0.652562 1.24207 -0.071939 76
-0.963824 1.25125 -0.026964 59
-0.643682 1.22616 -0.165507 88
-0.964948 1.25272 -0.135039 56
-0.647781 1.23502 -0.263796 64
-0.962199 1.24743 -0.244307 61
-0.645582 1.2334 -0.363404 61
-0.961283 1.24363 -0.354324 56
-0.640928 1.23552 0.312771 59
-0.958289 1.24743 0.411632 56
-0.641697 1.23651 0.214623 70
-0.960878 1.2552 0.300254 55
-0.639229 1.23124 0.118314 61
-0.951482 1.24653 0.18802 61
-0.641294 1.23576 0.0236916 74
-0.94873 1.24472 0.0802048 53
-0.644902 1.24326 -0.0718078 77
-0.952478 1.25049 -0.0268331 59
-0.638178 1.23183 -0.165811 88
-0.953829 1.25182 -0.134387 55
-0.64109 1.23851 -0.263796 65
-0.951143 1.24657 -0.243132 61
-0.639115 1.23677 -0.363404 59
-0.951569 1.24495 -0.353201 56
-0.638987 1.23653 0.312771 58
-0.951689 1.24336 0.409694 56
-0.638622 1.23532 0.214233 70
-0.957192 1.25493 0.299778 55
-0.639363 1.23678 0.11875 62
-0.948014 1.24606 0.187716 61
-0.635701 1.23021 0.0235607 73
-0.945258 1.24422 0.080074 53
-0.640445 1.23994 -0.0715452 76
-0.950294 1.25215 -0.0268331 61
-0.635106 1.23062 -0.165507 88
-0.948619 1.24953 -0.133952 55
-0.638927 1.23963 -0.263796 62
-0.948966 1.24823 -0.243132 61
-0.63475 1.23358 -0.362111 59
-0.946648 1.24258 -0.352078 56
-0.632503 1.23986 0.312771 59
-0.943919 1.24624 0.409048 56
-0.633266 1.24085 0.214623 68
-0.949343 1.25781 0.299301 55
-0.628573 1.23112 0.117878 59
-0.936982 1.24507 0.186804 61
-0.6306 1.23564 0.0236044 73
-0.937224 1.24716 0.0799432 53
-0.635075 1.2455 -0.0716765 76
-0.937916 1.24897 -0.0266585 61
-0.62753 1.23172 -0.165202 88
-0.93906 1.2505 -0.133517 56
-0.630423 1.23847 -0.262844 62
-0.937947 1.24728 -0.241958 62
-0.631774 1.24324 -0.36405 59
-0.937185 1.24364 -0.350955 58
-0.628136 1.23661 0.311648 59
-0.93736 1.24212 0.407109 56
-0.628866 1.23754 0.213843 68
-0.943965 1.25571 0.298348 55
-0.625297 1.23 0.11766 61
-0.930324 1.24076 0.185891 62
-0.628227 1.23685 0.0236044 73
-0.932041 1.24481 0.0796815 53
-0.629517 1.23993 -0.0712827 82
-0.934231 1.24861 -0.0266149 58
-0.625379 1.23281 -0.165202 86
-0.93388 1.24816 -0.133082 56
-0.62826 1.23957 -0.262844 64
-0.934282 1.24694 -0.241566 62
-0.62286 1.23152 -0.360171 59
-0.932075 1.24138 -0.349832 58
-0.619258 1.23564 0.310525 59
