# .PCD v0.7 - Point Cloud Data file format
VERSION 0.7
FIELDS x y z intensity
SIZE 4 4 4 4
TYPE F F F F
COUNT 1 1 1 1
WIDTH 1591
HEIGHT 1
VIEWPOINT 0 0 0 1 0 0 0
POINTS 1591
DATA ascii
-1.17465 -2.229 0.0433692 52
-0.726314 -2.26011 0.122597 47
-1.17867 -2.23473 -0.131013 49
-0.727205 -2.26019 -0.0408386 49
-1.17702 -2.22974 -0.304849 50
-0.728415 -2.26394 -0.204625 64
-1.17768 -2.22912 -0.482356 49
-0.723004 -2.25233 -0.369592 52
-1.18206 -2.23366 -0.667318 56
-0.719356 -2.24889 -0.536259 49
-2.95906 -5.58464 1.44874 11
-1.73513 -5.46024 1.52375 1
-3.00287 -5.66964 1.00834 33
-1.80863 -5.65468 1.14621 18
-1.18089 -2.23234 0.217889 4
-1.81885 -5.66294 0.725005 27
-1.18127 -2.23116 0.0434565 52
-0.730257 -2.25884 0.122597 47
-1.18607 -2.23928 -0.131407 50
-0.731914 -2.2613 -0.0408823 50
-1.18324 -2.23207 -0.305457 49
-0.730841 -2.25792 -0.20419 53
-1.18502 -2.23356 -0.483784 49
-0.729196 -2.25812 -0.370767 55
-1.18862 -2.23565 -0.668611 55
-0.724022 -2.24995 -0.53682 49
-3.04687 -5.67585 1.47682 15
-1.83067 -5.65532 1.58126 21
-3.04051 -5.66637 1.01068 15
-1.76924 -5.43272 1.10284 1
-1.19178 -2.22372 0.217671 4
-1.84408 -5.63651 0.722875 24
-1.19412 -2.22715 0.0435001 50
-0.744796 -2.26197 0.122989 49
-1.19778 -2.23304 -0.131407 49
-0.74336 -2.25493 -0.0408386 50
-1.19765 -2.23 -0.306066 49
-0.744203 -2.2588 -0.204625 49
-1.19942 -2.23144 -0.484737 49
-0.740243 -2.25192 -0.370375 52
-1.20145 -2.23153 -0.669258 55
-0.736184 -2.246 -0.53682 56
-3.0315 -5.62603 1.46502 15
-1.8383 -5.64523 1.57932 15
-3.03067 -5.6268 1.00444 15
-1.78176 -5.43896 1.10475 1
-1.20038 -2.23041 0.218543 4
-1.85138 -5.62889 0.722266 23
-1.198 -2.22506 0.0435001 50
-0.747568 -2.25843 0.122859 50
-1.20405 -2.23534 -0.131669 50
-0.748858 -2.25838 -0.0409259 50
-1.20115 -2.22812 -0.306066 47
-0.748922 -2.25986 -0.204842 52
-1.20564 -2.23366 -0.485689 50
-0.743402 -2.24828 -0.369984 53
-1.20879 -2.2358 -0.671198 55
-0.740469 -2.24716 -0.537382 49
-3.06325 -5.61436 1.46615 33
-1.85852 -5.61062 1.57222 15
-3.06245 -5.61519 1.00522 38
-1.8704 -5.61386 1.1424 17
-1.20927 -2.21993 0.218107 4
-1.87769 -5.6097 0.721049 21
-1.21404 -2.22775 0.0436746 50
-0.758591 -2.25211 0.122728 42
-1.21574 -2.22901 -0.131669 47
-0.760279 -2.25456 -0.0409259 52
-1.21875 -2.23269 -0.307587 47
-0.762327 -2.26064 -0.205277 52
-1.21693 -2.22753 -0.485689 49
-0.758294 -2.25373 -0.37155 61
-1.22125 -2.23177 -0.671844 53
-0.752225 -2.24325 -0.537382 49
-3.08125 -5.62395 1.47008 38
-1.86907 -5.60966 1.57286 15
-3.07581 -5.61634 1.00639 39
-1.81736 -5.4194 1.10332 1
-1.87721 -5.57584 0.717094 18
-1.21951 -2.2276 0.0437183 50
-0.764113 -2.25552 0.122989 47
-1.22202 -2.23126 -0.131932 47
-0.765809 -2.25797 -0.0410132 49
-1.22264 -2.23056 -0.307587 49
-0.767067 -2.26166 -0.205495 53
-1.22673 -2.23616 -0.48807 49
-0.762226 -2.2524 -0.37155 50
-1.22903 -2.23577 -0.673784 55
-0.756913 -2.24425 -0.537943 49
-3.10572 -5.59655 1.46727 21
-1.8963 -5.59032 1.57028 15
-3.09776 -5.5845 1.00366 21
-1.84571 -5.40981 1.10332 1
-1.82629 -5.32844 0.686366 1
-1.23359 -2.22556 0.0438055 50
-0.777115 -2.25371 0.12312 47
-1.23611 -2.2292 -0.132195 47
-0.778015 -2.25379 -0.0410132 50
-1.2359 -2.22608 -0.307891 47
-0.77809 -2.25526 -0.205277 49
-1.24 -2.23163 -0.488546 49
-0.774009 -2.24838 -0.37155 52
-1.24425 -2.23563 -0.675724 55
-0.772189 -2.24934 -0.540189 49
-3.12992 -5.61933 1.47457 33
-1.89905 -5.56642 1.56446 14
-3.12215 -5.60767 1.00873 35
-1.90679 -5.55751 1.13429 15
-1.83788 -5.33496 0.687583 1
-1.24234 -2.23213 0.0439801 49
-0.780654 -2.25249 0.12312 47
-1.24243 -2.2314 -0.132457 45
-0.781947 -2.25243 -0.0410132 49
-1.24423 -2.2328 -0.309108 49
-0.783649 -2.25861 -0.205712 52
-1.24629 -2.23375 -0.489498 49
-0.778735 -2.24936 -0.371941 50
-1.24933 -2.23556 -0.676371 55
-0.775722 -2.24812 -0.540189 49
-3.16409 -5.61135 1.47682 33
-1.92641 -5.55446 1.56382 14
-3.1539 -5.59555 1.00951 35
-1.88088 -5.39249 1.10236 1
-1.88134 -5.36977 0.693364 1
-1.25485 -2.228 0.0440237 49
-0.793262 -2.25073 0.123251 47
-1.25617 -2.22943 -0.13272 47
-0.795818 -2.25552 -0.041144 50
-1.25469 -2.2241 -0.308804 49
-0.79507 -2.25461 -0.205712 50
-1.25879 -2.22955 -0.489975 49
-0.791318 -2.24758 -0.372333 50
-1.26301 -2.23341 -0.677664 55
-0.788284 -2.24633 -0.540751 49
-3.1801 -5.61909 1.48019 33
-1.93769 -5.55565 1.56511 14
-3.17218 -5.60508 1.01224 33
-1.95835 -5.58379 1.1424 15
-1.90799 -5.41564 0.699753 1
-1.25996 -2.22798 0.0440673 49
-0.798848 -2.25405 0.123513 47
-1.26375 -2.23375 -0.133113 45
-0.798923 -2.25177 -0.0411004 49
-1.26469 -2.23269 -0.310325 49
-0.801487 -2.26027 -0.206364 61
-1.26389 -2.22949 -0.490451 49
-0.796059 -2.24853 -0.372724 50
-1.2681 -2.2333 -0.678311 55
-0.791398 -2.24265 -0.540189 49
-3.21386 -5.60547 1.48131 33
-1.9798 -5.57923 1.5748 14
-3.20983 -5.60068 1.01458 33
-2.00088 -5.60779 1.14955 15
-1.93977 -5.41225 0.700665 1
-1.27449 -2.22546 0.0441546 49
-0.811874 -2.25204 0.123644 47
-1.27706 -2.22904 -0.133245 45
-0.812782 -2.25212 -0.0411877 49
-1.27798 -2.22797 -0.310629 49
-0.813705 -2.2559 -0.206364 88
-1.27838 -2.22687 -0.491403 49
-0.810315 -2.2513 -0.373899 52
-1.28257 -2.23059 -0.679604 55
-0.805157 -2.24293 -0.541312 49
-3.23117 -5.6152 1.48524 35
-2.00088 -5.60762 1.58385 14
-3.22724 -5.61062 1.01731 35
-2.02637 -5.64819 1.1586 20
-1.94994 -5.41386 0.701274 1
-1.27837 -2.22324 0.0441546 49
-0.817101 -2.25546 0.123905 47
-1.28344 -2.23114 -0.133507 47
-0.817559 -2.25305 -0.0412313 50
-1.28396 -2.23026 -0.311238 49
-0.817641 -2.25447 -0.206364 49
-1.28594 -2.23101 -0.492832 49
-0.813408 -2.24756 -0.373507 52
-1.28888 -2.23253 -0.680897 55
-0.809501 -2.24395 -0.541874 49
-3.26298 -5.60241 1.48636 36
-2.04484 -5.64058 1.59613 15
-3.26155 -5.60218 1.01888 35
-2.06164 -5.65631 1.16241 24
-2.06423 -5.639 0.732002 26
-1.29464 -2.22538 0.0443291 49
-0.830616 -2.25584 0.124167 47
-1.29762 -2.2287 -0.13377 47
-0.828953 -2.24888 -0.0412313 49
-1.29687 -2.22565 -0.311542 49
-0.830291 -2.2525 -0.206582 52
-1.29969 -2.22871 -0.493784 49
-0.826013 -2.24559 -0.373899 50
-1.30138 -2.22807 -0.681544 53
-0.823741 -2.24655 -0.543558 49
-3.28013 -5.60932 1.48973 30
-2.05715 -5.64381 1.59806 17
-3.26633 -5.58795 1.01731 15
-2.06997 -5.64543 1.16098 21
-1.30017 -2.22505 0.0443727 49
-0.832828 -2.24971 0.123905 42
-1.30403 -2.23074 -0.134032 47
-0.83374 -2.24978 -0.0412749 50
-1.30201 -2.22552 -0.311846 47
-0.835082 -2.25338 -0.206799 50
-1.30482 -2.22856 -0.49426 47
-0.832486 -2.2511 -0.375073 49
-1.30566 -2.22556 -0.681544 53
-0.829337 -2.24969 -0.544681 50
-3.29181 -5.56005 1.48131 3
-2.08682 -5.63033 1.59742 15
-3.26255 -5.51283 1.00678 1
-2.09437 -5.62071 1.15812 18
-1.31435 -2.22251 0.04446 49
-0.845862 -2.2475 0.124036 47
-1.31951 -2.23033 -0.134426 47
-0.845901 -2.24523 -0.0412749 49
-1.31656 -2.22272 -0.312455 49
-0.848615 -2.25365 -0.207234 59
-1.32062 -2.2278 -0.495689 47
-0.844261 -2.24671 -0.375073 49
-1.32223 -2.227 -0.68413 53
-0.840646 -2.24288 -0.54412 49
-3.2968 -5.54859 1.47962 2
-2.0916 -5.6131 1.59354 15
-3.24976 -5.47161 1.00014 1
-2.09301 -5.58716 1.15193 17
-2.01227 -5.35126 0.69671 1
-1.32206 -2.22666 0.0445909 49
-0.851148 -2.25085 0.124298 47
-1.32467 -2.23017 -0.134558 47
-0.851579 -2.24843 -0.0413622 47
-1.32259 -2.22491 -0.313063 47
-0.853424 -2.25449 -0.207452 55
-1.32702 -2.22971 -0.496641 47
-0.849049 -2.24754 -0.375465 47
-1.32735 -2.22676 -0.684777 53
-0.845876 -2.24612 -0.545243 50
-3.32707 -5.53334 1.48019 8
-2.11742 -5.59566 1.5916 14
-3.28345 -5.46298 1.00171 3
-2.11865 -5.56961 1.1505 15
-2.1189 -5.54702 0.723788 21
-1.33589 -2.22422 0.0446782 47
-0.863813 -2.24869 0.124429 45
-1.33891 -2.22748 -0.13482 47
-0.862949 -2.24409 -0.0413622 47
-1.33806 -2.22433 -0.313976 47
-0.863438 -2.24534 -0.207017 49
-1.33955 -2.22506 -0.497117 47
-0.861686 -2.24537 -0.375856 49
-1.33985 -2.22208 -0.685424 52
-0.859357 -2.24622 -0.546366 50
-3.32538 -5.50876 1.47513 14
-2.11862 -5.56938 1.58514 14
-3.26108 -5.40439 0.99195 1
-2.12321 -5.54949 1.14716 15
-2.12237 -5.52709 0.721658 21
-1.34145 -2.22379 0.0447218 47
-0.868631 -2.24951 0.12456 45
-1.34537 -2.22941 -0.135083 47
-0.868657 -2.24725 -0.0414495 47
-1.34451 -2.22624 -0.314584 47
-0.869142 -2.24848 -0.207452 49
-1.34598 -2.22692 -0.498069 47
-0.867371 -2.24848 -0.376639 47
-1.35037 -2.22983 -0.688657 52
-0.864146 -2.24699 -0.546928 50
-3.33481 -5.45743 1.46615 14
-2.14264 -5.54206 1.58062 14
-3.39972 -5.56577 1.02512 9
-2.14248 -5.51312 1.14192 15
-2.16124 -5.53865 0.7247 17
-1.35698 -2.22314 0.0448527 47
-0.880789 -2.24478 0.12456 45
-1.35963 -2.2266 -0.135345 47
-0.881712 -2.24485 -0.0414931 49
-1.35913 -2.22317 -0.315193 47
-0.881809 -2.24622 -0.207669 49
-1.358 -2.21961 -0.498069 47
-0.881317 -2.24835 -0.377422 49
-1.36329 -2.22479 -0.689303 53
-0.877173 -2.24455 -0.547489 49
-3.32045 -5.41481 1.45604 12
-2.14707 -5.5248 1.57674 14
-3.38619 -5.52194 1.0181 12
-2.17794 -5.57569 1.15574 15
-3.40885 -5.56103 0.567602 11
-2.21069 -5.63655 0.738087 24
-1.36217 -2.2229 0.0448963 47
-0.887439 -2.25021 0.124952 45
-1.36482 -2.22635 -0.135476 47
-0.887456 -2.24796 -0.0415804 49
-1.363 -2.22079 -0.315193 47
-0.885728 -2.24468 -0.207669 47
-1.36702 -2.22559 -0.499974 47
-0.884339 -2.24451 -0.377031 49
-1.36971 -2.22652 -0.690597 53
-0.881089 -2.24302 -0.547489 47
-3.32913 -5.36365 1.44706 12
-2.19631 -5.56517 1.5916 14
-3.40724 -5.49155 1.01575 12
-2.23691 -5.63951 1.17147 23
-3.36438 -5.42459 0.5554 1
-2.23743 -5.61798 0.737174 32
-1.37774 -2.2221 0.0450272 47
-0.899209 -2.24553 0.124952 45
-1.37817 -2.22105 -0.135608 47
-0.900139 -2.2456 -0.041624 49
-1.37854 -2.21994 -0.316106 47
-0.901548 -2.2491 -0.208539 50
-1.38254 -2.22466 -0.501403 45
-0.897904 -2.24444 -0.377814 49
-1.38262 -2.22137 -0.691243 53
-0.893719 -2.24064 -0.548051 47
-3.31916 -5.32683 1.43863 12
-2.23179 -5.62645 1.61034 15
-3.42335 -5.49607 1.0177 14
-2.24047 -5.61697 1.16766 20
-3.34224 -5.36798 0.550171 1
-2.24078 -5.59793 0.735044 27
-1.38465 -2.2237 0.0451145 47
-0.903127 -2.24396 0.124952 45
-1.38997 -2.23136 -0.136395 45
-0.906846 -2.25099 -0.0417549 47
-1.38636 -2.22385 -0.317018 47
-0.905472 -2.24753 -0.208539 49
-1.38902 -2.2264 -0.502355 45
-0.902737 -2.24516 -0.378206 50
-1.38945 -2.2228 -0.692537 53
-0.89853 -2.24134 -0.548612 47
-3.32843 -5.27788 1.43021 12
-2.2577 -5.60309 1.60711 15
-3.47675 -5.51506 1.02473 12
-2.26433 -5.59151 1.1648 18
-2.26451 -5.56963 0.732915 26
-1.39894 -2.22065 0.0452017 47
-0.917135 -2.24367 0.125214 45
-1.40296 -2.22616 -0.136527 47
-0.917127 -2.24142 -0.0416676 47
-1.39969 -2.21841 -0.317323 47
-0.917228 -2.24276 -0.208539 47
-1.40367 -2.22301 -0.503307 45
-0.915409 -2.24269 -0.378597 47
-1.40365 -2.21958 -0.69383 53
-0.913386 -2.24322 -0.550297 49
-3.31456 -5.23766 1.42066 12
-2.26295 -5.58794 1.60388 15
-3.50125 -5.53463 1.02941 12
-2.26855 -5.5739 1.16194 18
-3.51509 -5.55647 0.572177 12
-2.26764 -5.55228 0.731089 27
-1.40683 -2.22454 0.0453326 47
-0.921602 -2.24454 0.125345 45
-1.40818 -2.22582 -0.136658 47
-0.92293 -2.24444 -0.0417549 47
-1.40583 -2.22041 -0.317931 47
-0.923967 -2.24807 -0.209191 49
-1.40887 -2.22262 -0.503783 45
-0.920254 -2.24338 -0.378989 47
-1.41141 -2.22324 -0.69577 53
-0.917827 -2.24404 -0.550858 52
-3.31566 -5.1792 1.40943 12
-2.28296 -5.55631 1.59806 15
-3.53551 -5.52454 1.03097 12
-2.29486 -5.55781 1.16098 18
-3.5472 -5.5449 0.572831 11
-2.29288 -5.53116 0.729872 29
-1.41807 -2.21739 0.0453326 47
-0.935253 -2.24429 0.125606 44
-1.42212 -2.22286 -0.13692 47
-0.936194 -2.24436 -0.0418421 47
-1.42414 -2.22346 -0.319452 47
-0.935334 -2.24336 -0.209191 47
-1.42142 -2.21753 -0.50426 45
-0.933485 -2.24325 -0.379772 49
-1.42787 -2.22419 -0.698356 52
-0.929564 -2.2392 -0.550858 52
-3.30667 -5.14735 1.40213 12
-2.28898 -5.54338 1.59548 15
-3.55486 -5.5356 1.03409 11
-2.29329 -5.52659 1.15526 17
-3.54879 -5.52613 0.571524 11
-2.29967 -5.52297 0.729264 30
-1.42869 -2.22542 0.0455508 47
-0.938777 -2.24282 0.125606 45
-1.43005 -2.22668 -0.137314 47
-0.941071 -2.24503 -0.0418858 45
-1.42763 -2.22122 -0.319452 45
-0.941164 -2.24632 -0.209626 47
-1.43061 -2.2233 -0.506164 45
-0.939295 -2.24618 -0.380555 49
-1.43698 -2.22981 -0.700943 52
-0.934946 -2.24224 -0.551981 47
-3.30835 -5.09116 1.39146 12
-2.31607 -5.5295 1.59483 15
-3.57438 -5.50242 1.03136 9
-2.32219 -5.51717 1.15574 15
-3.56315 -5.48721 0.569345 11
-2.33048 -5.51542 0.729872 23
-1.4413 -2.22026 0.0455944 49
-0.953422 -2.24477 0.125999 47
-1.44266 -2.2215 -0.137446 45
-0.954369 -2.24484 -0.041973 47
-1.4433 -2.21995 -0.320365 47
-0.953491 -2.24383 -0.209844 47
-1.44184 -2.21603 -0.506164 45
-0.952003 -2.24351 -0.380946 49
-1.44957 -2.22453 -0.701589 52
-0.948563 -2.2418 -0.553104 49
-3.30303 -5.06555 1.38585 11
-2.32198 -5.51654 1.59225 14
-3.57318 -5.47963 1.02824 9
-2.35471 -5.56738 1.16718 14
-3.58088 -5.4935 0.570652 11
-2.38657 -5.62102 0.744476 29
-1.44791 -2.22193 0.0456817 47
-0.957339 -2.24311 0.125999 47
-1.44927 -2.22317 -0.137708 45
-0.958286 -2.24317 -0.041973 45
-1.4526 -2.22574 -0.321582 47
-0.959353 -2.24674 -0.210279 47
-1.44974 -2.21967 -0.507593 45
-0.956881 -2.24412 -0.381338 47
-1.45742 -2.22806 -0.703529 52
-0.954372 -2.24463 -0.554227 50
-3.31965 -5.03134 1.38136 9
-2.37829 -5.56874 1.61099 12
-3.60726 -5.46909 1.0298 8
-2.41185 -5.6204 1.181 18
-3.63428 -5.5121 0.574574 8
-2.41694 -5.61073 0.74478 29
-1.46227 -2.21849 0.0457689 47
-0.971045 -2.24265 0.12626 45
-1.46501 -2.2218 -0.138102 45
-0.971997 -2.24272 -0.0420603 45
-1.4615 -2.21396 -0.320973 47
-0.973074 -2.24626 -0.210714 49
-1.46675 -2.22024 -0.509497 45
-0.97057 -2.24361 -0.382121 47
-1.4704 -2.22241 -0.704176 52
-0.967072 -2.24184 -0.554789 50
-3.31006 -4.99972 1.37406 4
-2.40892 -5.61342 1.6252 14
-3.68362 -5.56366 1.04892 9
-2.42068 -5.61392 1.18052 20
-3.68514 -5.56805 0.581111 11
-2.42083 -5.59283 0.742955 26
-1.46614 -2.21593 0.0457689 47
-0.97595 -2.24324 0.126391 47
-1.47303 -2.22548 -0.138496 45
-0.97591 -2.24102 -0.0420603 45
-1.47085 -2.21968 -0.32219 47
-0.976993 -2.24456 -0.210714 47
-1.46927 -2.21563 -0.509021 44
-0.976444 -2.24645 -0.382904 47
-1.47561 -2.22185 -0.704822 52
-0.972912 -2.24462 -0.555912 50
-2.44116 -5.60737 1.62714 15
-3.7237 -5.56071 1.05204 9
-2.44219 -5.58318 1.17671 18
-3.71425 -5.54867 0.581111 11
-2.4451 -5.56872 0.741434 26
-1.4819 -2.21445 0.0458998 47
-0.989689 -2.24267 0.126653 45
-1.48883 -2.22396 -0.13889 45
-0.989641 -2.24045 -0.0421476 45
-1.48522 -2.21607 -0.322799 45
-0.990735 -2.24398 -0.211148 50
-1.48769 -2.2181 -0.511402 45
-0.990177 -2.24583 -0.383687 47
-1.49397 -2.22412 -0.708056 52
-0.985627 -2.24173 -0.556474 50
-2.44805 -5.59646 1.6252 14
-3.73615 -5.5583 1.05282 9
-2.4539 -5.5834 1.17766 17
-3.72254 -5.54011 0.580893 11
-2.44982 -5.55308 0.739912 23
-1.48855 -2.21601 0.0459871 45
-0.994609 -2.24323 0.126784 45
-1.4955 -2.2255 -0.139152 45
-0.996579 -2.24558 -0.0422784 45
-1.49185 -2.21759 -0.323407 45
-0.995656 -2.24452 -0.211366 47
-1.49705 -2.22364 -0.513307 45
-0.994095 -2.24409 -0.383687 47
-1.4992 -2.22351 -0.708702 50
-0.990519 -2.24224 -0.557035 50
-2.47438 -5.57694 1.62327 14
-3.75965 -5.53049 1.05126 8
-2.47712 -5.55702 1.1748 15
-3.73889 -5.50201 0.578932 11
-2.47279 -5.52659 0.738087 23
-1.50295 -2.21232 0.0460743 45
-1.00838 -2.24255 0.127046 45
-1.50853 -2.2197 -0.139283 45
-1.00934 -2.24261 -0.0423221 47
-1.50484 -2.2118 -0.323712 44
-1.00739 -2.23928 -0.211366 47
-1.50867 -2.21577 -0.513307 45
-1.00885 -2.24562 -0.384861 47
-1.51218 -2.21762 -0.709349 52
-1.00324 -2.23925 -0.557597 49
-2.47921 -5.56158 1.62004 14
-3.76373 -5.51576 1.0497 4
-2.4788 -5.53477 1.17099 15
-3.74007 -5.48313 0.577625 9
-2.48548 -5.52905 0.739 26
-1.51103 -2.21589 0.0462052 45
-1.01332 -2.24306 0.127176 45
-1.51663 -2.22325 -0.139677 45
-1.01428 -2.24313 -0.0423657 47
-1.5143 -2.21736 -0.324929 45
-1.01539 -2.2466 -0.212236 47
-1.51669 -2.21921 -0.514735 45
-1.01277 -2.24386 -0.384861 47
-1.52014 -2.22096 -0.711289 52
-1.00913 -2.24194 -0.55872 49
-2.50529 -5.53928 1.61745 14
-3.77387 -5.46687 1.04424 8
-2.51074 -5.52574 1.17195 18
-3.7626 -5.45257 0.576535 11
-2.52564 -5.53811 0.742042 24
-1.52726 -2.21385 0.0463361 47
-1.02647 -2.23982 0.127307 45
-1.53147 -2.21912 -0.13994 45
-1.02848 -2.24216 -0.042453 45
-1.5291 -2.21322 -0.325537 45
-1.02959 -2.24561 -0.212671 49
-1.53147 -2.215 -0.515688 45
-1.02758 -2.24526 -0.386036 47
-1.53626 -2.21865 -0.713229 52
-1.02326 -2.24088 -0.559843 50
-2.50797 -5.51951 1.61293 14
-3.80918 -5.4995 1.05165 8
-2.53055 -5.54369 1.17671 17
-3.81467 -5.50741 0.583072 9
-2.57559 -5.62441 0.754212 30
-1.53255 -2.21324 0.0463798 45
-1.03311 -2.24501 0.1277 45
-1.53677 -2.2185 -0.140071 45
-1.03343 -2.24263 -0.0424966 47
-1.53682 -2.21693 -0.32645 45
-1.03455 -2.24607 -0.212888 45
-1.53813 -2.21636 -0.51664 45
-1.03149 -2.24347 -0.386036 47
-1.54289 -2.21993 -0.714522 50
-1.02678 -2.23927 -0.559843 49
-2.54697 -5.53088 1.62004 14
-3.86768 -5.52195 1.05985 9
-2.59355 -5.60657 1.19292 18
-3.86821 -5.52475 0.586994 11
-2.60396 -5.6086 0.753907 27
-1.5509 -2.21569 0.0465979 45
-1.0438 -2.23731 0.127569 45
-1.54941 -2.21273 -0.140202 44
-1.04898 -2.24644 -0.0426711 47
-1.048 -2.24532 -0.213323 49
-1.55356 -2.21457 -0.518068 45
-1.0453 -2.24252 -0.386819 47
-1.55828 -2.21802 -0.716462 52
-1.04156 -2.2405 -0.561527 49
-2.57484 -5.56589 1.63167 14
-3.89294 -5.53741 1.06414 9
-2.61263 -5.62207 1.1972 18
-3.88645 -5.53021 0.588301 11
-2.60118 -5.57705 0.750256 18
-1.55477 -2.21298 0.0465979 45
-1.04981 -2.24001 0.127831 44
-1.55758 -2.21615 -0.140596 44
-1.05079 -2.24007 -0.0425839 45
-1.05297 -2.24575 -0.21354 49
-1.56167 -2.21787 -0.519497 47
-1.05026 -2.24293 -0.38721 47
-1.56632 -2.22122 -0.718402 50
-1.04444 -2.23647 -0.560966 49
-3.35906 -4.72385 1.32801 3
-2.62851 -5.60483 1.64718 14
-3.92331 -5.51896 1.06453 8
-2.62741 -5.57722 1.19053 15
-3.91246 -5.50573 0.587865 11
-2.61234 -5.5252 0.745084 15
-1.57068 -2.21092 0.0467288 45
-1.06259 -2.23674 0.127961 45
-1.06571 -2.24132 -0.0427148 45
-1.06511 -2.24002 -0.21354 47
-1.57611 -2.21366 -0.520449 45
-1.06304 -2.23963 -0.387602 47
-1.58214 -2.21888 -0.720341 50
-1.05822 -2.23538 -0.562089 49
-3.39278 -4.75366 1.33812 4
-2.62596 -5.57401 1.63942 14
-3.92433 -5.50005 1.06219 8
-2.62029 -5.53444 1.18243 14
-3.9076 -5.47862 0.585687 9
-2.61667 -5.50942 0.743563 20
-1.06864 -2.23939 0.128223 45
-1.06962 -2.23946 -0.0427148 47
-1.07115 -2.24266 -0.213975 45
-1.06907 -2.24223 -0.388385 49
-1.58921 -2.21977 -0.721635 50
-1.06212 -2.23353 -0.562089 49
-3.44698 -4.77473 1.34935 9
-2.64361 -5.53356 1.63167 14
-3.94246 -5.46272 1.05907 4
-2.65877 -5.54057 1.18672 15
-3.92261 -5.4372 0.583508 9
-2.64859 -5.49966 0.744172 21
-1.0829 -2.23807 0.128485 45
-1.08389 -2.23814 -0.042802 47
-1.08396 -2.23926 -0.214193 45
-1.08293 -2.24105 -0.389168 49
-1.60081 -2.21141 -0.721635 50
-1.07524 -2.22994 -0.56265 49
-3.46591 -4.7851 1.35384 11
-2.65952 -5.54201 1.63554 14
-2.65354 -5.50496 1.18005 15
-2.65615 -5.49326 0.743867 23
-1.08642 -2.23637 0.128485 44
-1.09106 -2.24299 -0.0429329 47
-1.09112 -2.24409 -0.214845 45
-1.09006 -2.24583 -0.390343 47
-1.61035 -2.21643 -0.724221 50
-1.0798 -2.23045 -0.563212 49
-2.67173 -5.49588 1.62585 14
-2.68675 -5.50249 1.18243 17
-2.69359 -5.49711 0.746301 27
-1.10031 -2.23513 0.128746 44
-1.1068 -2.24642 -0.0431074 47
-1.10505 -2.24282 -0.21528 47
-1.10289 -2.24231 -0.390734 47
-1.62298 -2.2102 -0.724868 50
-1.09574 -2.23352 -0.565458 49
-3.3145 -4.50957 1.28197 2
-2.68978 -5.50858 1.63102 15
-2.69623 -5.49511 1.18195 18
-2.70099 -5.48794 0.745693 24
-1.10751 -2.23993 0.129139 44
-1.16465 -1.5855 -0.101607 12
-1.10851 -2.24 -0.0430202 45
-1.11116 -2.24536 -0.215715 49
-1.10789 -2.2426 -0.391126 49
-1.63439 -2.21679 -0.728101 49
-1.10178 -2.23598 -0.566581 49
-3.31995 -4.46616 1.27467 3
-2.72061 -5.49611 1.63167 14
-2.73805 -5.5073 1.18767 18
-3.2806 -4.41644 0.478267 8
-2.74392 -5.4999 0.749344 21
-1.22478 -1.64969 0.0352539 11
-1.12073 -2.23614 0.12927 44
-1.16846 -1.57337 -0.101214 14
-1.12397 -2.24068 -0.0431511 45
-1.12291 -2.23951 -0.215715 45
-1.12072 -2.23898 -0.391517 47
-1.64886 -2.21207 -0.729394 49
-1.11386 -2.22998 -0.566581 47
-3.31822 -4.44923 1.2713 4
-2.73879 -5.50866 1.63684 15
-2.75532 -5.51789 1.19101 18
-3.28235 -4.40272 0.477396 3
-2.76809 -5.52666 0.753603 21
-1.21869 -1.63553 0.0349921 11
-1.12648 -2.23884 0.129531 44
-1.16822 -1.56732 -0.100951 14
-1.13012 -2.24318 -0.0432383 47
-1.13128 -2.24645 -0.216585 49
-1.17067 -1.56777 -0.372838 12
-1.12573 -2.23923 -0.391909 49
-1.65562 -2.21306 -0.730688 50
-1.11954 -2.23259 -0.567704 47
-2.77314 -5.50768 1.64071 14
-2.80091 -5.53893 1.19863 15
-2.84744 -5.61171 0.767294 33
-1.22695 -1.62934 0.0349921 11
-1.13931 -2.23514 0.129662 44
-1.1719 -1.55521 -0.100557 15
-1.14146 -2.23743 -0.0432383 45
-1.17143 -1.55347 -0.234265 3
-1.14415 -2.24272 -0.216802 49
-1.16527 -1.5442 -0.368552 15
-1.13967 -2.2377 -0.392692 47
-1.67408 -2.21428 -0.733921 49
-1.13451 -2.23322 -0.569389 49
-2.81648 -5.56966 1.66075 14
-2.85593 -5.62109 1.2177 21
-2.8516 -5.59567 0.765773 27
-1.22555 -1.621 0.0348612 11
-1.14435 -2.23537 0.129793 42
-1.17311 -1.55117 -0.100426 15
-1.14649 -2.23767 -0.043282 45
-1.17864 -1.55736 -0.235178 4
-1.15033 -2.24515 -0.217237 49
-1.16203 -1.53434 -0.366648 15
-1.14358 -2.23571 -0.392692 47
-1.14061 -2.23558 -0.570512 47
-2.86967 -5.5995 1.67432 15
-2.87187 -5.57987 1.21198 17
-2.87047 -5.5581 0.76273 24
-1.2325 -1.61258 0.0348176 11
-1.15872 -2.23358 0.130055 44
-1.17818 -1.54104 -0.100163 15
-1.16088 -2.23587 -0.0433692 45
-1.1795 -1.54111 -0.233657 14
-1.16321 -2.24131 -0.217455 45
-1.16135 -1.51635 -0.363791 17
-1.1564 -2.23189 -0.393083 47
-1.1538 -2.23154 -0.571073 47
-2.86068 -5.55796 1.66333 14
-2.87485 -5.56176 1.20912 17
-2.86209 -5.52053 0.758167 21
-1.24141 -1.61835 0.0349921 11
-1.16567 -2.23841 0.130447 44
-1.18695 -1.5469 -0.100688 14
-1.16823 -2.2405 -0.0435001 45
-1.18495 -1.54319 -0.234265 24
-1.16712 -2.23928 -0.217455 45
-1.15801 -1.50654 -0.361886 17
-1.16256 -2.23425 -0.393866 47
-1.15731 -2.22973 -0.571073 47
-2.8832 -5.5327 1.6601 14
-2.8882 -5.51886 1.20292 15
-2.8852 -5.49448 0.756646 21
-1.25265 -1.616 0.0350793 11
-1.17853 -2.23449 0.130578 44
-1.19323 -1.5389 -0.100557 14
-1.17956 -2.23456 -0.0435001 44
-1.18844 -1.53109 -0.233352 15
-1.18075 -2.23775 -0.21789 45
-1.15658 -1.48904 -0.359029 18
-1.17539 -2.23032 -0.394258 45
-1.17235 -2.23011 -0.572758 47
-2.88838 -5.51909 1.65751 14
-2.89212 -5.50294 1.20054 15
-2.91327 -5.52457 0.761513 21
-1.25854 -1.61775 0.0351666 11
-1.18593 -2.23905 0.130971 44
-1.20359 -1.54666 -0.101214 14
-1.18696 -2.23913 -0.043631 44
-1.18959 -1.52705 -0.233048 15
-1.18814 -2.2423 -0.218542 45
-1.15767 -1.48508 -0.358553 20
-1.18159 -2.23264 -0.395041 45
-1.17738 -2.23022 -0.573319 47
-2.92288 -5.51457 1.66075 14
-3.03143 -5.69579 1.24629 14
-1.7243 -2.19265 0.240986 12
-3.03204 -5.67785 0.78494 15
-1.27318 -1.619 0.0353411 11
-1.19881 -2.23501 0.131102 44
-1.21167 -1.54034 -0.101214 14
-1.19984 -2.23509 -0.0436746 45
-1.19756 -1.52081 -0.233048 14
-1.19987 -2.23604 -0.218542 45
-1.16086 -1.47322 -0.357124 18
-1.19442 -2.2286 -0.395432 45
-1.18904 -2.22403 -0.573319 45
-3.03901 -5.70994 1.72149 20
-3.03675 -5.68182 1.24439 15
-1.73585 -2.19941 0.242075 12
-3.02321 -5.63755 0.780072 17
-1.2791 -1.6207 0.0354284 11
-1.20507 -2.23732 0.131363 44
-1.21591 -1.54018 -0.101345 14
-1.20374 -2.23299 -0.0436746 44
-1.19714 -1.51482 -0.23244 14
-1.20612 -2.23834 -0.218977 47
-1.16039 -1.46734 -0.356172 15
-1.20181 -2.23304 -0.396607 44
-1.19636 -2.22839 -0.575004 45
-3.04484 -5.64928 1.70792 14
-3.04429 -5.62482 1.23533 17
-3.04677 -5.61073 0.778551 35
-1.29225 -1.61984 0.0355593 11
-1.21796 -2.23317 0.131494 44
-1.23357 -1.54528 -0.102132 14
-1.21781 -2.23105 -0.0437619 44
-1.2128 -1.51822 -0.233961 14
-1.21822 -2.23178 -0.218977 44
-1.16038 -1.45167 -0.353791 15
-1.21348 -2.22671 -0.396607 45
-1.20802 -2.2221 -0.575004 45
-3.04551 -5.62696 1.70275 23
-3.0586 -5.62544 1.23676 33
-3.06368 -5.61848 0.780376 35
-1.30161 -1.62515 0.0357338 11
-1.22424 -2.23543 0.131756 44
-1.23627 -1.54312 -0.102132 14
-1.22409 -2.23331 -0.0438492 44
-1.217 -1.51804 -0.234265 14
-1.2245 -2.23402 -0.219412 44
-1.15523 -1.44007 -0.35141 15
-1.21973 -2.22893 -0.39739 45
-1.21422 -2.22427 -0.576127 45
-3.08287 -5.62311 1.70663 32
-3.08919 -5.6115 1.23724 35
-3.08804 -5.59096 0.778855 20
-1.3101 -1.61831 0.0357338 12
-1.23632 -2.22877 0.131756 44
-1.25377 -1.54826 -0.10292 14
-1.23737 -2.22884 -0.0438928 44
-1.22676 -1.51336 -0.234569 14
-1.23858 -2.23194 -0.219847 44
-1.15527 -1.42428 -0.34903 15
-1.23654 -2.23094 -0.398956 44
-1.23093 -2.2262 -0.578373 45
-3.095 -5.62196 1.70792 30
-3.10017 -5.60824 1.23772 20
-3.11342 -5.61378 0.78281 33
-1.31766 -1.62184 0.0358647 12
-1.24263 -2.23098 0.132017 44
-1.26435 -1.55576 -0.103576 14
-1.24368 -2.23105 -0.0439801 44
-1.23254 -1.51506 -0.235178 14
-1.24248 -2.22977 -0.219847 44
-1.15465 -1.41846 -0.348077 14
-1.24163 -2.23094 -0.399347 44
-1.23482 -2.22405 -0.578373 44
-3.12811 -5.61466 1.7105 27
-3.14048 -5.61391 1.24248 32
-3.14422 -5.60228 0.783419 33
-1.3322 -1.62288 0.0360392 12
-1.25513 -2.22683 0.132148 44
-1.28041 -1.55875 -0.104233 14
-1.25618 -2.2269 -0.0440237 44
-1.24177 -1.51072 -0.235482 14
-1.25901 -2.23192 -0.220716 44
-1.15869 -1.40881 -0.347125 15
-1.25532 -2.22894 -0.40013 44
-1.24844 -2.22202 -0.579496 45
-3.14262 -5.61763 1.71309 32
-3.15725 -5.61857 1.24486 32
-3.16007 -5.6076 0.78494 32
-1.34168 -1.62803 0.0362137 12
-1.26269 -2.23117 0.132541 44
-1.28471 -1.55844 -0.104364 14
-1.26129 -2.22688 -0.0440673 44
-1.25072 -1.5162 -0.236699 14
-1.26169 -2.22755 -0.220499 44
-1.15802 -1.403 -0.346173 14
-1.26164 -2.23105 -0.400914 44
-1.82182 -2.20208 -0.755906 12
-1.25589 -2.22621 -0.581181 45
-3.17891 -5.61105 1.71632 32
-3.19148 -5.6105 1.24677 32
-3.19897 -5.60551 0.78707 32
-1.35819 -1.63058 0.0364319 12
-1.27722 -2.22864 0.132802 44
-1.30245 -1.5632 -0.105152 14
-1.27828 -2.22871 -0.0442418 44
-1.26686 -1.51893 -0.23822 14
-1.27704 -2.22741 -0.221151 44
-1.16402 -1.39483 -0.345696 14
-1.27819 -2.23299 -0.40248 44
-1.84108 -2.20177 -0.759139 11
-1.26912 -2.2215 -0.581742 45
-4.559 -5.4489 1.62955 11
-3.19228 -5.6118 1.71826 32
-4.56132 -5.45359 1.11799 11
-3.21099 -5.62198 1.25058 33
-3.21146 -5.60694 0.787982 32
-1.36264 -1.63012 0.0364755 12
-1.2832 -2.23096 0.133064 44
-1.30838 -1.56475 -0.105414 14
-1.28341 -2.22864 -0.0442855 44
-1.2804 -1.53026 -0.24035 14
-1.2834 -2.22949 -0.221586 44
-1.16172 -1.38715 -0.344268 12
-1.28086 -2.22861 -0.402088 44
-1.84492 -2.19855 -0.759139 11
-1.27744 -2.22797 -0.583988 45
-4.63782 -5.48447 1.64752 9
-3.22665 -5.60604 1.72149 30
-4.65838 -5.51071 1.13477 12
-3.24676 -5.61841 1.25344 32
-4.65368 -5.50709 0.627739 14
-3.2445 -5.5965 0.788895 32
-1.38217 -1.63656 0.0367809 12
-1.29611 -2.22637 0.133195 44
-1.31817 -1.55978 -0.105546 14
-1.29844 -2.22861 -0.0444164 44
-1.2884 -1.52353 -0.24035 14
-1.29755 -2.22705 -0.222021 44
-1.16873 -1.38126 -0.344268 14
-1.2987 -2.23256 -0.404046 44
-1.85915 -2.19287 -0.760432 9
-1.29153 -2.22547 -0.585111 44
-4.68207 -5.51723 1.65987 11
-3.24729 -5.61923 1.72731 29
-4.67438 -5.5101 1.13633 12
-3.26123 -5.61853 1.25487 32
-4.67134 -5.50845 0.628829 14
-3.25676 -5.59511 0.789503 26
-1.38854 -1.63772 0.0368682 12
-1.30376 -2.23058 0.133588 45
-1.32736 -1.56509 -0.106071 15
-1.30359 -2.2285 -0.04446 44
-1.30391 -1.53641 -0.242784 14
-1.3052 -2.23124 -0.222674 44
-1.1616 -1.368 -0.341411 14
-1.30135 -2.22815 -0.403654 44
-1.87118 -2.19848 -0.763665 8
-1.29663 -2.22532 -0.585673 44
-4.71502 -5.49551 1.661 12
-3.28374 -5.612 1.73054 29
-4.6993 -5.47911 1.13516 12
-3.29061 -5.60138 1.25487 14
-4.68486 -5.46419 0.62665 12
-3.28321 -5.571 0.788591 3
-1.40035 -1.63422 0.0369555 12
-1.31835 -2.2278 0.133849 44
-1.33878 -1.56191 -0.106333 14
-1.31689 -2.22356 -0.0445036 42
-1.31382 -1.53121 -0.243088 14
-1.31813 -2.22652 -0.222891 44
-1.16418 -1.35611 -0.339982 14
-1.31551 -2.22557 -0.404437 44
-1.88424 -2.19049 -0.764312 9
-1.31235 -2.22457 -0.587358 45
-4.71729 -5.48071 1.65875 11
-3.28864 -5.59793 1.72795 8
-4.71273 -5.47733 1.13633 12
-3.3066 -5.6062 1.25726 1
-4.69602 -5.45789 0.626868 12
-3.23771 -5.47395 0.775508 1
-1.40973 -1.63935 0.03713 12
-1.32185 -2.22572 0.133849 42
-1.35128 -1.57092 -0.107121 14
-1.32459 -2.22771 -0.0446345 42
-1.32919 -1.54418 -0.245522 14
-1.32455 -2.2285 -0.223326 44
-1.16655 -1.35408 -0.339982 12
-1.3219 -2.22752 -0.40522 44
-1.88649 -2.18537 -0.763665 9
-1.31585 -2.22251 -0.587358 44
-4.75712 -5.4688 1.66268 11
-3.29106 -5.53759 1.71438 1
-4.74135 -5.45258 1.13633 11
-3.34247 -5.60205 1.26011 1
-4.72522 -5.43594 0.627086 12
-3.24341 -5.41858 0.770032 1
-1.42129 -1.63596 0.0372173 12
-1.33861 -2.22734 0.134373 42
-1.35949 -1.56382 -0.107121 15
-1.33842 -2.22527 -0.0447218 42
-1.34051 -1.54094 -0.24613 14
-1.33876 -2.22581 -0.223761 44
-1.16694 -1.34075 -0.338078 14
-1.33735 -2.22692 -0.406395 44
-1.90387 -2.18307 -0.766252 11
-1.33246 -2.22396 -0.589604 44
-4.76025 -5.45315 1.66044 9
-3.31555 -5.55674 1.72214 3
-4.76222 -5.45732 1.13906 11
-3.34062 -5.57456 1.25535 2
-4.7347 -5.42768 0.627086 12
-3.30265 -5.4959 0.781897 3
-1.42772 -1.637 0.0373045 12
-1.34507 -2.22928 0.134634 44
-1.36879 -1.56897 -0.107646 14
-1.34617 -2.22936 -0.0448527 42
-1.34647 -1.54234 -0.246739 14
-1.34521 -2.22774 -0.224196 42
-1.16604 -1.33502 -0.337125 12
-1.34504 -2.23094 -0.407569 44
-1.90488 -2.17578 -0.764959 11
-1.33884 -2.22581 -0.590727 44
-4.79935 -5.43827 1.66381 9
-3.33808 -5.52631 1.71826 14
-4.79332 -5.43333 1.13945 9
-3.38374 -5.58008 1.26059 2
-4.78871 -5.43 0.630354 8
-3.38901 -5.57127 0.795284 11
-1.43461 -1.62763 0.0372609 12
-1.3597 -2.22623 0.134896 42
-1.38194 -1.56739 -0.10804 14
-1.36081 -2.22631 -0.0449399 42
-1.36301 -1.54433 -0.24826 14
-1.36074 -2.22705 -0.224848 42
-1.35414 -2.21964 -0.406786 42
-1.91945 -2.16939 -0.766252 12
-1.3496 -2.21645 -0.590165 44
-4.80789 -5.43073 1.66381 4
-3.32021 -5.47503 1.70404 14
-4.81821 -5.44428 1.14336 4
-3.40112 -5.58675 1.26345 11
-4.83285 -5.46079 0.63493 8
-3.38743 -5.54899 0.79285 12
-1.44242 -1.63073 0.0373918 12
-1.3684 -2.23262 0.135419 42
-1.38799 -1.56872 -0.108302 14
-1.36469 -2.22393 -0.0449399 42
-1.37366 -1.55147 -0.249781 14
-1.36722 -2.22892 -0.225283 42
-1.36573 -2.22992 -0.409135 42
-1.92644 -2.16965 -0.767545 12
-1.35688 -2.22057 -0.59185 44
-4.87688 -5.45086 1.67784 3
-3.33653 -5.43961 1.69823 12
-4.93557 -5.51835 1.16443 8
-3.41651 -5.54856 1.25869 11
-4.91688 -5.49937 0.642338 9
-3.41122 -5.52273 0.791633 12
-1.45733 -1.63086 0.0375663 12
-1.38007 -2.22542 0.135419 42
-1.40284 -1.56887 -0.108827 14
-1.37987 -2.22338 -0.0450708 42
-1.38508 -1.54795 -0.25039 14
-1.38018 -2.22385 -0.2255 42
-1.37739 -2.22274 -0.409135 42
-1.94224 -2.16526 -0.769485 11
-1.3736 -2.22173 -0.594096 45
-4.97917 -5.54564 1.70985 12
-3.32578 -5.40086 1.68789 11
-4.97489 -5.5428 1.17145 9
-3.41168 -5.51693 1.25297 12
-4.97138 -5.54083 0.648221 11
-3.39996 -5.48301 0.786765 14
-1.4638 -1.63178 0.0376536 12
-1.38527 -2.22513 0.13555 39
-1.41058 -1.57199 -0.109221 14
-1.38375 -2.22096 -0.0450708 41
-1.38612 -1.54369 -0.250086 14
-1.38537 -2.22355 -0.225718 42
-1.38516 -2.22663 -0.41031 42
-1.94639 -2.16153 -0.769485 9
-1.37619 -2.21726 -0.593534 44
-5.01729 -5.52764 1.71266 11
-3.33326 -5.34793 1.6769 11
-5.0214 -5.53409 1.17536 11
-3.44182 -5.50107 1.25344 12
-5.0197 -5.53413 0.650618 12
-3.43353 -5.47084 0.787678 12
-1.474 -1.62595 0.0376972 12
-1.40127 -2.22395 0.135943 38
-1.42551 -1.57197 -0.109746 14
-1.39974 -2.21979 -0.0452017 41
-1.40097 -2.2226 -0.22637 42
-1.39812 -2.22144 -0.410701 42
-1.96581 -2.16023 -0.772718 8
-1.39204 -2.21598 -0.595219 44
-5.04073 -5.53596 1.71771 12
-3.3234 -5.31138 1.66721 11
-5.04671 -5.54445 1.17926 9
-3.51269 -5.59278 1.27584 11
-5.03773 -5.53457 0.651707 12
-3.51476 -5.58098 0.804411 12
-1.48357 -1.63076 0.0378717 12
-1.40742 -2.22597 0.136204 36
-1.43161 -1.57317 -0.110009 14
-1.40627 -2.22158 -0.045289 41
-1.41016 -2.22858 -0.22724 41
-1.40462 -2.22318 -0.411485 42
-1.97121 -2.15858 -0.773365 3
-1.39682 -2.21585 -0.59578 44
-5.0845 -5.52562 1.72277 9
-3.32702 -5.25774 1.65558 11
-5.09239 -5.53612 1.18316 11
-3.55147 -5.59151 1.27966 12
-5.08929 -5.53466 0.654757 11
-3.54394 -5.5625 0.804411 12
-1.4918 -1.62323 0.0378717 12
-1.42174 -2.22278 0.136466 33
-1.44632 -1.57326 -0.110534 14
-1.42153 -2.22075 -0.0454199 41
-1.42276 -2.22351 -0.227458 42
-1.41889 -2.21996 -0.412268 42
-1.98866 -2.15567 -0.775951 2
-1.41232 -2.21468 -0.597465 44
-5.11135 -5.53732 1.72894 9
-3.31809 -5.22337 1.64653 11
-5.1121 -5.53811 1.1855 11
-3.54805 -5.5646 1.27489 9
-5.11583 -5.54407 0.656936 11
-3.54429 -5.54167 0.802282 9
-1.50142 -1.62797 0.0380462 12
-1.42696 -2.2224 0.136597 30
-1.44568 -1.56706 -0.110272 14
-1.4281 -2.22248 -0.0455071 42
-1.43066 -2.22732 -0.22811 42
-1.42676 -2.22372 -0.413442 42
-2.00227 -2.16282 -0.779831 2
-1.4188 -2.21632 -0.598588 44
-5.15454 -5.52383 1.73343 9
-3.32714 -5.17747 1.63748 11
-5.16293 -5.53474 1.19057 11
-3.57448 -5.54182 1.27394 9
-5.16008 -5.5336 0.658897 12
-3.56653 -5.51261 0.80076 9
-1.51845 -1.62923 0.0382644 12
-1.44129 -2.21909 0.136859 29
-1.45557 -1.5613 -0.110403 14
-1.44108 -2.21707 -0.0455508 41
-1.44366 -2.22189 -0.228327 42
-1.43972 -2.21829 -0.413834 42
-2.01192 -2.15055 -0.779185 2
-1.43171 -2.2109 -0.59915 44
-5.18319 -5.53706 1.74017 11
-3.31002 -5.13104 1.62456 11
-5.1844 -5.53834 1.19331 11
-3.56949 -5.5129 1.26869 4
-5.18164 -5.53731 0.660423 4
-3.57074 -5.49805 0.799543 9
-1.52471 -1.63022 0.0383517 12
-1.44516 -2.21657 0.136859 26
-1.4617 -1.5624 -0.110665 14
-1.45039 -2.22294 -0.0457253 41
-1.45161 -2.22563 -0.22898 42
-1.44762 -2.22199 -0.415008 42
-2.02724 -2.15935 -0.783711 2
-1.43954 -2.21454 -0.600834 42
-5.21642 -5.51248 1.7413 1
-3.32102 -5.08936 1.6168 11
-5.27273 -5.57389 1.20696 1
-3.59159 -5.48387 1.26631 4
-5.1866 -5.48478 0.657372 9
-3.59853 -5.47991 0.799543 8
-1.46223 -2.21732 0.137382 23
-1.463 -1.54747 -0.11014 12
-1.46613 -2.22158 -0.0458562 41
-1.46461 -2.22008 -0.229197 42
-1.45885 -2.21464 -0.415008 42
-2.04684 -2.15746 -0.786944 2
-1.45206 -2.20926 -0.601396 42
-5.22675 -5.50604 1.74186 8
-3.31139 -5.05526 1.60776 11
-5.21177 -5.49217 1.19096 11
-3.60923 -5.4899 1.26917 4
-5.19007 -5.47121 0.656718 9
-3.66947 -5.56689 0.813234 8
-1.46709 -2.21711 0.137513 21
-1.471 -2.22136 -0.0458998 42
-1.47495 -2.22817 -0.230285 42
-1.46543 -2.21621 -0.415791 42
-1.46127 -2.21487 -0.603642 44
-5.22757 -5.45139 1.73287 9
-3.31875 -5.01282 1.59936 11
-5.22241 -5.4479 1.18706 11
-3.70657 -5.57854 1.29395 4
-3.69898 -5.55031 0.813538 9
-1.47967 -2.21173 0.137644 18
-1.48499 -2.21804 -0.0459871 41
-1.48621 -2.22068 -0.230285 42
-1.17957 -1.22949 -0.323793 14
-1.48073 -2.21493 -0.416966 42
-1.4765 -2.21353 -0.605326 44
-3.30613 -4.97482 1.58902 11
-3.72174 -5.58023 1.29586 4
-3.70728 -5.54179 0.813234 8
-1.48631 -2.2133 0.137905 15
-1.49303 -2.22168 -0.046118 42
-1.49285 -2.22222 -0.230719 41
-1.17661 -1.22213 -0.322364 14
-1.48734 -2.21645 -0.417749 42
-1.48442 -2.21703 -0.607011 42
-3.31685 -4.9328 1.58126 11
-3.74776 -5.55391 1.29443 8
-3.73443 -5.51754 0.812626 9
-1.50246 -2.21142 0.138298 15
-1.50503 -2.21357 -0.046118 41
-1.50625 -2.21618 -0.230937 42
-1.19177 -1.22453 -0.324745 12
-1.50346 -2.2145 -0.418923 41
-1.49775 -2.21098 -0.607573 42
-3.30251 -4.89296 1.57028 12
-3.75195 -5.53923 1.29252 4
-3.75241 -5.52333 0.814451 8
-1.50772 -2.21086 0.138429 15
-1.51311 -2.21714 -0.0462489 41
-1.51151 -2.2156 -0.231154 41
-1.18876 -1.21719 -0.323317 12
-1.5101 -2.21596 -0.419706 41
-1.50708 -2.21643 -0.609819 42
-3.21139 -3.25628 1.04613 2
-3.31313 -4.85364 1.56317 12
-3.77813 -5.51545 1.29157 4
-3.22368 -3.27098 0.398738 3
-3.7518 -5.46064 0.808062 8
-2.13885 -2.17014 0.0525754 36
-1.52069 -2.205 0.138559 14
-1.52753 -2.21331 -0.0463361 41
-1.52874 -2.21587 -0.232024 41
-1.19856 -1.21444 -0.324269 9
-1.52447 -2.2121 -0.420489 41
-1.52141 -2.21253 -0.610942 42
-3.22507 -3.25989 1.04893 3
-3.30387 -4.82194 1.55477 12
-3.2288 -3.26364 0.719964 8
-3.77525 -5.49064 1.28728 4
-3.20661 -3.24234 0.395905 12
-3.79932 -5.50926 0.816277 8
-2.17253 -2.1966 0.0533171 39
-1.53162 -2.21262 0.139214 14
-1.53402 -2.21525 -0.232242 41
-1.1955 -1.20712 -0.32284 9
-1.53113 -2.2135 -0.421272 41
-1.52665 -2.21188 -0.611503 42
-3.24439 -3.24411 1.04949 4
-3.30984 -4.77677 1.54572 12
-3.24585 -3.24669 0.719964 8
-3.83334 -5.51313 1.29729 4
-3.23763 -3.23959 0.397648 9
-3.87208 -5.55242 0.825708 9
-2.18577 -2.18696 0.0533607 39
-1.54747 -2.21071 0.139606 12
-1.54702 -2.20923 -0.232459 41
-1.20701 -1.20604 -0.324269 8
-1.54694 -2.21153 -0.422447 41
-1.54378 -2.21186 -0.613749 44
-3.29889 -4.74321 1.53667 12
-3.88224 -5.56281 1.31063 8
-3.8775 -5.53955 0.824795 9
-2.19844 -2.19197 0.0535789 39
-1.55562 -2.21414 0.139999 12
-1.55659 -2.21468 -0.233329 41
-1.20563 -1.20047 -0.323317 8
-1.55504 -2.2149 -0.423622 41
-1.55042 -2.21316 -0.614872 44
-3.30287 -4.69622 1.52698 12
-3.90707 -5.53639 1.3092 8
-3.90645 -5.51917 0.824795 9
-2.21522 -2.18569 0.0537098 38
-1.56142 -2.19781 0.139475 11
-1.5571 -1.53478 -0.263776 15
-1.57142 -2.21029 -0.233764 41
-1.2189 -1.20103 -0.325221 9
-1.56947 -2.21076 -0.424405 41
-1.56761 -2.21297 -0.617118 44
-5.49568 -5.3988 1.76769 12
-3.29436 -4.66676 1.51923 12
-3.91628 -5.52688 1.30873 8
-5.48798 -5.39497 0.670228 14
-3.91033 -5.50425 0.823578 8
-2.22476 -2.18669 0.0538407 38
-1.5696 -2.20119 0.139868 11
-1.56331 -1.53553 -0.264385 15
-1.21223 -1.19031 -0.32284 4
-1.57147 -2.21023 -0.617118 42
-5.60344 -5.44537 1.79296 11
-3.30415 -4.62724 1.51212 12
-3.93088 -5.48634 1.30396 4
-5.61531 -5.46068 0.682212 12
-3.91691 -5.45076 0.818711 8
-2.24694 -2.18546 0.0541025 36
-1.58294 -2.19469 0.139999 9
-1.17407 -1.6245 -0.0343812 11
-1.57516 -1.53051 -0.264993 15
-1.22394 -1.18886 -0.324269 4
-1.5905 -2.2116 -0.619926 44
-5.65574 -5.47893 1.80699 12
-3.29676 -4.59985 1.50501 11
-5.65453 -5.47774 1.23857 12
-3.93043 -5.46551 1.30063 3
-5.53539 -5.36422 0.671317 1
-2.26152 -2.19197 0.0543642 39
-1.59553 -2.20408 0.140784 9
-1.1652 -1.60624 -0.0340322 12
-1.5814 -1.53121 -0.265602 15
-1.22778 -1.18842 -0.324745 4
-1.59862 -2.21475 -0.621611 44
-5.69761 -5.46004 1.81093 12
-3.30523 -4.56101 1.4979 11
-5.68491 -5.44976 1.23896 12
-5.68026 -5.44719 0.68548 14
-2.27838 -2.18528 0.0544951 38
-1.61293 -2.20376 0.141307 8
-1.17654 -1.60415 -0.0341195 12
-1.59298 -1.52634 -0.26621 15
-1.23221 -1.18028 -0.324269 4
-1.61449 -2.21226 -0.623295 44
-5.70266 -5.44772 1.8098 12
-3.29048 -4.52396 1.48756 4
-5.70335 -5.44836 1.24091 12
-5.68976 -5.43727 0.68548 14
-2.28943 -2.18821 0.0546697 36
-1.61972 -2.20497 0.141569 4
-1.17638 -1.59806 -0.0340322 12
-1.59923 -1.52698 -0.266819 14
-1.23605 -1.17982 -0.324745 9
-1.61979 -2.21141 -0.623857 44
-5.73559 -5.42013 1.81093 12
-3.30127 -4.48915 1.48175 4
-5.72462 -5.41164 1.23935 11
-5.72177 -5.41083 0.685916 12
-3.28777 -4.44158 0.673284 1
-2.30812 -2.18306 0.0548442 36
-1.6357 -2.20248 0.141961 3
-1.18325 -1.58987 -0.0339886 14
-1.24578 -1.1767 -0.325697 9
-1.15631 -1.5557 -0.30186 12
-1.63713 -2.21074 -0.626103 45
-5.7344 -5.4001 1.80756 11
-3.29047 -4.4581 1.47335 1
-5.73585 -5.40333 1.23974 12
-5.72033 -5.39058 0.684608 12
-3.28665 -4.42387 0.671458 3
-2.32141 -2.18719 0.0550623 36
-1.63657 -2.19562 0.1417 3
-1.18453 -1.5858 -0.0339449 14
-1.25319 -1.17957 -0.327126 8
-1.15756 -1.5517 -0.301468 14
-2.2719 -2.13316 -0.825095 11
-1.64244 -2.20984 -0.626664 44
-5.78314 -5.38725 1.81373 9
-3.30444 -4.42668 1.46882 2
-5.77946 -5.38568 1.24286 9
-5.7731 -5.38163 0.687441 8
-2.33831 -2.18012 0.0551932 36
-1.65142 -2.19072 0.141961 3
-1.19159 -1.57737 -0.0339013 14
-1.26315 -1.17611 -0.328078 9
-1.16593 -1.54541 -0.301468 14
-2.26534 -2.10481 -0.818629 8
-1.65875 -2.20677 -0.628349 42
-5.87909 -5.45937 1.84125 8
-3.28324 -4.38222 1.4559 14
-5.892 -5.47135 1.26511 9
-5.87556 -5.45797 0.698553 11
-2.35127 -2.18454 0.0554114 36
-1.66426 -2.1998 0.142746 2
-1.19735 -1.57928 -0.0339886 14
-1.2652 -1.17391 -0.328078 9
-1.16714 -1.5414 -0.301077 15
-2.27079 -2.10249 -0.819275 8
-1.66699 -2.20971 -0.630034 44
-5.92289 -5.44067 1.84574 9
-3.29303 -4.34764 1.45008 14
-5.91875 -5.43875 1.26472 9
-5.91506 -5.43724 0.699861 11
-2.37189 -2.18065 0.0556295 36
-1.67575 -2.19105 0.142746 2
-1.20712 -1.57497 -0.0340322 14
-1.27495 -1.17058 -0.329031 9
-1.17643 -1.53744 -0.301468 15
-2.28355 -2.0922 -0.819922 8
-1.68001 -2.20289 -0.630595 42
-5.92424 -5.42478 1.84349 9
-3.2904 -4.32841 1.44556 14
-5.92365 -5.42611 1.26394 9
-5.92086 -5.42355 0.699425 11
-2.38491 -2.18495 0.0558477 36
-1.21139 -1.57485 -0.0340758 14
-1.28424 -1.17498 -0.330935 11
-1.18061 -1.53735 -0.30186 14
-2.28184 -2.08333 -0.817982 4
-5.9634 -5.4035 1.84686 9
-5.94466 -5.38839 1.26238 9
-5.93348 -5.38013 0.697682 11
-2.4052 -2.18124 0.0560658 36
-0.7133 -0.64797 -0.0488345 30
-1.22393 -1.57463 -0.0342067 14
-2.40409 -2.17719 -0.393383 36
-1.29017 -1.16846 -0.330935 9
-1.19015 -1.5331 -0.302251 14
-2.29773 -2.07661 -0.819922 4
-5.96646 -5.38922 1.84518 9
-5.95405 -5.37801 1.26238 9
-5.9521 -5.37811 0.698771 9
-2.41642 -2.18374 0.0562404 35
-0.714429 -0.646724 -0.0488345 32
-1.22974 -1.57644 -0.034294 14
-2.41526 -2.17964 -0.3946 36
-1.29403 -1.16785 -0.331411 11
-1.19434 -1.53297 -0.302643 14
-2.29597 -2.06775 -0.817982 4
-2.43528 -2.17772 0.0564149 35
-0.716056 -0.641186 -0.0487033 30
-1.24261 -1.57588 -0.0344249 14
-2.4396 -2.17853 -0.396729 36
-1.29647 -1.15779 -0.330459 11
-1.20235 -1.5267 -0.302643 14
-2.31037 -2.05892 -0.819275 4
-2.44692 -2.17969 0.0565894 35
-0.717174 -0.639935 -0.0487033 32
-1.25464 -1.58549 -0.0346867 14
-2.44525 -2.17591 -0.397034 36
-1.30399 -1.16042 -0.331888 12
-1.20654 -1.52654 -0.303034 14
-2.31071 -2.05127 -0.817982 8
-6.57329 -5.79291 0.763484 3
-2.47143 -2.17841 0.0568948 35
-0.718641 -0.634522 -0.048572 32
-1.2632 -1.57868 -0.0346867 14
-2.47003 -2.17412 -0.399163 36
-1.31025 -1.15335 -0.331888 9
-1.21939 -1.52579 -0.304209 14
-2.32505 -2.04233 -0.819275 8
-6.49248 -5.69963 1.98331 3
-6.34315 -5.56857 1.32832 2
-6.55719 -5.75842 0.760434 3
-2.47711 -2.17574 0.0569385 35
-0.721624 -0.634913 -0.0487033 32
-1.27375 -1.58624 -0.0349048 14
-2.48129 -2.17635 -0.40038 35
-1.31411 -1.15268 -0.332364 9
-1.22821 -1.53137 -0.305775 14
-2.32679 -2.03668 -0.818629 9
-6.46251 -5.61172 1.96478 3
-6.37408 -5.5369 1.32871 2
-6.60981 -5.74361 0.763049 4
-2.49602 -2.1693 0.057113 33
-0.717397 -0.62458 -0.0481782 32
-1.28361 -1.58149 -0.0349484 14
-2.5039 -2.17308 -0.402206 36
-1.32383 -1.14899 -0.333316 9
-1.23749 -1.52706 -0.306166 14
-2.33925 -2.02605 -0.819275 8
-6.42526 -5.56171 1.95075 3
-6.38651 -5.53011 1.32949 2
-6.59347 -5.70925 0.759998 3
-2.50925 -2.17311 0.0573311 30
-0.716598 -0.621693 -0.0480469 32
-1.29267 -1.58701 -0.035123 14
-2.51482 -2.17564 -0.403423 35
-1.32026 -1.14187 -0.331888 9
-1.24792 -1.5345 -0.308124 12
-2.34095 -2.02039 -0.818629 8
-6.4728 -5.54384 1.95636 2
-6.43788 -5.51587 1.33418 2
-6.64119 -5.692 0.762177 3
-2.53009 -2.16807 0.0575493 30
-0.717946 -0.616309 -0.0479156 32
-1.30571 -1.58602 -0.0352539 14
-2.53749 -2.17212 -0.405248 35
-1.33742 -1.14451 -0.334745 11
-1.25907 -1.53176 -0.308907 12
-2.35701 -2.0128 -0.820569 8
-6.49173 -5.54044 1.95917 2
-6.48415 -5.53396 1.34159 3
-6.5555 -5.59679 0.751065 2
-2.54376 -2.17132 0.0577675 26
-0.711529 -0.608451 -0.0473905 32
-1.31987 -1.59703 -0.0355593 14
-2.54732 -2.17207 -0.406161 35
-1.34148 -1.14353 -0.335221 9
-1.27297 -1.5427 -0.311648 12
-2.35535 -2.00358 -0.818629 9
-6.57851 -5.54735 1.97545 8
-6.54046 -5.51721 1.34666 1
-6.56097 -5.53646 0.748014 2
-2.56731 -2.16675 0.0580292 23
-0.716825 -0.606077 -0.0475218 32
-1.32877 -1.58963 -0.0355593 14
-2.57497 -2.17015 -0.408595 35
-1.35536 -1.14234 -0.337125 11
-1.28184 -1.53534 -0.311648 12
-2.3739 -1.99661 -0.821215 9
-6.63198 -5.57463 1.98893 12
-6.58221 -5.53279 1.3533 1
-6.5935 -5.54423 0.750629 2
-4.54957 -5.45307 0.866476 12
-2.58257 -2.17192 0.058291 18
-0.706412 -0.59519 -0.0467341 32
-1.33795 -1.59499 -0.0357338 14
-2.58066 -2.16725 -0.408899 35
-1.35171 -1.13524 -0.335697 11
-1.29558 -1.54638 -0.314388 14
-2.37367 -1.98936 -0.819922 8
-1.17108 -1.39997 -0.412723 4
-6.68078 -5.55423 1.99454 14
-6.48767 -5.39564 1.32793 1
-4.58843 -5.45688 1.37783 11
-6.65499 -5.5367 0.754333 12
-4.64679 -5.51079 0.879559 11
-2.60352 -2.16635 0.0585092 15
-1.83661 -2.17054 0.147195 9
-0.715279 -0.59627 -0.0471279 32
-1.3495 -1.59178 -0.0358211 14
-2.60343 -2.16322 -0.410724 35
-1.35952 -1.12971 -0.336173 11
-1.3034 -1.5398 -0.314388 12
-2.3915 -1.98307 -0.822508 8
-1.17212 -1.38636 -0.410476 8
-6.70825 -5.55927 2.00016 14
-6.67106 -5.53041 1.36383 14
-4.65962 -5.52205 1.39642 11
-6.67999 -5.53779 0.756076 14
-4.66665 -5.51675 0.881688 12
-2.61499 -2.16818 0.0586837 14
-1.85292 -2.1829 0.148242 4
-0.704782 -0.585467 -0.0463403 32
-1.36359 -1.60277 -0.0361265 14
-2.6202 -2.1702 -0.412854 35
-1.3596 -1.12578 -0.335697 12
-1.31883 -1.55261 -0.31752 14
-2.39123 -1.97582 -0.821215 8
-1.17116 -1.38079 -0.409353 8
-6.66567 -5.46539 1.97882 12
-6.6961 -5.49227 1.36305 14
-4.70024 -5.51334 1.40023 12
-6.69252 -5.49127 0.754333 14
-4.69225 -5.48847 0.88108 14
-2.62786 -2.15651 0.0587273 11
-1.86594 -2.17506 0.148372 4
-0.711598 -0.585057 -0.0466028 32
-1.37168 -1.59585 -0.0361265 14
-2.64113 -2.16431 -0.414375 35
-1.37668 -1.1282 -0.338554 11
-1.32828 -1.54779 -0.317912 14
-2.40868 -1.9698 -0.823802 8
-1.17047 -1.36537 -0.406546 9
-6.61577 -5.40713 1.96141 11
-6.63589 -5.42549 1.34901 12
-4.71463 -5.51073 1.40166 11
-6.68667 -5.46698 0.75259 12
-4.69925 -5.47921 0.880776 12
-2.64517 -2.16299 0.0590328 9
-1.87748 -2.1816 0.149027 4
-0.710684 -0.582235 -0.0464716 33
-1.38098 -1.60104 -0.036301 14
-2.65798 -2.17114 -0.416505 35
-1.3255 -1.53695 -0.174181 12
-1.38055 -1.12735 -0.33903 12
-1.33419 -1.54922 -0.318695 14
-2.40462 -1.9595 -0.821215 8
-1.16944 -1.35983 -0.405423 9
-6.62883 -5.36016 1.95692 11
-6.63925 -5.37048 1.34393 12
-4.73605 -5.47936 1.39976 9
-6.6794 -5.40487 0.748668 12
-4.72463 -5.45077 0.880167 11
-0.707797 -0.573922 -0.0460777 32
-1.39234 -1.59781 -0.0363883 14
-2.6809 -2.16655 -0.41833 35
-1.34794 -1.54715 -0.176138 14
-1.38815 -1.12189 -0.339506 12
-1.3501 -1.55178 -0.320653 14
-2.42203 -1.95336 -0.823802 8
-1.17336 -1.35 -0.4043 9
-6.63724 -5.34975 1.95692 11
-6.63422 -5.3492 1.3412 14
-4.74882 -5.4748 1.40071 8
-6.65005 -5.36194 0.74431 12
-4.73969 -5.45084 0.881384 11
-0.708798 -0.572686 -0.0460777 33
-1.39841 -1.59914 -0.0364755 14
-2.6959 -2.17167 -0.420156 35
-1.35064 -1.5448 -0.176138 14
-1.39775 -1.12562 -0.341411 12
-1.35442 -1.55129 -0.321044 14
-2.41602 -1.94157 -0.820569 8
-1.16112 -1.33159 -0.399246 11
-6.6785 -5.32555 1.96085 9
-6.65634 -5.30977 1.34003 12
-4.77647 -5.45069 1.40071 8
-6.65958 -5.31424 0.742349 12
-4.77144 -5.42968 0.881993 9
-0.709735 -0.567535 -0.0459465 33
-1.41474 -1.60143 -0.0366937 14
-2.71305 -2.16216 -0.421069 35
-1.39383 -1.11089 -0.33903 12
-1.36416 -1.54603 -0.321436 14
-1.16165 -1.31817 -0.397 4
-6.72691 -5.34688 1.97265 11
-6.69846 -5.32426 1.34666 14
-4.7876 -5.44419 1.40119 8
-6.68249 -5.31345 0.743874 12
-4.80551 -5.44928 0.886556 8
-0.710725 -0.566296 -0.0459465 33
-1.41753 -1.59896 -0.0366937 14
-2.73237 -2.16976 -0.423502 35
-1.37175 -1.5492 -0.32261 14
-1.14304 -1.29236 -0.3897 3
-6.78064 -5.32997 1.97995 8
-3.32248 -3.74932 1.33118 2
-6.74566 -5.30438 1.35057 14
-4.83396 -5.43924 1.40643 4
-6.76504 -5.3215 0.749975 11
-4.88512 -5.4815 0.895988 4
-0.715643 -0.564109 -0.0460777 33
-1.43088 -1.59711 -0.0368246 14
-2.75736 -2.16615 -0.425632 32
-1.13684 -1.27179 -0.385208 4
-6.98846 -5.47554 2.03834 9
-3.2665 -3.67307 1.30598 1
-6.92309 -5.42627 1.38452 11
-4.94301 -5.54259 1.4355 8
-4.93835 -5.5238 0.904202 9
-0.710729 -0.558242 -0.0456839 33
-1.43866 -1.6002 -0.0369555 14
-2.76858 -2.16793 -0.426849 15
-1.12749 -1.25727 -0.381277 3
-3.29795 -3.67088 1.31115 4
-4.99891 -5.54851 1.4436 11
-5.00045 -5.53471 0.910287 9
-0.707721 -0.549927 -0.0452901 33
-1.4501 -1.59661 -0.0370427 14
-1.14221 -1.2604 -0.384085 4
-3.28497 -3.64357 1.30339 4
-5.01777 -5.54801 1.44599 12
-5.02009 -5.53701 0.912112 11
-0.70868 -0.54869 -0.0452901 33
