# .PCD v0.7 - Point Cloud Data file format
VERSION 0.7
FIELDS x y z intensity
SIZE 4 4 4 4
TYPE F F F F
COUNT 1 1 1 1
WIDTH 1565
HEIGHT 1
VIEWPOINT 0 0 0 1 0 0 0
POINTS 1565
DATA ascii
-0.611476 -2.21912 -0.119198 4
-0.217017 -2.279 -0.0393552 90
-0.217192 -2.28075 -0.197014 70
-0.615204 -2.2266 -0.441406 4
-0.215211 -2.27637 -0.357064 52
-0.616683 -2.22597 -0.609122 4
-0.212123 -2.26842 -0.517167 45
-0.521924 -5.70306 1.5231 21
-0.530683 -5.67899 1.10093 15
-0.610717 -2.20586 0.19719 14
-0.535588 -5.65706 0.692451 18
-0.614369 -2.21602 0.0395297 3
-0.219947 -2.27596 0.118018 59
-0.614011 -2.21324 -0.118936 11
-0.220995 -2.27862 -0.0393552 90
-0.220938 -2.27789 -0.196796 71
-0.615793 -2.2137 -0.439025 3
-0.219647 -2.28091 -0.357847 52
-0.622907 -2.23176 -0.611062 4
-0.216534 -2.27289 -0.51829 45
-0.55 -5.6713 1.51535 14
-0.557064 -5.64194 1.09426 14
-0.625358 -2.21211 0.198061 9
-0.560794 -5.59976 0.685758 20
-0.621872 -2.19834 0.0392679 12
-0.232506 -2.27722 0.118148 56
-0.622865 -2.20038 -0.118411 11
-0.23332 -2.27739 -0.0393552 90
-0.233358 -2.28166 -0.197231 68
-0.630449 -2.21978 -0.44093 3
-0.231587 -2.27972 -0.357847 52
-0.631933 -2.21918 -0.608475 4
-0.228111 -2.26442 -0.516605 45
-0.554957 -5.61986 1.50178 12
-0.560584 -5.57747 1.08187 15
-0.622387 -2.18707 0.195883 8
-0.570337 -5.60628 0.68667 24
-0.62708 -2.20206 0.0393552 9
-0.236587 -2.28182 0.11841 52
-0.62739 -2.20169 -0.118542 9
-0.237041 -2.2745 -0.0393115 90
-0.237087 -2.27877 -0.197014 64
-0.634999 -2.22104 -0.441406 3
-0.235068 -2.2744 -0.357064 52
-0.640473 -2.23432 -0.613002 4
-0.232153 -2.2689 -0.517728 45
-0.581168 -5.59536 1.49596 14
-0.590597 -5.59164 1.0852 15
-0.636925 -2.19585 0.196972 9
-0.600731 -5.61308 0.687887 14
-0.639614 -2.20366 0.0394424 11
-0.248266 -2.27807 0.118279 50
-0.637828 -2.19609 -0.118411 9
-0.248816 -2.27575 -0.0393552 90
-0.249148 -2.28249 -0.197449 64
-0.651048 -2.23429 -0.444739 3
-0.247235 -2.2756 -0.357455 52
-0.654488 -2.24032 -0.615588 4
-0.243774 -2.26523 -0.517167 45
-0.591436 -5.59914 1.49726 14
-0.601655 -5.60281 1.08759 14
-0.642155 -2.19951 0.197408 8
-0.607065 -5.57995 0.683932 27
-0.646269 -2.21214 0.039617 8
-0.251972 -2.27515 0.118148 45
-0.64517 -2.20695 -0.119067 8
-0.252788 -2.27531 -0.0393552 90
-0.648045 -2.2125 -0.27838 8
-0.252862 -2.27958 -0.197231 64
-0.653562 -2.22844 -0.443787 3
-0.251206 -2.27516 -0.357455 50
-0.661811 -2.25075 -0.618821 23
-0.248247 -2.26965 -0.51829 47
-0.628528 -5.57763 1.0833 17
-0.653663 -2.19612 0.197408 4
-0.644091 -5.64574 0.692451 27
-0.659273 -2.21351 0.0397042 4
-0.263034 -2.26636 0.117756 41
-0.660675 -2.21539 -0.119723 3
-0.264698 -2.27396 -0.0393552 90
-0.666023 -2.23047 -0.281118 11
-0.265475 -2.28065 -0.197449 64
-0.670152 -2.24144 -0.44712 50
-0.263115 -2.27382 -0.357455 52
-0.674281 -2.24957 -0.619468 61
-0.260127 -2.26832 -0.51829 45
-0.643396 -5.61299 1.09045 21
-0.658927 -2.19974 0.197844 3
-0.652809 -5.63474 0.691234 29
-0.669277 -2.23139 0.0400533 11
-0.268137 -2.27582 0.118279 41
-0.672451 -2.24053 -0.121167 30
-0.269242 -2.27846 -0.0394424 90
-0.673493 -2.24118 -0.282639 53
-0.268594 -2.27276 -0.196796 61
-0.674064 -2.24027 -0.44712 53
-0.267366 -2.2758 -0.357847 49
-0.681396 -2.25752 -0.622054 64
-0.264086 -2.26786 -0.51829 47
-0.669875 -5.58517 1.08568 23
-0.67009 -2.19377 0.197626 4
-0.680912 -5.61142 0.6888 29
-0.682416 -2.23264 0.0401405 52
-0.280446 -2.27433 0.118279 39
-0.690026 -2.25608 -0.122218 53
-0.280963 -2.27201 -0.0393552 90
-0.689251 -2.24937 -0.28416 58
-0.28109 -2.27627 -0.197231 61
-0.689059 -2.24597 -0.449024 53
-0.279279 -2.27437 -0.357847 49
-0.693918 -2.25623 -0.622701 61
-0.276063 -2.26398 -0.517728 45
-0.679622 -5.584 1.08568 23
-0.67685 -2.20211 0.198497 4
-0.687019 -5.58818 0.686062 29
-0.692201 -2.25055 0.0404896 52
-0.283714 -2.27141 0.118148 35
-0.693962 -2.25487 -0.122218 55
-0.284928 -2.27151 -0.0393552 88
-0.693515 -2.25065 -0.284465 55
-0.285671 -2.28072 -0.197666 59
-0.694429 -2.24945 -0.449977 53
-0.283548 -2.27633 -0.358238 49
-0.699286 -2.25963 -0.623994 65
-0.279912 -2.26596 -0.51829 45
-0.696435 -5.56758 1.49209 15
-0.706343 -5.56831 1.0833 20
-0.685007 -2.18915 0.197626 3
-0.722855 -5.6362 0.692451 21
-0.707325 -2.25895 0.0407077 55
-0.294969 -2.26494 0.117887 32
-0.706507 -2.25359 -0.122349 55
-0.29674 -2.27252 -0.0393988 85
-0.706779 -2.25172 -0.285073 56
-0.297292 -2.27672 -0.197449 59
-0.709492 -2.25762 -0.452358 53
-0.295776 -2.27727 -0.35863 49
-0.709986 -2.25376 -0.623348 64
-0.291773 -2.26447 -0.51829 45
-1.68585 -5.34178 1.28309 1
-0.704944 -5.55677 1.4895 15
-1.68847 -5.35326 0.881517 1
-0.722326 -5.60833 1.0914 14
-0.689576 -2.19033 0.197844 3
-0.733326 -5.63985 0.693059 23
-0.710908 -2.2552 0.0406641 53
-0.298921 -2.26442 0.117887 27
-0.712697 -2.25949 -0.122743 55
-0.300706 -2.272 -0.0393988 80
-0.710708 -2.25049 -0.285073 53
-0.301587 -2.27867 -0.197666 58
-0.711948 -2.25169 -0.451405 61
-0.299433 -2.2743 -0.358238 49
-0.717238 -2.26159 -0.625934 59
-0.295414 -2.26154 -0.517728 45
-1.72443 -5.36272 1.29039 1
-0.74035 -5.59358 1.50049 14
-1.73102 -5.38636 0.888541 1
-0.753302 -5.61663 1.09378 15
-0.704465 -2.19605 0.198715 3
-0.766811 -5.65793 0.695797 29
-0.722706 -2.25145 0.0406641 55
-0.311503 -2.26525 0.118018 23
-0.723753 -2.25335 -0.122611 53
-0.313666 -2.27529 -0.0394861 76
-0.725158 -2.25369 -0.285986 55
-0.313179 -2.27459 -0.197449 58
-0.726382 -2.25482 -0.452834 55
-0.311007 -2.27025 -0.357847 49
-0.728326 -2.25551 -0.625287 61
-0.308616 -2.26715 -0.519413 45
-1.7396 -5.38087 1.29544 1
-0.755215 -5.63058 1.51083 14
-1.82533 -5.64914 0.932636 27
-0.768358 -5.65422 1.10141 20
-0.706764 -2.19008 0.198279 4
-0.778713 -5.67885 0.698536 35
-0.729713 -2.2597 0.0408386 90
-0.314045 -2.25734 0.117625 20
-0.727685 -2.25209 -0.122611 59
-0.317297 -2.27227 -0.0394424 74
-0.730228 -2.25727 -0.286594 56
-0.317826 -2.27898 -0.197884 58
-0.731075 -2.25588 -0.45331 53
-0.315637 -2.2746 -0.35863 49
-0.733756 -2.25883 -0.626581 59
-0.31185 -2.26425 -0.518851 45
-1.85616 -5.64009 1.36058 24
-0.786022 -5.64343 1.51535 15
-1.82941 -5.5621 0.919758 27
-0.800033 -5.67213 1.1057 24
-0.72251 -2.20067 0.199587 3
-0.80774 -5.66978 0.697927 30
-0.739578 -2.25123 0.0407514 56
-0.326212 -2.25813 0.117756 17
-0.739074 -2.24837 -0.122611 53
-0.328793 -2.27063 -0.0394424 71
-0.741259 -2.25106 -0.28629 56
-0.329006 -2.27487 -0.197666 55
-0.741714 -2.24982 -0.452834 53
-0.327543 -2.27292 -0.35863 49
-0.74518 -2.25508 -0.626581 61
-0.324381 -2.26741 -0.519974 45
-1.85812 -5.61636 1.35553 15
-0.798218 -5.65879 1.51987 15
-1.85852 -5.6175 0.929514 24
-0.808551 -5.66101 1.10379 21
-0.725567 -2.19704 0.199369 3
-0.814465 -5.64625 0.695189 27
-0.743506 -2.24993 0.0407514 55
-0.330152 -2.25756 0.117756 15
-0.746138 -2.25656 -0.123137 53
-0.333113 -2.27253 -0.0394861 67
-0.74675 -2.25448 -0.286899 59
-0.333331 -2.27676 -0.197884 55
-0.746413 -2.25085 -0.45331 53
-0.331509 -2.27234 -0.35863 49
-0.750641 -2.25836 -0.627874 59
-0.32765 -2.26202 -0.518851 45
-1.88537 -5.59699 1.35328 15
-0.825749 -5.6402 1.516 15
-1.88396 -5.59599 0.927563 21
-0.835678 -5.6397 1.10046 18
-0.737856 -2.19557 0.199587 3
-0.841462 -5.62473 0.693059 27
-0.75767 -2.25311 0.0408823 56
-0.341599 -2.25333 0.117625 15
-0.75674 -2.24776 -0.122874 53
-0.345008 -2.27075 -0.0394861 67
-0.759338 -2.25289 -0.287203 56
-0.345645 -2.27492 -0.197884 55
-0.75976 -2.25156 -0.454262 53
-0.343402 -2.27057 -0.35863 49
-0.762455 -2.2544 -0.627874 61
-0.339846 -2.26268 -0.519413 45
-1.89201 -5.58446 1.35103 15
-0.833832 -5.6268 1.51277 15
-1.88659 -5.57165 0.924051 20
-0.843243 -5.61624 1.09617 17
-0.740089 -2.18956 0.199151 3
-0.849061 -5.60853 0.691234 26
-0.758784 -2.24219 0.0407077 52
-0.346278 -2.25767 0.117887 14
-0.76387 -2.25589 -0.123399 53
-0.349345 -2.27262 -0.0395297 62
-0.763269 -2.25156 -0.287203 59
-0.349615 -2.27432 -0.197884 55
-0.763689 -2.25023 -0.454262 52
-0.347733 -2.27241 -0.359021 49
-0.767561 -2.25522 -0.628521 61
-0.344155 -2.26449 -0.519974 45
-1.91663 -5.55802 1.3471 15
-0.862074 -5.60788 1.50889 15
-1.83297 -5.31858 0.883468 1
-0.870387 -5.5972 1.09331 17
-0.753548 -2.19023 0.199587 3
-0.879011 -5.6014 0.69093 27
-0.772144 -2.24291 0.040795 53
-0.358875 -2.25823 0.118018 14
-0.776486 -2.25422 -0.12353 52
-0.362412 -2.27563 -0.039617 61
-0.777872 -2.25443 -0.288116 64
-0.361132 -2.27 -0.197666 50
-0.77826 -2.25302 -0.455691 53
-0.359627 -2.27056 -0.359021 47
-0.78015 -2.25345 -0.629167 61
-0.356776 -2.265 -0.520536 45
-1.92376 -5.5504 1.34598 15
-0.868539 -5.58489 1.50307 14
-0.877879 -5.58112 1.09045 17
-0.759817 -2.19598 0.20024 3
-0.886263 -5.59021 0.689713 21
-0.778514 -2.24864 0.0409259 53
-0.362031 -2.2552 0.117887 12
-0.778782 -2.24815 -0.123268 53
-0.365991 -2.27253 -0.0395733 59
-0.781412 -2.2532 -0.288116 59
-0.365484 -2.27182 -0.197884 50
-0.782192 -2.25166 -0.455691 53
-0.363974 -2.27237 -0.359413 47
-0.783287 -2.24981 -0.628521 61
-0.360711 -2.26685 -0.521097 45
-1.96252 -5.56782 1.35272 15
-0.895652 -5.57327 1.50113 14
-0.905725 -5.57419 1.08997 15
-0.769267 -2.1874 0.199805 3
-0.923108 -5.63202 0.695493 24
-0.791548 -2.24939 0.0410132 55
-0.374641 -2.2582 0.118148 12
-0.792642 -2.25124 -0.123662 53
-0.377488 -2.27065 -0.0395733 59
-0.793199 -2.24908 -0.288116 90
-0.377381 -2.2724 -0.198101 50
-0.793578 -2.24768 -0.455691 53
-0.375868 -2.27043 -0.359413 47
-0.797085 -2.25264 -0.630461 61
-0.371795 -2.26012 -0.519974 45
-1.98185 -5.59458 1.36002 15
-0.905378 -5.5717 1.50113 14
-1.98483 -5.60295 0.933807 15
-0.923763 -5.62346 1.09998 15
-0.774747 -2.19075 0.20024 3
-0.937375 -5.65734 0.69884 27
-0.794638 -2.24565 0.0409695 53
-0.376951 -2.24769 0.117625 11
-0.79657 -2.24985 -0.123662 53
-0.381041 -2.26752 -0.0395297 56
-0.797954 -2.25003 -0.28842 56
-0.381753 -2.2742 -0.198319 50
-0.799145 -2.25091 -0.456643 53
-0.380634 -2.27464 -0.360196 47
-0.801826 -2.25352 -0.631107 61
-0.376528 -2.26427 -0.521097 45
-2.02614 -5.62273 1.36957 15
-0.939312 -5.59546 1.50889 14
-2.02753 -5.62965 0.94005 23
-0.957688 -5.64516 1.10522 15
-0.785363 -2.18432 0.200022 3
-0.971564 -5.67926 0.702187 27
-0.807232 -2.24381 0.0410132 55
-0.389135 -2.24814 0.117756 11
-0.810033 -2.25035 -0.123924 53
-0.393331 -2.26796 -0.0395733 55
-0.811411 -2.25049 -0.289028 56
-0.393236 -2.26971 -0.198101 50
-0.812589 -2.25131 -0.457595 53
-0.392539 -2.27262 -0.360196 45
-0.814437 -2.25156 -0.631754 61
-0.388378 -2.26227 -0.521097 44
-2.04327 -5.64245 1.37518 23
-0.954703 -5.62716 1.51793 14
-2.04409 -5.64468 0.943172 30
-0.974141 -5.68219 1.11285 21
-0.793414 -2.19466 0.201112 3
-0.987785 -5.71424 0.70675 33
-0.812851 -2.24709 0.0411004 53
-0.392633 -2.245 0.117625 11
-0.815662 -2.25362 -0.124187 56
-0.397289 -2.26727 -0.0395733 55
-0.816184 -2.2514 -0.289333 55
-0.397197 -2.26902 -0.198101 49
-0.816517 -2.24989 -0.457595 53
-0.396086 -2.2695 -0.359804 45
-0.820019 -2.25468 -0.633047 61
-0.392737 -2.26399 -0.521659 45
-2.07292 -5.62902 1.37462 20
-0.989955 -5.65539 1.52698 15
-2.07191 -5.62926 0.942392 27
-1.00601 -5.6891 1.11523 27
-0.805755 -2.19281 0.20133 2
-1.01336 -5.68456 0.703708 23
-0.823741 -2.24046 0.0410568 55
-0.405696 -2.25029 0.118018 9
-0.827843 -2.24918 -0.124187 53
-0.409594 -2.26762 -0.039617 53
-0.827961 -2.2471 -0.289333 55
-0.410342 -2.27174 -0.198536 49
-0.829136 -2.24789 -0.458072 53
-0.407963 -2.26739 -0.359804 45
-0.833491 -2.25488 -0.63434 61
-0.404162 -2.2595 -0.521097 45
-2.0802 -5.61854 1.37293 17
-1.00652 -5.69171 1.53732 20
-2.07658 -5.61174 0.94005 23
-1.01306 -5.66541 1.11094 18
-0.812174 -2.19841 0.201983 3
-1.01496 -5.63637 0.697927 15
-0.831515 -2.24825 0.0412313 49
-0.409181 -2.24712 0.117887 9
-0.833503 -2.25241 -0.124449 52
-0.413994 -2.26936 -0.0396606 53
-0.832745 -2.24798 -0.289637 53
-0.413865 -2.26857 -0.198319 49
-0.833058 -2.24644 -0.458072 55
-0.413229 -2.27397 -0.360979 45
-0.836975 -2.25101 -0.633694 62
-0.408533 -2.26119 -0.521659 45
-2.10199 -5.58441 1.36732 15
-1.03212 -5.65766 1.52957 15
-2.1017 -5.58656 0.937709 23
-1.03386 -5.61175 1.10141 15
-0.824057 -2.19398 0.201983 2
-1.04093 -5.6064 0.694885 17
-0.840633 -2.23685 0.0411004 50
-0.422699 -2.25224 0.118279 8
-0.846165 -2.25035 -0.124581 52
-0.426267 -2.26708 -0.0396606 50
-0.845772 -2.24576 -0.289941 53
-0.426647 -2.27127 -0.198754 49
-0.846935 -2.24649 -0.459024 55
-0.424681 -2.26935 -0.360587 45
-0.84875 -2.2466 -0.633694 85
-0.420321 -2.25655 -0.521097 44
-2.10817 -5.57427 1.36563 15
-1.03851 -5.63685 1.5244 14
-2.10348 -5.56477 0.934587 21
-1.03829 -5.58098 1.09569 15
-0.830528 -2.19953 0.202637 3
-1.04701 -5.59012 0.693059 18
-0.848075 -2.24473 0.0412749 53
-0.425777 -2.24912 0.118148 4
-0.851859 -2.25354 -0.124843 52
-0.430223 -2.26634 -0.0396606 50
-0.851937 -2.25139 -0.290854 53
-0.431069 -2.27297 -0.198971 49
-0.850854 -2.24501 -0.459024 52
-0.428187 -2.26617 -0.360196 42
-0.855246 -2.25189 -0.635633 65
-0.424754 -2.26068 -0.52222 45
-2.12771 -5.53814 1.35946 15
-1.05674 -5.57694 1.50953 14
-2.12462 -5.53294 0.931075 21
-1.06285 -5.55637 1.09188 15
-0.839865 -2.19065 0.202201 3
-1.09496 -5.68204 0.705229 18
-0.861219 -2.24508 0.0413622 52
-0.437548 -2.24686 0.118148 4
-0.863647 -2.24905 -0.124843 52
-0.441688 -2.26413 -0.0396606 50
-0.864605 -2.24922 -0.291158 53
-0.442493 -2.26824 -0.198754 47
-0.865737 -2.24983 -0.460928 53
-0.440979 -2.26875 -0.360979 45
-0.866633 -2.24753 -0.635633 82
-0.436128 -2.25603 -0.521659 45
-2.13386 -5.52533 1.35721 15
-1.0624 -5.55373 1.50372 14
-2.1316 -5.52231 0.929904 24
-1.07815 -5.57842 1.09664 15
-0.845481 -2.19382 0.202637 3
-1.09686 -5.6387 0.700057 15
-0.865527 -2.24342 0.0413622 52
-0.441945 -2.24854 0.118279 3
-0.869372 -2.2522 -0.125106 52
-0.446595 -2.26826 -0.0397479 50
-0.867634 -2.24539 -0.290854 52
-0.446927 -2.26991 -0.198971 45
-0.868776 -2.24603 -0.460452 53
-0.443998 -2.26313 -0.360196 42
-0.873569 -2.25261 -0.637573 71
-0.440065 -2.25527 -0.521659 44
-2.16372 -5.5137 1.35721 14
-1.0929 -5.55027 1.50436 14
-2.16776 -5.52679 0.932636 15
-1.11068 -5.58955 1.09998 15
-0.856428 -2.1869 0.202419 3
-1.12056 -5.59862 0.695797 15
-0.878175 -2.24118 0.0414058 50
-0.454594 -2.24856 0.11841 2
-0.88024 -2.24529 -0.124974 50
-0.45837 -2.26336 -0.0397042 49
-0.882494 -2.24759 -0.291766 53
-0.459295 -2.26998 -0.199188 45
-0.881814 -2.24358 -0.460928 52
-0.45729 -2.26804 -0.36137 45
-0.885352 -2.24801 -0.637573 59
-0.452735 -2.25524 -0.52222 45
-2.19294 -5.56242 1.37013 15
-1.10915 -5.58153 1.51341 14
-2.22173 -5.63824 0.952147 26
-1.11419 -5.55631 1.09378 14
-0.862071 -2.19003 0.202855 3
-0.883003 -2.24197 0.0414495 50
-0.459112 -2.25274 0.118672 3
-0.885074 -2.24607 -0.125106 50
-0.463805 -2.26991 -0.0398351 49
-0.886936 -2.24851 -0.292071 53
-0.463256 -2.26917 -0.199188 45
-0.886632 -2.24432 -0.461405 52
-0.461248 -2.26724 -0.36137 44
-0.891055 -2.25095 -0.638867 61
-0.457233 -2.25931 -0.523343 45
-2.25012 -5.62096 1.38753 20
-1.1321 -5.54981 1.5063 14
-2.24939 -5.62194 0.951367 27
-0.876846 -2.19489 0.203727 3
-0.897126 -2.24443 0.0415804 52
-0.470395 -2.24786 0.118541 2
-0.899216 -2.24852 -0.125499 50
-0.474781 -2.26509 -0.0397915 49
-0.898696 -2.24383 -0.292071 52
-0.475241 -2.26924 -0.199406 45
-0.898895 -2.24208 -0.461881 52
-0.472113 -2.25995 -0.360587 42
-0.900633 -2.24193 -0.637573 59
-0.469057 -2.25688 -0.523343 45
-2.25076 -5.59708 1.38248 17
-2.25182 -5.59968 0.948245 26
-1.21011 -5.82979 1.14955 2
-0.882534 -2.19798 0.204162 2
-0.902909 -2.2475 0.0416676 50
-0.475338 -2.25192 0.118803 2
-0.903139 -2.24694 -0.125499 50
-0.479757 -2.26915 -0.0398787 49
-0.904467 -2.24686 -0.292679 53
-0.478691 -2.26597 -0.199188 45
-0.905562 -2.24733 -0.463309 52
-0.477065 -2.26396 -0.36137 42
-0.90545 -2.24259 -0.63822 59
-0.472995 -2.25606 -0.523343 44
-2.27548 -5.57129 1.37911 15
-1.22351 -5.79228 1.5748 8
-2.27457 -5.57181 0.945513 24
-1.23705 -5.80657 1.14621 11
-0.899679 -2.20716 0.20547 3
-0.914664 -2.24275 0.0416676 52
-0.485553 -2.24208 0.11841 2
-0.916228 -2.24434 -0.125631 50
-0.491632 -2.2666 -0.0398787 47
-0.918099 -2.24669 -0.293288 53
-0.49199 -2.26821 -0.199623 44
-0.919178 -2.2471 -0.464262 52
-0.489946 -2.26626 -0.362153 44
-0.919014 -2.24229 -0.639513 59
-0.484801 -2.25355 -0.523343 45
-2.2778 -5.54928 1.37462 17
-1.23362 -5.79013 1.5748 23
-2.27867 -5.55413 0.943172 26
-1.23586 -5.74659 1.13477 14
-0.904475 -2.20789 0.205688 3
-0.919918 -2.2433 0.0417112 52
-0.491048 -2.24855 0.118803 2
-0.922041 -2.24735 -0.125893 50
-0.494 -2.25841 -0.0397479 47
-0.922019 -2.24508 -0.293288 52
-0.496475 -2.26978 -0.199841 44
-0.924033 -2.24777 -0.464738 52
-0.494422 -2.26782 -0.362545 44
-0.923317 -2.24052 -0.639513 58
-0.486176 -2.24079 -0.520536 45
-2.30404 -5.52788 1.37237 18
-1.25413 -5.73382 1.56123 12
-2.30298 -5.52804 0.940831 26
-1.25751 -5.70169 1.12715 23
-0.916408 -2.20297 0.205688 3
-0.932613 -2.24076 0.0417549 52
-0.502125 -2.24099 0.118541 3
-0.934757 -2.2448 -0.126025 50
-0.507839 -2.26303 -0.0398787 45
-0.937978 -2.24922 -0.294505 53
-0.507813 -2.26472 -0.199623 44
-0.936181 -2.24273 -0.464738 52
-0.505755 -2.26279 -0.362153 41
-0.938768 -2.24457 -0.6421 59
-0.499866 -2.24527 -0.52222 39
-2.30989 -5.51752 1.37069 17
-1.25429 -5.68681 1.54895 21
-2.30594 -5.51075 0.938489 24
-0.923137 -2.20826 0.206341 3
-0.938454 -2.24374 0.0418421 52
-0.507823 -2.24994 0.119064 3
-0.941568 -2.25007 -0.126418 50
-0.508508 -2.2475 -0.039617 35
-0.94055 -2.24546 -0.2942 52
-0.510132 -2.25654 -0.198971 18
-0.940094 -2.2411 -0.464738 52
-0.507553 -2.25226 -0.360587 11
-0.944559 -2.24738 -0.643393 67
-0.502336 -2.23972 -0.521097 2
-2.34161 -5.51207 1.37237 14
-2.33863 -5.50769 0.94005 15
-0.935276 -2.20585 0.206559 3
-0.949799 -2.23896 0.0418421 52
-0.51681 -2.23508 0.11841 3
-0.953337 -2.24511 -0.126418 50
-0.519877 -2.2449 -0.039617 35
-0.951323 -2.23822 -0.293896 50
-0.520827 -2.24899 -0.198536 18
-0.954311 -2.24308 -0.466166 52
-0.518788 -2.24716 -0.360196 11
-0.954973 -2.24035 -0.642746 59
-0.515678 -2.24419 -0.522782 3
-2.37994 -5.57519 1.38922 14
-2.39284 -5.60807 0.958 27
-0.938147 -2.20192 0.206341 3
-0.955077 -2.23943 0.0418858 52
-0.521833 -2.23904 0.118672 4
-0.957254 -2.24344 -0.126418 50
-0.521542 -2.23425 -0.0394424 9
-0.959131 -2.24568 -0.295113 52
-0.522507 -2.23837 -0.197666 9
-0.959191 -2.24367 -0.466643 50
-0.521046 -2.23904 -0.359021 9
-0.961178 -2.24295 -0.64404 59
-0.51796 -2.23616 -0.521097 8
-2.43139 -5.6114 1.40157 20
-2.42609 -5.60184 0.959171 27
-0.954006 -2.20595 0.207213 3
-0.968777 -2.23899 0.041973 52
-0.532216 -2.2289 0.118279 11
-0.968987 -2.2384 -0.126418 50
-0.534775 -2.23626 -0.0395297 12
-0.972256 -2.24273 -0.295417 52
-0.533646 -2.23318 -0.197449 9
-0.972294 -2.2407 -0.467119 52
-0.532762 -2.23628 -0.359021 8
-0.973872 -2.2401 -0.644686 59
-0.529493 -2.23096 -0.520536 8
-2.43631 -5.59864 1.39933 17
-2.43095 -5.58897 0.95761 26
-0.957855 -2.20429 0.207213 3
-0.534452 -2.22958 0.276859 9
-0.975677 -2.24417 0.0421039 52
-0.535716 -2.22806 0.118279 11
-0.976881 -2.24586 -0.126944 50
-0.538097 -2.23289 -0.0394861 11
-0.974786 -2.23893 -0.295113 49
-0.538699 -2.23709 -0.197884 11
-0.977185 -2.24125 -0.467595 50
-0.536664 -2.23535 -0.359021 9
-0.978749 -2.24061 -0.645333 59
-0.534681 -2.23723 -0.52222 8
-2.4646 -5.58358 1.39876 17
-2.45519 -5.56487 0.955659 24
-0.974026 -2.2108 0.208302 3
-0.547291 -2.23158 0.277467 8
-0.988033 -2.24149 0.0421476 52
-0.547375 -2.22522 0.118279 11
-0.990645 -2.24528 -0.127206 50
-0.549985 -2.23257 -0.0395297 12
-0.989506 -2.2406 -0.296026 52
-0.549223 -2.2294 -0.197449 11
-0.990504 -2.24076 -0.468547 50
-0.547777 -2.23011 -0.35863 9
-0.992035 -2.24004 -0.646626 58
-0.544667 -2.2273 -0.520536 8
-2.46545 -5.55923 1.39371 15
-2.46089 -5.55154 0.954098 23
-0.976874 -2.20682 0.208084 3
-0.549414 -2.22339 0.276554 9
-0.992335 -2.23958 0.0421476 52
-0.552449 -2.22911 0.118541 11
-0.994562 -2.24355 -0.127206 50
-0.552686 -2.22675 -0.0394424 12
-0.995431 -2.24341 -0.296634 52
-0.554303 -2.23327 -0.197884 11
-0.995411 -2.24127 -0.469023 50
-0.552845 -2.23394 -0.359413 9
-0.999284 -2.24475 -0.648566 59
-0.548553 -2.22635 -0.520536 8
-2.49549 -5.54581 1.39371 15
-2.48177 -5.51788 0.950586 18
-0.992886 -2.21059 0.208956 3
-0.562642 -2.2252 0.277163 9
-1.00507 -2.23664 0.0421912 52
-0.565719 -2.23094 0.118803 11
-1.00937 -2.24514 -0.1276 49
-0.564116 -2.2213 -0.0393988 12
-1.00551 -2.23347 -0.296026 52
-0.565989 -2.23034 -0.197884 11
-1.00853 -2.23809 -0.469499 50
-0.563933 -2.22862 -0.359021 8
-1.00903 -2.23508 -0.647273 58
-0.562953 -2.2328 -0.522782 4
-2.49517 -5.5219 1.38866 15
-2.49552 -5.52523 0.952537 26
-0.998794 -2.21339 0.209392 3
-0.56553 -2.2219 0.276859 9
-1.01104 -2.23944 0.0422784 52
-0.566773 -2.22036 0.118279 11
-1.01432 -2.24565 -0.127731 50
-0.569835 -2.22758 -0.0395297 12
-1.01209 -2.23867 -0.296939 53
-0.571716 -2.23659 -0.198536 11
-1.01548 -2.24303 -0.470928 53
-0.566008 -2.22045 -0.357847 8
-1.01593 -2.23991 -0.649213 58
-0.565271 -2.22719 -0.521659 4
-2.52608 -5.51319 1.38978 15
-2.52545 -5.51433 0.952928 21
-1.00998 -2.20831 0.209392 3
-0.579015 -2.22612 0.277771 8
-1.02444 -2.23883 0.0423657 50
-0.581516 -2.22945 0.118933 9
-1.02463 -2.23822 -0.1276 49
-0.582356 -2.22951 -0.039617 11
-1.02691 -2.2401 -0.297851 50
-0.580533 -2.22402 -0.197666 9
-1.02579 -2.23563 -0.470452 50
-0.579478 -2.22463 -0.359021 8
-1.02927 -2.23913 -0.650506 58
-0.578745 -2.23128 -0.523343 3
-2.549 -5.5402 1.39764 14
-2.58567 -5.61982 0.972049 26
-1.01696 -2.21333 0.210045 3
-0.582899 -2.22511 0.277771 8
-1.02835 -2.23704 0.0423657 50
-0.586036 -2.23085 0.119064 9
-1.03062 -2.24096 -0.127862 49
-0.585615 -2.22607 -0.0395733 11
-1.03289 -2.24281 -0.29846 52
-0.585042 -2.22542 -0.197884 9
-1.03278 -2.24052 -0.47188 49
-0.582117 -2.21884 -0.358238 4
-1.03419 -2.23952 -0.651152 58
-0.579584 -2.21847 -0.520536 3
-2.62016 -5.61462 1.4201 15
-2.61401 -5.60397 0.971658 26
-1.02959 -2.21023 0.210263 3
-0.593906 -2.21963 0.277467 4
-1.0411 -2.23389 0.0424093 50
-0.597066 -2.22534 0.118933 8
-1.04273 -2.23535 -0.127862 50
-0.597263 -2.22297 -0.0395733 11
-1.04357 -2.23512 -0.298155 52
-0.595792 -2.21741 -0.197449 8
-1.04554 -2.23731 -0.472356 50
-0.596263 -2.2253 -0.359804 4
-1.04693 -2.23626 -0.651799 58
-0.593062 -2.22247 -0.52222 2
-2.61961 -5.58798 1.41449 15
-2.61331 -5.57704 0.967756 18
-1.03767 -2.21745 0.211135 3
-0.5997 -2.22578 0.27838 4
-1.04751 -2.23642 0.0424966 50
-0.600303 -2.22188 0.118803 9
-1.04981 -2.24031 -0.128256 52
-0.598551 -2.21227 -0.0393988 9
-1.04958 -2.23779 -0.298764 50
-0.599015 -2.21396 -0.197231 3
-1.05153 -2.23992 -0.473309 49
-0.597593 -2.21472 -0.358238 4
-1.05122 -2.23425 -0.651799 58
-0.594431 -2.21202 -0.519974 2
-2.63202 -5.53633 1.40494 14
-2.6233 -5.52045 0.960342 15
-1.05072 -2.21405 0.211353 3
-0.608466 -2.21053 0.276859 3
-1.06243 -2.23767 0.0426275 50
-0.60902 -2.20656 0.118148 12
-1.06299 -2.23685 -0.128388 50
-0.611172 -2.21141 -0.0394424 8
-1.06381 -2.23656 -0.299372 50
-0.610327 -2.20828 -0.197014 4
-1.06574 -2.23863 -0.474261 50
-0.609567 -2.21145 -0.358238 4
-1.06915 -2.24179 -0.655679 56
-0.60575 -2.20642 -0.519413 4
-2.63958 -5.52733 1.40382 14
-2.62548 -5.50026 0.95761 17
-1.0578 -2.21896 0.212006 3
-0.613639 -2.21425 0.277467 3
-1.0678 -2.23788 0.0426711 52
-0.61486 -2.21271 0.118541 9
-1.06797 -2.23724 -0.128519 50
-0.613036 -2.20311 -0.0393115 11
-1.06985 -2.23918 -0.299981 52
-0.612855 -2.20241 -0.196579 11
-1.07071 -2.23898 -0.474737 50
-0.61146 -2.20324 -0.357064 9
-1.0745 -2.24191 -0.656326 56
-0.607024 -2.19596 -0.517167 4
-2.66095 -5.49543 1.39933 14
-2.65735 -5.49042 0.958391 20
-1.07631 -2.22665 0.213314 3
-0.626281 -2.21329 0.277771 8
-1.08168 -2.23676 0.0427584 50
-0.620735 -2.18773 0.117363 11
-1.08294 -2.23836 -0.128913 50
-0.622235 -2.19014 -0.039137 9
-1.08303 -2.23559 -0.300285 52
-0.623703 -2.19678 -0.196362 9
-1.08495 -2.23757 -0.47569 50
-0.624323 -2.20477 -0.357847 8
-1.08728 -2.23843 -0.656972 55
-0.623493 -2.20906 -0.521097 4
-2.66851 -5.48905 1.39876 15
-2.67677 -5.50845 0.962293 24
-1.08128 -2.22701 0.213532 3
-0.628408 -2.20753 0.277163 9
-1.08777 -2.23937 0.0428457 52
-0.626212 -2.19395 0.117756 9
-1.08575 -2.23422 -0.128781 50
-0.626056 -2.18905 -0.039137 9
-1.08872 -2.23835 -0.300894 53
-0.627536 -2.19568 -0.196362 9
-1.08993 -2.23788 -0.476166 50
-0.628842 -2.20605 -0.358238 8
-1.09436 -2.24303 -0.658912 55
-0.627623 -2.21043 -0.521659 4
-2.70798 -5.49686 1.40438 15
-2.70121 -5.4855 0.960732 26
-1.09254 -2.22151 0.213532 3
-1.10019 -2.23607 0.0428893 50
-0.639769 -2.19784 0.118148 9
-1.09815 -2.23094 -0.128913 49
-0.641989 -2.20266 -0.0394424 9
-1.10152 -2.23484 -0.301198 52
-0.63795 -2.19009 -0.196144 9
-1.10233 -2.23453 -0.476642 50
-0.642052 -2.20996 -0.359413 4
-1.10677 -2.23963 -0.659559 56
-0.645243 -2.22818 -0.526713 4
-2.71445 -5.48823 1.40326 15
-2.71092 -5.48346 0.961122 23
-1.09973 -2.2263 0.214185 4
-1.10631 -2.23863 0.0429765 52
-0.64531 -2.20403 0.118541 9
-1.10536 -2.23573 -0.129306 49
-0.645134 -2.19914 -0.0393988 8
-1.10833 -2.23978 -0.302111 52
-0.648032 -2.21049 -0.198101 8
-1.10623 -2.23261 -0.476642 49
-0.650724 -2.22543 -0.362153 4
-1.11068 -2.2377 -0.659559 56
-0.650095 -2.23185 -0.527836 9
-2.75735 -5.50225 1.41056 15
-2.7573 -5.50451 0.967366 21
-1.11321 -2.22515 0.214621 4
-1.11651 -2.23077 0.0429329 50
-0.66535 -2.22934 0.120111 8
-1.1189 -2.23457 -0.129569 50
-0.666918 -2.23179 -0.0400533 11
-1.11893 -2.23173 -0.301806 52
-0.664874 -2.22629 -0.199841 14
-1.12082 -2.23356 -0.47807 50
-0.66727 -2.23857 -0.364894 17
-1.12525 -2.23852 -0.661498 55
-0.663149 -2.23309 -0.528959 27
-2.77475 -5.51532 1.41505 14
-2.77467 -5.51513 0.970097 20
-1.12045 -2.22988 0.215275 4
-1.12377 -2.23551 0.0430638 52
-0.668527 -2.22578 0.11998 15
-1.12617 -2.2393 -0.129963 50
-0.678676 -2.25697 -0.0405332 38
-1.1273 -2.23863 -0.303023 52
-0.680862 -2.26569 -0.203538 52
-1.12582 -2.23379 -0.478547 50
-0.675404 -2.2516 -0.367243 52
-1.13242 -2.24301 -0.663438 56
-0.671894 -2.24827 -0.532889 50
-2.85548 -5.60005 1.44088 17
-2.85511 -5.60172 0.988048 29
-1.13211 -2.22399 0.215275 4
-1.1366 -2.23183 0.0431074 50
-0.688155 -2.24853 0.121419 49
-1.13674 -2.23115 -0.129832 49
-0.691212 -2.25578 -0.0405768 52
-1.139 -2.2327 -0.303023 52
-0.691991 -2.25972 -0.20332 52
-1.13974 -2.23223 -0.479499 50
-0.690052 -2.25748 -0.368809 52
-1.14415 -2.23705 -0.663438 56
-0.685067 -2.24939 -0.534012 50
-2.86094 -5.58905 1.43919 15
-2.86038 -5.58794 0.986487 23
-1.14053 -2.23087 0.216146 4
-1.14391 -2.23651 0.0432383 52
-0.694998 -2.25688 0.121943 47
-1.14291 -2.23361 -0.130094 49
-0.696611 -2.25935 -0.0406641 53
-1.14516 -2.23512 -0.303632 52
-0.697391 -2.26327 -0.203755 52
-1.147 -2.23679 -0.480927 49
-0.693991 -2.25627 -0.368809 56
-1.15026 -2.23935 -0.664732 56
-0.689701 -2.25052 -0.534574 50
-2.87767 -5.54754 1.43246 15
-2.87709 -5.54877 0.982194 20
-1.1522 -2.22487 0.216146 4
-1.74581 -5.60277 0.715269 18
-1.15676 -2.23271 0.043282 52
-0.707548 -2.25559 0.122074 47
-1.15843 -2.23404 -0.130488 49
-0.709176 -2.25806 -0.0407077 52
-1.15685 -2.2291 -0.303632 52
-0.709626 -2.25946 -0.203755 50
-1.15869 -2.23075 -0.480927 50
-0.707262 -2.25733 -0.369592 58
-1.16309 -2.23544 -0.665378 56
-0.701475 -2.24688 -0.534574 49
-2.87834 -5.52523 1.42796 15
-2.86966 -5.51089 0.976341 20
-1.6969 -5.43519 1.09903 1
-1.15723 -2.22507 0.216364 4
-1.76595 -5.63287 0.719528 21
-1.16104 -2.23049 0.043282 52
-0.712977 -2.25911 0.122335 47
-1.16464 -2.23644 -0.130751 50
-0.713116 -2.25682 -0.0407077 50
-1.16533 -2.23587 -0.304849 52
-0.714314 -2.2606 -0.203972 52
-1.16599 -2.23526 -0.482356 50
-0.711201 -2.25609 -0.369592 52
-1.17074 -2.23962 -0.667318 55
-0.706121 -2.24798 -0.535136 49
-2.89909 -5.49234 1.42347 15
-1.71348 -5.4215 1.51212 1
-2.89021 -5.47782 0.973219 20
-1.73349 -5.45196 1.10427 1
-1.17274 -2.22538 0.217018 4
-1.8077 -5.6587 0.724092 26
-1.17504 -2.2288 0.0433692 50
-0.725189 -2.25522 0.122335 47
-1.1775 -2.23252 -0.130882 50
-0.726077 -2.25531 -0.0407514 49
-1.17741 -2.22954 -0.304849 49
-0.727657 -2.26157 -0.204407 65
-1.17922 -2.23108 -0.482832 49
-0.723004 -2.25233 -0.369592 53
-1.18245 -2.23346 -0.667318 56
-0.719749 -2.24877 -0.536259 50
-2.96134 -5.58894 1.44986 11
-1.79738 -5.65332 1.57803 15
-3.00172 -5.66746 1.00795 35
-1.80714 -5.65 1.14526 18
-1.17895 -2.22773 0.217454 4
-1.8181 -5.66058 0.7247 27
-1.1801 -2.22895 0.0434129 50
-0.730257 -2.25884 0.122597 49
-1.18373 -2.23487 -0.131144 50
-0.732308 -2.26117 -0.0408823 49
-1.1844 -2.23426 -0.305761 50
-0.731603 -2.2603 -0.204407 53
-1.18426 -2.23119 -0.483308 49
-0.728442 -2.25577 -0.370375 55
-1.19089 -2.23992 -0.669905 56
-0.724022 -2.24995 -0.53682 49
-3.04934 -5.68282 1.4785 15
-1.82968 -5.65564 1.58126 21
-3.04069 -5.66907 1.01107 15
-1.83723 -5.64545 1.14621 20
-1.19021 -2.22174 0.217454 4
-1.84463 -5.64155 0.723483 24
-1.19609 -2.23176 0.0435874 50
-0.74285 -2.25736 0.122728 49
-1.19778 -2.23304 -0.131407 50
-0.745298 -2.26219 -0.0409695 50
-1.19726 -2.23021 -0.306066 50
-0.744977 -2.26117 -0.204842 50
-1.19903 -2.23165 -0.484737 49
-0.740243 -2.25192 -0.370375 53
-1.20221 -2.23386 -0.669905 55
-0.736546 -2.24845 -0.537382 55
-3.03728 -5.63675 1.46783 15
-1.83657 -5.64325 1.57868 15
-3.03301 -5.63115 1.00522 15
-1.78176 -5.43896 1.10475 1
-1.19881 -2.22843 0.218325 4
-1.85061 -5.62653 0.721962 23
-1.20156 -2.23166 0.043631 50
-0.747568 -2.25843 0.122859 50
-1.20286 -2.23315 -0.131538 49
-0.747682 -2.25614 -0.0408823 50
-1.20351 -2.23249 -0.306674 49
-0.749701 -2.26223 -0.20506 52
-1.20409 -2.23171 -0.485213 50
-0.744172 -2.25063 -0.370375 52
-1.20879 -2.2358 -0.671198 53
-0.741227 -2.24947 -0.537943 49
-3.06891 -5.62237 1.46839 33
-1.86404 -5.62406 1.57609 15
-3.06462 -5.61683 1.00561 38
-1.81099 -5.43188 1.10522 1
-1.21085 -2.22191 0.218325 4
-1.87395 -5.59525 0.719224 21
-1.21562 -2.22973 0.0437183 50
-0.758192 -2.24961 0.122597 42
-1.21693 -2.2312 -0.131801 47
-0.762261 -2.25917 -0.0410132 52
-1.21676 -2.22812 -0.306978 45
-0.761536 -2.25827 -0.20506 52
-1.2185 -2.22947 -0.486165 49
-0.757511 -2.25139 -0.371158 61
-1.22164 -2.23155 -0.671844 56
-0.753387 -2.24543 -0.537943 49
-3.0789 -5.61968 1.46896 36
-1.86928 -5.60705 1.57222 15
-3.07462 -5.61417 1.006 39
-1.81891 -5.42406 1.10427 1
-1.21951 -2.22853 0.219197 4
-1.87879 -5.58054 0.717703 18
-1.21831 -2.22541 0.0436746 50
-0.765706 -2.26025 0.123251 47
-1.22202 -2.23126 -0.131932 47
-0.764606 -2.2531 -0.0409259 49
-1.22503 -2.23491 -0.308195 47
-0.766271 -2.2593 -0.205277 53
-1.22475 -2.23164 -0.487118 49
-0.762226 -2.2524 -0.37155 50
-1.2302 -2.23788 -0.674431 55
-0.756913 -2.24425 -0.537943 49
-3.10237 -5.59283 1.46615 21
-1.89609 -5.59294 1.57092 15
-3.09799 -5.5872 1.00405 21
-1.84555 -5.41246 1.10379 1
-1.22957 -2.22015 0.218979 4
-1.90076 -5.54949 0.714965 20
-1.2332 -2.22577 0.0438055 50
-0.77753 -2.25621 0.123251 47
-1.23733 -2.23138 -0.132326 45
-0.778432 -2.25629 -0.0410568 50
-1.23672 -2.22846 -0.308195 47
-0.778898 -2.25761 -0.205495 50
-1.23842 -2.22971 -0.48807 49
-0.77321 -2.24604 -0.371158 52
-1.24151 -2.23163 -0.674431 55
-0.771797 -2.24947 -0.540189 49
-3.13111 -5.62146 1.47513 33
-1.90119 -5.5759 1.56705 15
-3.12215 -5.60767 1.00873 35
-1.91076 -5.56912 1.13668 15
-1.23829 -2.2267 0.21985 4
-1.8403 -5.342 0.688496 1
-1.24112 -2.22995 0.0439364 50
-0.781467 -2.25485 0.123251 47
-1.24 -2.22704 -0.132195 45
-0.782368 -2.25493 -0.0410568 49
-1.24423 -2.2328 -0.309108 49
-0.783649 -2.25861 -0.205712 52
-1.2447 -2.23183 -0.489022 49
-0.777932 -2.24702 -0.37155 50
-1.24933 -2.23556 -0.676371 55
-0.774142 -2.24352 -0.539066 49
-3.16267 -5.60656 1.47569 33
-1.9258 -5.54956 1.56252 14
-3.15851 -5.60145 1.01068 35
-1.88101 -5.38984 1.10189 1
-1.8831 -5.37178 0.693668 1
-1.25401 -2.2256 0.0439801 49
-0.795306 -2.2553 0.123513 47
-1.2541 -2.22486 -0.132457 45
-0.796212 -2.25538 -0.041144 50
-1.25752 -2.2282 -0.309412 49
-0.797112 -2.25917 -0.206147 52
-1.25797 -2.22719 -0.489498 49
-0.79171 -2.24744 -0.372333 50
-1.2634 -2.23319 -0.677664 55
-0.787874 -2.24389 -0.540189 49
-3.17748 -5.61218 1.4785 33
-1.93945 -5.55759 1.56575 14
-3.17437 -5.60667 1.01263 35
-1.9577 -5.57881 1.14144 15
-1.97313 -5.5979 0.723483 18
-1.25789 -2.22341 0.0439801 47
-0.799241 -2.25391 0.123513 47
-1.26168 -2.22918 -0.132851 45
-0.799316 -2.25163 -0.0411004 49
-1.26263 -2.22816 -0.309717 49
-0.801882 -2.26013 -0.206364 61
-1.26549 -2.2314 -0.490927 49
-0.796451 -2.24839 -0.372724 50
-1.26968 -2.23518 -0.678957 55
-0.793402 -2.24711 -0.541312 49
-3.21288 -5.60603 1.48131 33
-1.97722 -5.57503 1.57351 14
-3.20885 -5.60124 1.01458 33
-2.00072 -5.61045 1.15002 15
-2.0173 -5.63224 0.729264 23
-1.27534 -2.22786 0.0441982 49
-0.813164 -2.25689 0.123905 47
-1.27457 -2.22471 -0.132982 45
-0.813232 -2.25462 -0.0412313 50
-1.27759 -2.22819 -0.310629 49
-0.812864 -2.25355 -0.206147 83
-1.27921 -2.22922 -0.491879 49
-0.808652 -2.24665 -0.373116 50
-1.28218 -2.23082 -0.679604 55
-0.805583 -2.24536 -0.541874 49
-3.22995 -5.61308 1.48468 33
-1.99909 -5.6057 1.5832 14
-3.22724 -5.61062 1.01731 33
-2.02637 -5.64819 1.1586 20
-2.03551 -5.65207 0.732306 26
-1.28211 -2.22974 0.0442855 49
-0.817101 -2.25546 0.123905 47
-1.28219 -2.22898 -0.133376 47
-0.817166 -2.25319 -0.0412313 50
-1.28396 -2.23026 -0.311238 49
-0.818485 -2.25682 -0.206582 52
-1.28678 -2.23336 -0.493308 49
-0.813408 -2.24756 -0.373507 50
-1.29129 -2.23672 -0.682191 53
-0.810323 -2.24625 -0.542435 50
-3.26641 -5.60605 1.48749 36
-2.04418 -5.63568 1.59483 15
-3.26501 -5.60588 1.01966 35
-2.06095 -5.65134 1.16146 24
-1.97836 -5.4009 0.70097 1
-1.29503 -2.22515 0.0443291 49
-0.831009 -2.2557 0.124167 47
-1.2951 -2.22439 -0.133507 47
-0.830205 -2.25109 -0.0412749 49
-1.29851 -2.22757 -0.311846 49
-0.831147 -2.25484 -0.206799 52
-1.29884 -2.22637 -0.493308 47
-0.82686 -2.24791 -0.37429 49
-1.30299 -2.22992 -0.682191 53
-0.823299 -2.24412 -0.542997 49
-3.27644 -5.60301 1.48805 29
-2.06227 -5.6548 1.60129 17
-3.26758 -5.59008 1.0177 15
-2.06997 -5.64543 1.16098 20
-1.98513 -5.39313 0.700361 1
-1.30396 -2.23152 0.0445036 49
-0.831103 -2.24502 0.123644 41
-1.30276 -2.22859 -0.133901 47
-0.834133 -2.24963 -0.0412749 50
-1.30326 -2.22767 -0.312151 47
-0.834221 -2.25105 -0.206582 49
-1.30521 -2.22833 -0.49426 47
-0.831634 -2.24878 -0.374682 49
-1.30566 -2.22556 -0.681544 53
-0.827661 -2.24511 -0.543558 50
-3.29208 -5.56272 1.48187 3
-2.085 -5.62843 1.59677 15
-3.24021 -5.47727 1.00014 1
-2.09424 -5.62338 1.1586 18
-2.0064 -5.36406 0.697927 1
-1.31396 -2.22274 0.04446 47
-0.847219 -2.25233 0.124298 45
-1.31784 -2.22841 -0.134295 47
-0.845509 -2.24538 -0.0412749 49
-1.31744 -2.22508 -0.312759 49
-0.848221 -2.25379 -0.207234 59
-1.32023 -2.22803 -0.495689 47
-0.844261 -2.24671 -0.375073 49
-1.32184 -2.22723 -0.68413 53
-0.841105 -2.24531 -0.544681 49
-3.31201 -5.57639 1.48692 2
-2.0923 -5.61799 1.59483 15
-3.22705 -5.43339 0.993121 1
-2.09375 -5.59213 1.15288 17
-2.01227 -5.35126 0.69671 1
-1.32167 -2.22689 0.0445909 49
-0.851148 -2.25085 0.124298 47
-1.32173 -2.22611 -0.134295 47
-0.851187 -2.24858 -0.0413622 49
-1.32259 -2.22491 -0.313063 47
-0.85303 -2.25464 -0.207452 56
-1.32412 -2.22572 -0.495689 47
-0.849049 -2.24754 -0.375465 47
-1.3282 -2.22907 -0.685424 53
-0.845022 -2.24384 -0.544681 50
-3.32832 -5.53543 1.48075 4
-2.11572 -5.59114 1.59031 15
-3.27455 -5.44817 0.998974 3
-2.11604 -5.56273 1.14907 15
-2.11802 -5.5447 0.723483 21
-1.33589 -2.22422 0.0446782 47
-0.862922 -2.24636 0.124298 47
-1.33594 -2.22344 -0.134558 47
-0.862949 -2.24409 -0.0413622 47
-1.33678 -2.22221 -0.313672 47
-0.863935 -2.24782 -0.207234 50
-1.34082 -2.22716 -0.497593 47
-0.862566 -2.24768 -0.376248 47
-1.3411 -2.22415 -0.68607 52
-0.858491 -2.24394 -0.545805 49
-3.32316 -5.50725 1.47457 14
-2.1169 -5.56486 1.58385 14
-3.27129 -5.4213 0.995072 2
-2.11874 -5.54069 1.14526 15
-2.11971 -5.52014 0.720745 21
-1.34106 -2.22403 0.0447218 47
-0.867736 -2.24718 0.124429 45
-1.34498 -2.22965 -0.135083 47
-0.868657 -2.24725 -0.0414495 47
-1.34322 -2.22412 -0.31428 45
-0.86875 -2.24863 -0.207452 49
-1.34598 -2.22692 -0.498069 47
-0.867371 -2.24848 -0.376639 47
-1.34873 -2.228 -0.68801 52
-0.864146 -2.24699 -0.546928 50
-3.33132 -5.45386 1.46502 14
-2.14254 -5.54469 1.58126 14
-3.39489 -5.56004 1.02395 9
-2.14329 -5.51807 1.14287 15
-2.15938 -5.53672 0.724396 17
-1.3579 -2.22551 0.0448963 47
-0.880397 -2.24493 0.12456 45
-1.35833 -2.22447 -0.135214 47
-0.879503 -2.24034 -0.0414058 47
-1.35874 -2.2234 -0.315193 47
-0.881809 -2.24622 -0.207669 47
-1.36146 -2.22612 -0.499498 47
-0.879132 -2.24391 -0.376639 49
-1.36164 -2.22297 -0.688657 53
-0.874135 -2.23789 -0.545805 49
-3.32045 -5.41481 1.45604 12
-2.14436 -5.52067 1.57545 14
-3.38135 -5.51621 1.01692 12
-2.17883 -5.57798 1.15622 15
-3.40527 -5.55737 0.567166 11
-2.20971 -5.63693 0.738087 23
-1.36217 -2.2229 0.0448963 47
-0.885225 -2.24572 0.12469 45
-1.36613 -2.22848 -0.135608 47
-0.88615 -2.24579 -0.0415367 49
-1.36262 -2.22103 -0.315193 44
-0.886637 -2.24699 -0.207887 47
-1.36663 -2.22583 -0.499974 47
-0.883947 -2.24467 -0.377031 49
-1.36971 -2.22652 -0.690597 53
-0.881583 -2.24544 -0.548051 47
-3.33299 -5.36986 1.44874 12
-2.19454 -5.56067 1.59031 14
-3.40463 -5.48735 1.01497 12
-2.23871 -5.64408 1.17242 23
-3.3657 -5.42671 0.555618 1
-2.23651 -5.61567 0.73687 32
-1.37906 -2.22423 0.0450708 47
-0.899209 -2.24553 0.124952 45
-1.37685 -2.21893 -0.135476 47
-0.899214 -2.24328 -0.0415804 47
-1.37854 -2.21994 -0.316106 47
-0.901548 -2.2491 -0.208539 50
-1.37995 -2.22049 -0.50045 45
-0.897904 -2.24444 -0.377814 49
-1.3839 -2.22342 -0.69189 53
-0.894617 -2.2429 -0.548612 47
-3.32045 -5.32889 1.43919 12
-2.23002 -5.62196 1.60905 15
-3.42204 -5.49397 1.01731 12
-2.24047 -5.61697 1.16766 20
-3.34619 -5.37432 0.550824 1
-2.24078 -5.59793 0.735044 27
-1.38465 -2.2237 0.0451145 47
-0.903127 -2.24396 0.124952 45
-1.38336 -2.22076 -0.135739 45
-0.903128 -2.24171 -0.0415804 47
-1.38636 -2.22385 -0.317018 47
-0.906398 -2.24984 -0.208756 49
-1.38772 -2.22432 -0.501879 45
-0.90457 -2.24975 -0.378989 49
-1.39457 -2.23099 -0.695123 52
-0.899432 -2.2436 -0.549174 47
-3.32583 -5.27376 1.42909 12
-2.2604 -5.60981 1.60905 15
-3.47279 -5.5088 1.02356 12
-2.26617 -5.59606 1.16575 20
-3.43765 -5.45516 0.561065 12
-2.26171 -5.56273 0.732002 27
-1.40294 -2.22699 0.0453326 47
-0.918075 -2.24598 0.125345 45
-1.4003 -2.22194 -0.136264 47
-0.919011 -2.24605 -0.0417549 47
-1.39969 -2.21841 -0.317323 45
-0.919104 -2.24737 -0.208974 49
-1.39974 -2.21678 -0.501879 45
-0.917266 -2.24727 -0.37938 47
-1.40624 -2.22366 -0.695123 52
-0.912472 -2.24096 -0.549735 49
-3.31587 -5.23972 1.42123 12
-2.26205 -5.5857 1.60323 15
-3.50125 -5.53463 1.02941 14
-2.26947 -5.57618 1.16241 18
-3.5071 -5.54385 0.57087 12
-2.26857 -5.55458 0.731394 29
-1.40683 -2.22454 0.0453326 47
-0.920658 -2.24222 0.125214 45
-1.40551 -2.2216 -0.136395 47
-0.923876 -2.24676 -0.0417985 47
-1.40583 -2.22041 -0.317931 45
-0.922083 -2.24346 -0.208756 47
-1.40624 -2.21848 -0.502831 45
-0.921187 -2.24566 -0.37938 47
-1.414 -2.22731 -0.697063 53
-0.917827 -2.24404 -0.550858 52
-3.32223 -5.18946 1.41224 12
-2.28296 -5.55631 1.59806 15
-3.53551 -5.52454 1.03097 12
-2.29393 -5.55554 1.16051 20
-3.54183 -5.53651 0.57196 11
-2.29288 -5.53116 0.729872 27
-1.41807 -2.21739 0.0453326 47
-0.935253 -2.24429 0.125606 45
-1.41674 -2.21445 -0.136395 45
-0.935236 -2.24205 -0.0417985 45
-1.4228 -2.22137 -0.319148 47
-0.937242 -2.24796 -0.209626 47
-1.42142 -2.21753 -0.50426 45
-0.934429 -2.24554 -0.380163 49
-1.42787 -2.22419 -0.698356 52
-0.931423 -2.2437 -0.551981 52
-3.31589 -5.16169 1.40606 12
-2.29082 -5.54785 1.59677 15
-3.54952 -5.52729 1.03253 11
-2.29987 -5.54246 1.1586 18
-3.55014 -5.52823 0.571742 11
-2.29967 -5.52297 0.729264 30
-1.43005 -2.22752 0.0455944 47
-0.938777 -2.24282 0.125606 44
-1.42735 -2.22248 -0.137052 47
-0.94011 -2.24272 -0.0418421 45
-1.42494 -2.21704 -0.318844 45
-0.942121 -2.24862 -0.209844 47
-1.42795 -2.21917 -0.505212 45
-0.938347 -2.2439 -0.380163 49
-1.43829 -2.23184 -0.701589 52
-0.934013 -2.23999 -0.55142 47
-3.31366 -5.09933 1.39371 12
-2.31328 -5.52281 1.59289 15
-3.56496 -5.48793 1.02863 9
-2.32314 -5.51944 1.15622 15
-3.57129 -5.49974 0.570652 11
-2.33144 -5.51771 0.730177 24
-1.4413 -2.22026 0.0455944 47
-0.952451 -2.24247 0.125868 47
-1.44266 -2.2215 -0.137446 45
-0.953396 -2.24254 -0.0419294 47
-1.44195 -2.21787 -0.320061 45
-0.95446 -2.24612 -0.210061 49
-1.44452 -2.22014 -0.507117 44
-0.951043 -2.24123 -0.380555 49
-1.44957 -2.22453 -0.701589 53
-0.947618 -2.23956 -0.552543 49
-3.30569 -5.06963 1.38697 11
-2.32479 -5.52322 1.59419 14
-3.58128 -5.49204 1.03058 9
-2.3528 -5.56285 1.16623 14
-3.57816 -5.48933 0.570216 11
-2.38366 -5.61417 0.743563 27
-1.44791 -2.22193 0.0456817 47
-0.957339 -2.24311 0.125999 47
-1.44927 -2.22317 -0.137708 45
-0.958286 -2.24317 -0.041973 45
-1.44989 -2.22158 -0.320973 47
-0.959353 -2.24674 -0.210279 47
-1.45108 -2.22173 -0.508069 45
-0.958809 -2.24866 -0.382121 47
-1.4561 -2.22604 -0.702883 52
-0.953423 -2.24239 -0.553666 50
-3.31965 -5.03134 1.38136 9
-2.37923 -5.57096 1.61163 12
-3.60318 -5.4629 1.02863 8
-2.40895 -5.61363 1.17957 18
-3.6288 -5.50378 0.573703 8
-2.41597 -5.60845 0.744476 29
-1.46227 -2.21849 0.0457689 47
-0.972033 -2.24494 0.126391 45
-1.46501 -2.2218 -0.138102 47
-0.972986 -2.24501 -0.0421039 45
-1.46697 -2.22224 -0.32219 47
-0.973074 -2.24626 -0.210714 49
-1.46675 -2.22024 -0.509497 45
-0.971546 -2.24588 -0.382512 47
-1.4704 -2.22241 -0.704176 52
-0.968032 -2.24408 -0.55535 50
-3.30872 -4.99769 1.3735 4
-2.41177 -5.62008 1.62714 14
-3.6918 -5.57601 1.05126 8
-2.42068 -5.61392 1.18052 20
-3.68789 -5.5722 0.581547 11
-2.42181 -5.59511 0.743259 27
-1.46752 -2.21802 0.0458126 45
-0.974958 -2.24095 0.12626 45
-1.47027 -2.22132 -0.138233 45
-0.976903 -2.24331 -0.0421039 45
-1.47222 -2.22175 -0.322495 47
-0.977983 -2.24685 -0.210931 49
-1.46927 -2.21563 -0.509021 44
-0.975464 -2.24418 -0.382512 49
-1.47561 -2.22185 -0.704822 52
-0.972912 -2.24462 -0.555912 50
-2.44212 -5.60959 1.62779 15
-3.7237 -5.56071 1.05204 9
-2.44612 -5.59218 1.17862 18
-3.71979 -5.55695 0.581982 11
-2.44411 -5.56644 0.741129 26
-1.48329 -2.21653 0.0459435 45
-0.989689 -2.24267 0.126653 45
-1.48744 -2.22188 -0.138758 45
-0.990647 -2.24274 -0.0421912 45
-1.48383 -2.21401 -0.322495 47
-0.991737 -2.24626 -0.211366 49
-1.48769 -2.2181 -0.511402 45
-0.989185 -2.24356 -0.383295 47
-1.49262 -2.22211 -0.707409 52
-0.985627 -2.24173 -0.556474 49
-2.44611 -5.59204 1.62391 14
-3.7334 -5.5542 1.05204 9
-2.44996 -5.57441 1.17576 17
-3.71837 -5.53391 0.580239 11
-2.45182 -5.55763 0.740521 24
-1.48855 -2.21601 0.0459871 45
-0.994609 -2.24323 0.126784 45
-1.49271 -2.22136 -0.13889 45
-0.995569 -2.2433 -0.0422348 45
-1.49185 -2.21759 -0.323407 45
-0.997666 -2.24908 -0.211801 49
-1.49293 -2.21753 -0.511878 45
-0.99509 -2.24635 -0.384078 47
-1.4992 -2.22351 -0.708702 52
-0.989538 -2.24001 -0.556474 50
-2.47438 -5.57694 1.62327 14
-3.75549 -5.52437 1.05009 8
-2.47712 -5.55702 1.1748 15
-3.74029 -5.50407 0.57915 11
-2.47279 -5.52659 0.738087 23
-1.50435 -2.21439 0.046118 45
-1.00532 -2.23571 0.126653 45
-1.50572 -2.21557 -0.139021 45
-1.00832 -2.24033 -0.0422784 45
-1.50903 -2.21795 -0.324624 45
-1.00841 -2.24155 -0.211583 47
-1.50729 -2.21374 -0.512831 45
-1.00785 -2.24337 -0.38447 47
-1.51218 -2.21762 -0.709349 50
-1.00423 -2.24147 -0.558158 49
-2.47921 -5.56158 1.62004 14
-3.76234 -5.51372 1.04931 4
-2.4778 -5.53253 1.17052 15
-3.73866 -5.48108 0.577407 9
-2.48751 -5.53358 0.739608 26
-1.51103 -2.21589 0.0462052 45
-1.01229 -2.24078 0.127046 45
-1.51663 -2.22325 -0.139677 45
-1.01428 -2.24313 -0.0423657 47
-1.5171 -2.22146 -0.325537 45
-1.01334 -2.24206 -0.211801 47
-1.51808 -2.22123 -0.515211 45
-1.01378 -2.24611 -0.385253 47
-1.52014 -2.22096 -0.711289 52
-1.01113 -2.24639 -0.559843 49
-2.50231 -5.53268 1.61551 14
-3.77668 -5.47094 1.04502 8
-2.50871 -5.52127 1.17099 18
-3.75977 -5.44847 0.576099 11
-2.52666 -5.54037 0.742346 24
-1.52584 -2.2118 0.0462925 45
-1.02647 -2.23982 0.127307 45
-1.52863 -2.21501 -0.139677 45
-1.02848 -2.24216 -0.042453 45
-1.5291 -2.21322 -0.325537 45
-1.02856 -2.24334 -0.212453 47
-1.53287 -2.21702 -0.516164 45
-1.02655 -2.24302 -0.385644 47
-1.53902 -2.22262 -0.714522 50
-1.02125 -2.23645 -0.55872 50
-2.50697 -5.51731 1.61228 14
-3.8148 -5.50762 1.05322 8
-2.53869 -5.56155 1.18052 15
-3.81467 -5.50741 0.583072 9
-2.57559 -5.62441 0.754212 30
-1.53255 -2.21324 0.0463798 45
-1.03103 -2.24047 0.127438 45
-1.53534 -2.21644 -0.13994 44
-1.03447 -2.2449 -0.0425402 45
-1.5354 -2.21489 -0.326146 45
-1.03351 -2.24381 -0.212671 45
-1.53813 -2.21636 -0.51664 45
-1.03355 -2.24796 -0.386819 47
-1.54427 -2.22192 -0.715168 50
-1.02678 -2.23927 -0.559843 49
-2.54596 -5.52869 1.61939 14
-3.88327 -5.5442 1.06414 8
-2.59149 -5.60211 1.19196 18
-3.87679 -5.53699 0.588301 11
-2.60709 -5.61535 0.75482 27
-1.54803 -2.21159 0.0465107 44
-1.04485 -2.23957 0.1277 45
-1.55084 -2.21478 -0.140334 45
-1.04688 -2.2419 -0.0425839 47
-1.04695 -2.24307 -0.213106 50
-1.55497 -2.21658 -0.518545 45
-1.0453 -2.24252 -0.386819 45
-1.55828 -2.21802 -0.716462 52
-1.03952 -2.23608 -0.560404 49
-3.36008 -4.77981 1.33868 2
-2.57382 -5.5637 1.63102 14
-3.89862 -5.54549 1.0657 9
-2.61056 -5.61762 1.19625 18
-3.88215 -5.5241 0.587648 11
-2.60118 -5.57705 0.750256 20
-1.55621 -2.21502 0.0466416 45
-1.04981 -2.24001 0.127831 44
-1.55758 -2.21615 -0.140596 44
-1.05185 -2.24234 -0.0426275 47
-1.05403 -2.24801 -0.213758 49
-1.55884 -2.21386 -0.518545 47
-1.05234 -2.2474 -0.387993 45
-1.56632 -2.22122 -0.718402 50
-1.04444 -2.23647 -0.560966 49
-3.35482 -4.71789 1.32633 3
-2.62749 -5.60265 1.64653 14
-3.9276 -5.525 1.0657 9
-2.62532 -5.57278 1.18958 15
-3.90813 -5.49964 0.587212 11
-2.61023 -5.52071 0.744476 15
-1.56923 -2.20888 0.0466852 44
-1.06366 -2.23899 0.128092 44
-1.06464 -2.23906 -0.0426711 45
-1.06617 -2.24227 -0.213758 47
-1.57611 -2.21366 -0.520449 45
-1.06304 -2.23963 -0.387602 47
-1.58355 -2.22085 -0.720988 50
-1.05718 -2.23317 -0.561527 50
-3.38853 -4.74772 1.33643 4
-2.62802 -5.57838 1.64071 14
-3.92433 -5.50005 1.06219 8
-2.62239 -5.53888 1.18338 14
-3.90615 -5.47659 0.585469 9
-2.61667 -5.50942 0.743563 20
-1.06971 -2.24164 0.128354 45
-1.07069 -2.24171 -0.0427584 47
-1.07115 -2.24266 -0.213975 45
-1.07118 -2.24669 -0.389168 47
-1.58921 -2.21977 -0.721635 50
-1.06107 -2.23132 -0.561527 49
-3.44413 -4.77078 1.34823 9
-2.64257 -5.53138 1.63102 14
-3.93957 -5.45871 1.05829 4
-2.64393 -5.50958 1.18005 15
-3.92698 -5.44326 0.584161 9
-2.64966 -5.50189 0.744476 23
-1.0829 -2.23807 0.128485 44
-1.08498 -2.24039 -0.0428457 47
-1.08504 -2.2415 -0.21441 44
-1.08293 -2.24105 -0.389168 47
-1.60365 -2.21533 -0.722928 49
-1.07735 -2.23434 -0.563773 49
-3.4802 -4.80482 1.35946 11
-2.66056 -5.54419 1.63619 14
-2.65354 -5.50496 1.18005 15
-2.65722 -5.49549 0.744172 23
-1.08859 -2.24086 0.128746 44
-1.09106 -2.24299 -0.0429329 47
-1.1516 -1.58973 -0.236395 3
-1.09004 -2.24185 -0.214628 45
-1.08791 -2.24138 -0.38956 49
-1.61035 -2.21643 -0.724221 49
-1.0798 -2.23045 -0.563212 49
-3.34694 -4.57037 1.29769 2
-2.67383 -5.50023 1.62714 14
-2.6846 -5.49807 1.18148 15
-2.69141 -5.49265 0.745693 27
-1.10141 -2.23738 0.128877 44
-1.1035 -2.23969 -0.0429765 47
-1.1511 -1.57168 -0.234569 3
-1.10395 -2.24058 -0.215063 45
-1.10072 -2.23787 -0.389951 47
-1.62584 -2.21409 -0.726161 50
-1.09467 -2.23133 -0.564896 49
-3.32171 -4.51938 1.28477 2
-2.69083 -5.51075 1.63167 15
-2.69623 -5.49511 1.18195 18
-2.69881 -5.48349 0.745084 24
-1.10641 -2.23769 0.129008 44
-1.16317 -1.58349 -0.101476 12
-1.10741 -2.23776 -0.0429765 45
-1.11116 -2.24536 -0.215715 49
-1.1068 -2.24038 -0.390734 47
-1.63583 -2.21873 -0.728748 49
-1.10178 -2.23598 -0.566581 49
-3.32431 -4.47202 1.27635 3
-2.72061 -5.49611 1.63167 14
-2.73914 -5.5095 1.18815 18
-3.28357 -4.42044 0.478703 8
-2.74392 -5.4999 0.749344 21
-1.2218 -1.64568 0.0351666 11
-1.12185 -2.23837 0.129401 44
-1.16548 -1.56936 -0.100951 14
-1.12285 -2.23844 -0.0431074 45
-1.12513 -2.24396 -0.21615 49
-1.12072 -2.23898 -0.391517 47
-1.64886 -2.21207 -0.729394 49
-1.11386 -2.22998 -0.566581 49
-3.31676 -4.44727 1.27074 4
-2.74415 -5.51948 1.64007 14
-2.77612 -5.55962 1.20006 18
-3.29128 -4.4147 0.478703 3
-2.77253 -5.53554 0.75482 21
-1.2157 -1.63152 0.0349048 11
