# .PCD v0.7 - Point Cloud Data file format
VERSION 0.7
FIELDS x y z intensity
SIZE 4 4 4 4
TYPE F F F F
COUNT 1 1 1 1
WIDTH 1564
HEIGHT 1
VIEWPOINT 0 0 0 1 0 0 0
POINTS 1564
DATA ascii
-3.5477 -5.56191 1.27441 9
-5.10738 -5.53492 0.655847 11
-3.54429 -5.54167 0.802282 9
-1.5 -1.62587 0.0380026 12
-1.42965 -2.22661 0.136859 32
-1.43917 -1.55947 -0.109746 14
-1.42945 -2.22459 -0.0455508 42
-1.43374 -2.23126 -0.228545 42
-1.42808 -2.2258 -0.413834 42
-2.00265 -2.16248 -0.779831 2
-1.42273 -2.22248 -0.600273 44
-5.15882 -5.52649 1.73456 9
-3.32413 -5.17079 1.63554 11
-5.15716 -5.52662 1.18901 11
-3.56747 -5.52882 1.27108 9
-5.15765 -5.52906 0.658462 12
-3.57018 -5.51616 0.801369 9
-1.51873 -1.62896 0.0382644 12
-1.44439 -2.22303 0.13712 30
-1.45754 -1.56287 -0.110534 14
-1.44282 -2.21892 -0.0455944 42
-1.4454 -2.22373 -0.228545 42
-1.43838 -2.21622 -0.413442 42
-2.01724 -2.15548 -0.781124 2
-1.43341 -2.2127 -0.599711 44
-5.18748 -5.53971 1.7413 11
-3.31876 -5.14265 1.62844 11
-5.18271 -5.53653 1.19292 9
-3.57711 -5.52258 1.27108 8
-5.18091 -5.53459 0.660205 4
-3.57074 -5.49805 0.799543 9
-1.52499 -1.62996 0.0383517 12
-1.44516 -2.21657 0.136859 26
-1.46197 -1.56214 -0.110665 14
-1.45078 -2.22268 -0.0457253 42
-1.45199 -2.22538 -0.22898 42
-1.44493 -2.21785 -0.414225 42
-2.03589 -2.1678 -0.786944 2
-1.44086 -2.21658 -0.601396 42
-5.23484 -5.53194 1.74747 1
-3.32761 -5.09948 1.62004 11
-5.23539 -5.53443 1.19838 1
-3.59293 -5.48592 1.26679 8
-5.19687 -5.49563 0.65868 9
-3.60125 -5.48406 0.800152 8
-1.46086 -2.21524 0.137251 23
-1.46643 -1.5511 -0.110403 12
-1.46476 -2.21949 -0.0458126 41
-1.46734 -2.22424 -0.229632 42
-1.4602 -2.2167 -0.4154 42
-2.05681 -2.16797 -0.790824 2
-1.45606 -2.21537 -0.60308 44
-5.22507 -5.50428 1.7413 8
-3.31272 -5.05728 1.6084 11
-5.20667 -5.4868 1.18979 11
-3.61193 -5.494 1.27012 8
-5.18835 -5.4694 0.656501 11
-3.67084 -5.56897 0.813538 9
-1.46571 -2.21502 0.137382 21
-1.471 -2.22136 -0.0458998 42
-1.47495 -2.22817 -0.230285 42
-1.46679 -2.21827 -0.416183 42
-1.46127 -2.21487 -0.603642 44
-5.22757 -5.45139 1.73287 9
-3.32008 -5.01484 1.6 11
-5.2207 -5.44612 1.18667 9
-3.71064 -5.58467 1.29538 9
-3.7086 -5.56478 0.815668 9
-1.48106 -2.21381 0.137774 18
-1.48499 -2.21804 -0.0459871 41
-1.48897 -2.22482 -0.230719 42
-1.18128 -1.23126 -0.324269 14
-1.48073 -2.21493 -0.416966 42
-1.47785 -2.21556 -0.605888 44
-3.30747 -4.97684 1.58966 11
-3.72038 -5.57819 1.29538 9
-3.71693 -5.55623 0.815364 8
-1.48631 -2.2133 0.137905 15
-1.49303 -2.22168 -0.046118 42
-1.49562 -2.22636 -0.231154 42
-1.18172 -1.22743 -0.323793 14
-1.48734 -2.21645 -0.417749 42
-1.48577 -2.21906 -0.607573 44
-3.31281 -4.92678 1.57932 11
-3.74913 -5.55594 1.29491 9
-3.7386 -5.5237 0.813538 9
-1.50106 -2.20936 0.138167 15
-1.50503 -2.21357 -0.046118 42
-1.50764 -2.21824 -0.231154 42
-1.18834 -1.22102 -0.323793 12
-1.50208 -2.21246 -0.418532 42
-1.50184 -2.21704 -0.609257 44
-3.30521 -4.89696 1.57157 11
-3.74783 -5.53313 1.29109 9
-3.74545 -5.51306 0.81293 8
-1.50632 -2.2088 0.138298 14
-1.51311 -2.21714 -0.0462489 41
-1.51431 -2.21972 -0.231589 41
-1.19047 -1.21894 -0.323793 9
-1.5101 -2.21596 -0.419706 41
-1.50298 -2.21038 -0.608134 41
-3.21995 -3.26495 1.04893 2
-3.31041 -4.84965 1.56188 12
-3.2179 -3.264 0.718793 2
-3.7809 -5.51951 1.29252 9
-3.22018 -3.26744 0.398302 4
-3.75461 -5.46473 0.808671 8
-2.13709 -2.16836 0.0525317 38
-1.52069 -2.205 0.138559 14
-1.52753 -2.21331 -0.0463361 41
-1.52733 -2.21382 -0.231807 41
-1.19511 -1.21095 -0.323317 9
-1.52587 -2.21413 -0.420881 41
-1.52004 -2.21052 -0.61038 42
-3.23364 -3.26855 1.05174 3
-3.30251 -4.81995 1.55412 12
-3.14889 -3.18291 0.702013 1
-3.77525 -5.49064 1.28728 8
-3.20836 -3.24411 0.396123 12
-3.79932 -5.50926 0.816277 8
-2.17077 -2.19482 0.0532735 39
-1.53446 -2.21673 0.139475 14
-1.53402 -2.21525 -0.232242 41
-1.19377 -1.20537 -0.322364 8
-1.53394 -2.21757 -0.422055 41
-1.52803 -2.21389 -0.612065 44
-3.24439 -3.24411 1.04949 3
-3.30709 -4.77279 1.54443 12
-3.16726 -3.16813 0.702404 1
-3.83614 -5.51717 1.29824 8
-3.23059 -3.23255 0.396776 8
-3.87208 -5.55242 0.825708 9
-2.18753 -2.18873 0.0534044 39
-1.54747 -2.21071 0.139606 12
-1.54844 -2.21127 -0.232677 41
-1.20527 -1.20431 -0.323793 8
-1.54553 -2.2095 -0.422055 41
-1.54517 -2.21386 -0.614311 44
-3.29889 -4.74321 1.53667 12
-3.88505 -5.56684 1.31159 9
-3.88176 -5.54565 0.825708 9
-2.19666 -2.1902 0.0535353 39
-1.55276 -2.21005 0.139737 12
-1.55801 -2.21672 -0.233546 41
-1.20389 -1.19874 -0.32284 8
-1.55646 -2.21692 -0.424013 41
-1.55182 -2.21515 -0.615434 42
-3.30148 -4.69425 1.52634 12
-3.91556 -5.54843 1.31206 9
-3.90072 -5.51107 0.823578 9
-2.21522 -2.18569 0.0537098 39
-1.56431 -2.20189 0.139737 11
-1.55533 -1.53304 -0.263472 15
-1.2154 -1.19758 -0.324269 8
-1.56947 -2.21076 -0.424405 41
-1.56761 -2.21297 -0.617118 44
-5.4922 -5.39538 1.76656 12
-3.29297 -4.66479 1.51858 12
-3.91203 -5.52087 1.3073 8
-5.48443 -5.39148 0.669792 14
-3.90315 -5.49413 0.822057 8
-2.22833 -2.19019 0.0539279 38
-1.5696 -2.20119 0.139868 11
-1.56331 -1.53553 -0.264385 15
-1.21399 -1.19203 -0.323317 4
-1.57569 -2.21619 -0.618803 44
-5.61392 -5.45555 1.79633 11
-3.30274 -4.62527 1.51147 12
-3.94659 -5.50829 1.3092 8
-5.62067 -5.46588 0.682865 12
-3.93138 -5.47092 0.821753 8
-2.24515 -2.18372 0.0540588 38
-1.58294 -2.19469 0.139999 9
-1.17115 -1.62044 -0.034294 11
-1.57338 -1.52878 -0.264689 15
-1.22042 -1.18544 -0.323317 4
-1.5905 -2.2116 -0.619926 44
-5.65049 -5.47384 1.80531 12
-3.29536 -4.59789 1.50436 12
-5.6563 -5.47946 1.23896 12
-3.93902 -5.47747 1.30348 4
-5.51929 -5.34863 0.669356 1
-2.26152 -2.19197 0.0543642 38
-1.59115 -2.198 0.140391 9
-1.16227 -1.60218 -0.0339449 12
-1.5814 -1.53121 -0.265602 15
-1.22778 -1.18842 -0.324745 8
-1.5972 -2.21277 -0.621049 44
-5.69585 -5.45836 1.81036 12
-3.29815 -4.55122 1.49467 11
-5.6867 -5.45147 1.23935 12
-5.67846 -5.44547 0.685262 14
-2.27658 -2.18356 0.0544515 38
-1.61146 -2.20175 0.141176 8
-1.17359 -1.60011 -0.0340322 12
-1.58939 -1.52291 -0.265602 15
-1.23931 -1.18707 -0.326174 4
-1.61449 -2.21226 -0.623295 44
-5.7009 -5.44604 1.80924 12
-3.29616 -4.53178 1.49015 4
-5.69263 -5.43813 1.23857 12
-5.68796 -5.43555 0.685262 14
-2.29123 -2.18994 0.0547133 36
-1.61235 -2.1949 0.140915 4
-1.17343 -1.59403 -0.0339449 12
-1.59205 -1.52013 -0.265602 14
-1.24671 -1.18998 -0.327602 8
-1.61979 -2.21141 -0.623857 44
-5.73205 -5.41679 1.8098 12
-3.30412 -4.49304 1.48304 4
-5.72641 -5.41333 1.23974 12
-5.72358 -5.41254 0.686134 14
-3.28629 -4.43958 0.672979 1
-2.30994 -2.18478 0.0548878 36
-1.62976 -2.19446 0.141438 3
-1.18176 -1.58786 -0.0339449 14
-1.24399 -1.17502 -0.325221 4
-1.15631 -1.5557 -0.30186 12
-1.63713 -2.21074 -0.626103 44
-5.73972 -5.40511 1.80924 11
-3.29191 -4.46005 1.47399 2
-5.73046 -5.39825 1.23857 12
-5.72396 -5.394 0.685044 12
-3.29995 -4.44181 0.674196 1
-2.31959 -2.18548 0.0550187 36
-1.6321 -2.1896 0.141307 3
-1.18453 -1.5858 -0.0339449 14
-1.25319 -1.17957 -0.327126 4
-1.15903 -1.55368 -0.30186 14
-2.27543 -2.13647 -0.826388 11
-1.64389 -2.21179 -0.627226 44
-5.79562 -5.39887 1.81766 9
-3.30156 -4.42281 1.46753 3
-5.76861 -5.37559 1.24052 9
-5.78403 -5.39182 0.688748 11
-2.34014 -2.18182 0.0552369 36
-1.65142 -2.19072 0.141961 3
-1.19459 -1.58137 -0.0339886 14
-1.25776 -1.1711 -0.32665 8
-1.16593 -1.54541 -0.301468 14
-2.26534 -2.10481 -0.818629 8
-1.65729 -2.20482 -0.627787 42
-5.8523 -5.43451 1.83283 8
-3.28758 -4.38803 1.45784 14
-5.88477 -5.46463 1.26355 11
-5.87738 -5.45967 0.698771 11
-2.35311 -2.18624 0.055455 36
-1.65524 -2.18784 0.141961 2
-1.19886 -1.58127 -0.0340322 14
-1.2616 -1.17057 -0.327126 8
-1.16863 -1.54338 -0.301468 15
-2.27256 -2.10413 -0.819922 8
-1.66553 -2.20776 -0.629472 42
-5.92828 -5.44561 1.84742 9
-3.29303 -4.34764 1.45008 14
-5.91875 -5.43875 1.26472 9
-5.90772 -5.4305 0.698989 12
-2.37373 -2.18234 0.0556732 36
-1.67575 -2.19105 0.142746 2
-0.718067 -0.661253 -0.0494909 30
-1.20712 -1.57497 -0.0340322 14
-1.27495 -1.17058 -0.329031 8
-1.17344 -1.53351 -0.300685 15
-2.2782 -2.08731 -0.817982 8
-1.68148 -2.20483 -0.631157 42
-5.93503 -5.43465 1.84686 9
-3.28894 -4.32649 1.44491 14
-5.92547 -5.42778 1.26433 9
-5.91719 -5.42018 0.698989 11
-2.38675 -2.18663 0.0558913 36
-0.721062 -0.661684 -0.0496222 29
-1.21443 -1.57882 -0.0341631 14
-1.2788 -1.17001 -0.329507 9
-1.17911 -1.53539 -0.301468 14
-2.28719 -2.08822 -0.819922 4
-5.97423 -5.41331 1.85023 9
-5.95198 -5.39502 1.26394 9
-5.94086 -5.38682 0.698553 11
-2.40334 -2.17956 0.0560222 36
-0.717 -0.651322 -0.0490971 30
-1.22393 -1.57463 -0.0342067 14
-1.29017 -1.16846 -0.330935 9
-1.18864 -1.53115 -0.30186 14
-2.29953 -2.07823 -0.820569 8
-5.96646 -5.38922 1.84518 9
-5.95405 -5.37801 1.26238 9
-5.93916 -5.36643 0.697246 9
-2.41271 -2.18039 0.0561531 36
-0.718136 -0.650069 -0.0490971 32
-1.22668 -1.57249 -0.0342067 14
-1.29221 -1.16621 -0.330935 11
-1.19282 -1.53102 -0.302251 14
-2.29956 -2.07098 -0.819275 4
-5.98765 -5.3517 1.26355 3
-2.43528 -2.17772 0.0564149 35
-0.723505 -0.647837 -0.0492284 32
-1.24415 -1.57785 -0.0344685 14
-1.30196 -1.16269 -0.331888 11
-1.20692 -1.53253 -0.303817 14
-2.31398 -2.06213 -0.820569 8
-1.73577 -2.21533 0.743782 9
-2.44506 -2.17802 0.0565458 35
-0.719039 -0.641595 -0.0488345 32
-1.25154 -1.58156 -0.0345994 14
-1.29848 -1.15553 -0.330459 12
-1.20959 -1.53042 -0.303817 14
-2.31071 -2.05127 -0.817982 8
-1.74773 -2.20591 0.743782 4
-6.2945 -5.54536 1.32013 1
-6.54526 -5.76821 0.760216 3
-2.46956 -2.17676 0.0568512 35
-0.720515 -0.636171 -0.0487033 32
-1.26164 -1.57673 -0.034643 14
-1.30656 -1.15011 -0.330935 9
-1.21478 -1.51999 -0.303034 14
-2.32686 -2.04392 -0.819922 8
-6.45769 -5.6691 1.97265 3
-6.31345 -5.54251 1.32208 1
-6.6096 -5.80443 0.766535 3
-2.47899 -2.17739 0.0569821 35
-0.71787 -0.63162 -0.0484407 30
-1.27219 -1.58428 -0.0348612 14
-1.31411 -1.15268 -0.332364 9
-1.22821 -1.53137 -0.305775 14
-2.32679 -2.03668 -0.818629 8
-6.47073 -5.62084 1.96759 3
-6.3843 -5.54773 1.33105 2
-6.59377 -5.73169 0.761305 3
-2.49753 -2.17137 0.0571566 33
-0.721058 -0.627979 -0.0484407 32
-1.28648 -1.5856 -0.0350357 14
-1.31807 -1.1444 -0.331888 11
-1.23284 -1.52129 -0.304992 14
-2.34072 -2.02804 -0.819922 8
-6.43718 -5.574 1.95468 3
-6.37157 -5.51718 1.32637 2
-6.60753 -5.72344 0.761741 4
-2.51076 -2.17519 0.0573748 33
-0.712714 -0.618551 -0.0477843 32
-1.29239 -1.58724 -0.035123 14
-0.556806 -0.48314 -0.0861 24
-1.33121 -1.15173 -0.334745 9
-1.24637 -1.53258 -0.307732 12
-2.34243 -2.02237 -0.819275 8
-6.49315 -5.56127 1.96254 2
-6.44726 -5.5239 1.33613 1
-6.63363 -5.68552 0.761305 3
-2.53768 -2.17458 0.0577238 35
-0.717946 -0.616309 -0.0479156 30
-1.30096 -1.58022 -0.035123 14
-0.563099 -0.483444 -0.0867085 24
-1.33369 -1.14132 -0.333792 11
-1.25907 -1.53176 -0.308907 12
-2.35517 -2.01124 -0.819922 9
-6.49729 -5.54518 1.96085 2
-6.48039 -5.53075 1.34081 1
-6.56118 -5.60164 0.751718 2
-2.54566 -2.17295 0.0578111 33
-0.717229 -0.61331 -0.0477843 32
-1.31669 -1.59317 -0.035472 14
-0.565915 -0.483971 -0.0870127 24
-1.33774 -1.14035 -0.334268 9
-1.27297 -1.5427 -0.311648 12
-2.35351 -2.00202 -0.817982 9
-6.57665 -5.54578 1.97489 4
-6.55367 -5.52835 1.3494 1
-6.56287 -5.53806 0.748232 2
-2.57113 -2.16997 0.0581165 35
-0.714916 -0.604468 -0.0473905 32
-1.32717 -1.58771 -0.0355156 14
-0.562999 -0.475908 -0.0861 24
-1.34973 -1.1376 -0.335697 11
-1.28315 -1.53747 -0.312039 12
-2.3702 -1.9935 -0.819922 9
-6.62265 -5.56679 1.98612 12
-6.5718 -5.526 1.35135 1
-6.58206 -5.53461 0.749322 2
-4.55498 -5.46149 0.867693 12
-2.58257 -2.17192 0.058291 35
-0.712147 -0.600007 -0.0471279 32
-1.33635 -1.59307 -0.0356902 14
-0.565646 -0.476619 -0.0864042 24
-1.35171 -1.13524 -0.335697 11
-1.2969 -1.5485 -0.31478 12
-2.36997 -1.98626 -0.818629 9
-1.17862 -1.40954 -0.41553 4
-6.68168 -5.55696 1.99511 14
-6.51331 -5.41888 1.3334 1
-4.58747 -5.45768 1.37783 11
-6.6502 -5.53468 0.753897 12
-4.64903 -5.5154 0.880167 11
-2.60698 -2.17 0.0585965 35
-1.84267 -2.17849 0.147718 9
-1.34439 -1.58628 -0.0356902 14
-0.566225 -0.472065 -0.0861 26
-1.3631 -1.13309 -0.337125 11
-1.3034 -1.5398 -0.314388 14
-2.38557 -1.97887 -0.820569 8
-1.17188 -1.38656 -0.410476 8
-6.71103 -5.56355 2.00128 15
-4.66182 -5.52662 1.39737 11
-6.68094 -5.54054 0.756294 14
-4.66505 -5.51486 0.881384 12
-2.61654 -2.17024 0.0587273 35
-1.85292 -2.1829 0.148242 4
-1.35846 -1.59729 -0.0359956 14
-0.561313 -0.46633 -0.0851873 26
-1.36508 -1.1307 -0.337125 12
-1.31724 -1.55072 -0.317129 14
-2.39461 -1.97931 -0.822508 8
-1.17273 -1.38265 -0.409915 8
-6.66379 -5.46384 1.97826 12
-4.69865 -5.51148 1.39976 12
-6.69252 -5.49127 0.754333 14
-4.69547 -5.49224 0.881688 12
-2.63946 -2.16602 0.0589891 35
-1.86594 -2.17506 0.148372 4
-1.37168 -1.59585 -0.0361265 14
-0.567587 -0.466529 -0.0857958 26
-1.31796 -1.53358 -0.173529 12
-1.37478 -1.12665 -0.338078 11
-1.32828 -1.54779 -0.317912 14
-2.40681 -1.96827 -0.823155 8
-1.17363 -1.36908 -0.407669 9
-6.62897 -5.41792 1.96535 11
-6.64354 -5.43174 1.35057 12
-4.72101 -5.51819 1.40357 11
-6.66353 -5.44806 0.749975 12
-4.70248 -5.48298 0.881384 12
-2.64905 -2.16615 0.05912 33
-1.87586 -2.17971 0.148896 4
-1.37935 -1.59914 -0.0362574 14
-1.33036 -1.54262 -0.174834 12
-1.38435 -1.13045 -0.339982 12
-1.33741 -1.55297 -0.319478 14
-2.4065 -1.96102 -0.821862 8
-1.16944 -1.35983 -0.405423 9
-6.63262 -5.36323 1.95805 11
-6.65269 -5.38135 1.34666 12
-4.74086 -5.48494 1.40119 8
-6.66972 -5.39704 0.747578 12
-4.72788 -5.45453 0.880776 11
-2.67164 -2.16215 0.0593818 33
-1.39398 -1.59969 -0.0364319 14
-1.34142 -1.53962 -0.175268 14
-1.39197 -1.12497 -0.340459 12
-1.3501 -1.55178 -0.320653 14
-2.42015 -1.95185 -0.823155 8
-1.17496 -1.35184 -0.404861 9
-6.63345 -5.34669 1.9558 11
-6.63229 -5.34765 1.34081 14
-4.75043 -5.47666 1.40119 8
-6.64423 -5.35725 0.743656 12
-4.73807 -5.44897 0.88108 11
-2.68514 -2.16532 0.0596 33
-1.39677 -1.59726 -0.0364319 14
-0.563743 -0.455534 -0.0845788 26
-1.35228 -1.54668 -0.176356 14
-1.39393 -1.12254 -0.340459 12
-1.35766 -1.55501 -0.321827 14
-2.4292 -1.95216 -0.825095 8
-1.15473 -1.32423 -0.397 9
-6.69755 -5.34073 1.96647 11
-6.65634 -5.30977 1.34003 12
-4.76839 -5.44146 1.39833 8
-6.65179 -5.30803 0.741477 12
-4.7649 -5.42222 0.880776 9
-2.70974 -2.16261 0.0599054 33
-1.40814 -1.59392 -0.0365192 14
-0.568062 -0.454122 -0.084883 26
-1.39767 -1.11394 -0.339982 12
-1.36741 -1.54974 -0.322219 14
-2.44094 -1.94134 -0.825742 8
-1.15202 -1.30717 -0.393631 9
-6.72882 -5.34839 1.97321 9
-6.70427 -5.32887 1.34783 12
-4.7795 -5.43497 1.3988 8
-6.68444 -5.315 0.744092 12
-4.80387 -5.44741 0.886252 4
-2.72721 -2.16876 0.0602108 35
-1.41753 -1.59896 -0.0366937 14
-0.563022 -0.448502 -0.0839703 26
-1.37338 -1.55106 -0.323002 14
-1.13982 -1.2887 -0.388577 3
-6.77681 -5.32696 1.97882 8
-3.30488 -3.72942 1.32407 1
-6.75343 -5.31048 1.35213 14
-4.84047 -5.44658 1.40834 4
-6.77091 -5.32612 0.750629 11
-4.88017 -5.47594 0.895075 4
-2.74443 -2.15909 0.0603417 33
-0.658716 -0.519376 -0.0422708 15
-1.42755 -1.59338 -0.0367373 14
-0.567315 -0.44708 -0.0842746 24
-1.13522 -1.26996 -0.384646 4
-6.97312 -5.46352 2.03385 9
-3.27772 -3.68572 1.3105 1
-6.91338 -5.41866 1.38256 11
-4.93485 -5.53342 1.43312 8
-4.93835 -5.5238 0.904202 9
-2.76197 -2.16508 0.0606471 33
-0.65569 -0.515147 -0.0420082 15
-1.43866 -1.6002 -0.0369555 14
-0.562153 -0.441602 -0.0833618 24
-1.13559 -1.26636 -0.384085 3
-3.3044 -3.67807 1.31373 4
-4.99726 -5.54669 1.44313 11
-5.00045 -5.53471 0.910287 11
-2.78672 -2.1618 0.0609525 33
-0.660352 -0.513236 -0.0421395 15
-1.44842 -1.59475 -0.0369991 14
-0.562495 -0.437133 -0.0830576 24
-1.14221 -1.2604 -0.384085 4
-3.2882 -3.64716 1.30469 4
-5.01613 -5.54619 1.44551 12
-5.02176 -5.53885 0.912417 9
-2.80076 -2.16408 0.0611707 33
-0.653341 -0.505981 -0.0416144 15
-1.45624 -1.59777 -0.03713 14
-0.563258 -0.436151 -0.0830576 26
-1.14114 -1.25479 -0.382962 4
-3.18925 -3.4989 1.25751 2
-2.87056 -2.19409 0.565435 3
-5.05668 -5.53254 1.44885 11
-2.85296 -2.18141 0.311146 9
-5.06506 -5.52624 0.91485 9
-2.83192 -2.16456 0.061607 44
-0.65995 -0.505583 -0.0418769 15
-1.46993 -1.5954 -0.0372609 14
-0.571528 -0.437611 -0.0839703 26
-1.15613 -1.25759 -0.385769 3
-2.84575 -2.1673 0.816461 9
-3.2849 -3.59143 1.29306 8
-2.8406 -2.16415 0.558801 9
-5.09119 -5.55085 1.456 11
-2.84487 -2.16738 0.309839 11
-5.09555 -5.54204 0.918806 9
-2.84762 -2.16869 0.0618688 38
-0.656857 -0.501408 -0.0416144 15
-1.47441 -1.59467 -0.0373045 14
-0.568264 -0.43371 -0.0833618 27
-1.14658 -1.2432 -0.381839 4
-2.86095 -2.1553 0.817584 9
-2.85387 -2.15073 0.559191 11
-5.12589 -5.53221 1.4579 8
-2.84784 -2.14696 0.308967 14
-5.13462 -5.5262 0.920631 9
-2.84658 -2.14523 0.061607 26
-0.663464 -0.500964 -0.0418769 15
-1.48757 -1.59268 -0.0374354 14
-0.572511 -0.43222 -0.0836661 27
-1.15804 -1.24254 -0.383523 12
-2.86471 -2.1503 0.817584 8
-2.86552 -2.15167 0.560752 15
-5.15488 -5.54214 1.46314 8
-2.85955 -2.14797 0.309839 21
-5.16286 -5.5372 0.923978 9
-2.8487 -2.13826 0.0615634 11
-0.654349 -0.492317 -0.0412205 15
-1.49205 -1.59191 -0.037479 14
-0.567306 -0.426756 -0.0827534 27
-1.15191 -1.2316 -0.380715 12
-2.87434 -2.13332 0.817022 2
-2.88505 -2.14202 0.562313 1
-5.19558 -5.5276 1.46648 8
-2.87313 -2.13395 0.310057 21
-5.20295 -5.52003 0.925803 1
-2.85985 -2.12332 0.0615634 2
-0.652907 -0.48591 -0.040958 15
-1.50236 -1.58563 -0.0375227 14
-0.567613 -0.422204 -0.0824491 27
-1.15856 -1.22535 -0.380715 14
-2.88357 -2.13314 0.818707 2
-2.88283 -2.13258 0.561142 2
-5.22205 -5.53639 1.47125 1
-2.88486 -2.13485 0.310928 2
-5.19213 -5.48929 0.922152 11
-2.8716 -2.12427 0.0617379 2
-0.649739 -0.481803 -0.0406954 14
-1.51028 -1.58845 -0.0376536 14
-0.564356 -0.418265 -0.0818406 27
-0.865387 -0.639078 -0.278696 44
-1.15234 -1.21446 -0.377908 14
-2.89273 -2.11658 0.818145 2
-2.8896 -2.11505 0.560362 2
-5.22632 -5.485 1.46457 8
-2.8896 -2.11581 0.310274 1
-5.20614 -5.44858 0.919718 8
-2.87828 -2.10675 0.0616506 1
-0.656284 -0.48134 -0.040958 14
-1.52175 -1.5844 -0.0377408 14
-0.564462 -0.41394 -0.0815364 27
-0.864021 -0.632248 -0.200942 41
-0.870562 -0.636112 -0.279342 42
-1.15679 -1.20685 -0.377346 14
-2.96313 -2.16009 0.0633959 18
-0.647032 -0.472846 -0.0403016 14
-1.52798 -1.58535 -0.0378281 14
-0.571203 -0.417334 -0.0824491 27
-0.865123 -0.630738 -0.200942 41
-0.865919 -0.630184 -0.277403 42
-1.15384 -1.19955 -0.375662 14
-2.98657 -2.15331 0.0636576 21
-0.645447 -0.466534 -0.0400391 14
-1.53653 -1.57706 -0.0378281 14
-0.569424 -0.411339 -0.0818406 27
-0.864538 -0.623184 -0.19999 41
-0.865283 -0.622825 -0.276109 42
-1.15693 -1.18979 -0.374539 14
-2.99845 -2.15393 0.0638322 20
-0.652346 -0.469773 -0.0404329 15
-1.54451 -1.57975 -0.037959 14
-0.566036 -0.407552 -0.0812321 27
-0.861634 -0.618816 -0.199037 42
-0.868333 -0.622719 -0.276756 42
-1.15201 -1.18097 -0.372293 14
-3.02969 -2.1532 0.0642685 18
-0.650724 -0.463461 -0.0401703 15
-1.556 -1.57547 -0.0380462 14
-0.566138 -0.403148 -0.0809279 27
-1.52076 -1.53962 -0.185924 15
-0.866757 -0.615866 -0.199513 42
-0.871473 -0.618316 -0.276756 42
-1.15477 -1.17144 -0.37117 14
-3.09468 -2.19045 0.865875 2
-3.2269 -3.29051 1.22391 2
-3.09582 -2.19206 0.593921 3
-3.20254 -3.25316 0.879793 1
-3.07698 -2.17951 0.326834 9
-3.21743 -3.26039 0.557368 9
-3.04606 -2.15604 0.0645303 27
-0.649494 -0.460884 -0.0400391 15
-1.56401 -1.57809 -0.0381771 14
-0.566841 -0.402159 -0.0809279 29
-1.52519 -1.53874 -0.186141 15
-0.859811 -0.60869 -0.197609 41
-1.53209 -1.54785 -0.339837 14
-0.864763 -0.611077 -0.274169 42
-1.15852 -1.17116 -0.371731 14
-3.10449 -2.17228 0.865314 4
-3.21239 -3.24038 1.21163 1
-3.08943 -2.16254 0.590409 9
-3.20224 -3.21893 0.875027 1
-3.0724 -2.15141 0.325091 11
-3.24378 -3.25172 0.558889 8
-3.0696 -2.14865 0.0647921 30
-0.647806 -0.454616 -0.0397765 14
-1.57253 -1.56961 -0.0381771 14
-0.564939 -0.396245 -0.0803194 29
-1.53498 -1.53249 -0.186359 15
-0.861079 -0.602625 -0.197133 42
-1.53843 -1.53806 -0.339445 14
-0.86795 -0.606541 -0.274169 42
-1.15969 -1.15969 -0.370046 14
-3.08391 -2.15069 0.858575 9
-3.23845 -3.25534 1.21939 4
-3.08472 -2.15203 0.588848 9
-3.07615 -2.14604 0.325091 12
-3.07335 -2.14329 0.0647921 12
-0.650647 -0.454911 -0.0399078 15
-1.58234 -1.57393 -0.0383517 14
-0.569635 -0.398192 -0.0809279 29
-1.54294 -1.53509 -0.187011 15
-0.858099 -0.598319 -0.19618 42
-1.54635 -1.54061 -0.34062 14
-0.867024 -0.603648 -0.273523 42
-1.15979 -1.15615 -0.369485 14
-3.10516 -2.14142 0.861383 8
-3.10204 -2.14006 0.590019 8
-3.08287 -2.12762 0.324655 12
-3.09033 -2.13197 0.064923 11
-0.64883 -0.448779 -0.0396452 15
-0.56558 -0.390983 -0.0800152 29
-1.55246 -1.52902 -0.187228 15
-0.863139 -0.595359 -0.196656 41
-1.55764 -1.53624 -0.341403 14
-0.868077 -0.597885 -0.272876 42
-1.16237 -1.14663 -0.368362 14
-3.11856 -2.14344 0.864191 2
-3.11354 -2.14077 0.59158 2
-3.10505 -2.13493 0.326616 2
-5.48461 -5.41126 0.940407 12
-3.10229 -2.13223 0.0650975 2
-0.649612 -0.447646 -0.0396452 15
-0.562101 -0.387287 -0.0794067 29
-1.55868 -1.5298 -0.187663 14
-0.860128 -0.591077 -0.195704 42
-1.5691 -1.54219 -0.343361 14
-0.871113 -0.597733 -0.273523 42
-1.16763 -1.14822 -0.369485 14
-3.12974 -2.12708 0.864191 2
-5.49606 -5.39976 2.05235 11
-3.12879 -2.12722 0.59236 2
-3.11376 -2.11778 0.326398 3
-5.54126 -5.41022 0.945275 12
-3.1089 -2.11369 0.0650102 2
-0.654012 -0.445641 -0.0397765 15
-0.566174 -0.385731 -0.0797109 29
-1.57023 -1.5251 -0.188098 14
-0.861077 -0.585339 -0.195228 42
-1.57539 -1.53223 -0.342969 12
-0.860127 -0.583841 -0.268996 42
-1.16666 -1.13528 -0.367239 14
-3.14556 -2.1298 0.86756 2
-5.52962 -5.41383 2.06139 11
-3.12841 -2.11898 0.59158 2
-3.13189 -2.12212 0.327923 3
-5.63068 -5.47846 0.958965 12
-3.13366 -2.12173 0.0654465 11
-0.650653 -0.441701 -0.039514 15
-0.560679 -0.380574 -0.0787982 29
-0.853961 -0.578341 -0.193323 42
-1.56921 -1.52087 -0.341011 11
-0.861247 -0.582189 -0.268996 42
-1.17562 -1.14005 -0.369485 15
-3.15501 -2.1114 0.866998 3
-5.66459 -5.48638 2.10081 8
-3.16241 -2.11713 0.595872 4
-5.67378 -5.47621 1.52462 12
-3.1516 -2.11068 0.328795 9
-5.67453 -5.46169 0.961399 14
-3.15304 -2.11085 0.065621 15
-0.644656 -0.432737 -0.0389889 15
-0.566857 -0.380292 -0.0794067 29
-0.857078 -0.573713 -0.193323 41
-1.57386 -1.50893 -0.340228 11
-0.862274 -0.576332 -0.26835 42
-1.18177 -1.13367 -0.369485 15
-3.18467 -2.124 0.874298 3
-5.69499 -5.49663 2.10857 9
-3.18665 -2.1253 0.599775 3
-5.69394 -5.47651 1.52748 12
-3.17393 -2.11761 0.330756 3
-5.67868 -5.44662 0.960487 14
-3.17128 -2.11504 0.0659265 2
-0.64541 -0.431612 -0.0389889 15
-0.567519 -0.379302 -0.0794067 29
-0.85399 -0.569498 -0.192371 42
-1.56224 -1.4925 -0.337096 11
-0.861266 -0.57349 -0.267703 42
-1.17672 -1.12485 -0.367239 15
-3.19612 -2.10674 0.874298 4
-5.73068 -5.47341 2.11115 11
-3.19773 -2.10859 0.599775 3
-5.72254 -5.44662 1.52748 12
-3.17874 -2.09685 0.330102 3
-5.70892 -5.41852 0.960791 12
-3.16352 -2.08603 0.0655338 9
-0.647661 -0.428226 -0.0389889 15
-2.3047 -2.17897 -0.0547569 36
-0.565352 -0.373598 -0.0787982 27
-0.85491 -0.563671 -0.191895 41
-1.56287 -1.4775 -0.33553 11
-0.854163 -0.562347 -0.26447 42
-1.18789 -1.12371 -0.368923 15
-5.75071 -5.4734 2.11503 11
-5.72848 -5.43325 1.52653 12
-3.15533 -2.07353 0.32727 3
-5.72378 -5.41367 0.961703 11
-3.15671 -2.07365 0.0653156 3
-0.650495 -0.428465 -0.0391201 15
-2.32122 -2.18696 -0.0550623 36
-0.566003 -0.37261 -0.0787982 29
-0.853839 -0.560833 -0.191419 42
-1.56186 -1.47138 -0.334747 11
-0.857164 -0.562177 -0.265117 42
-1.18808 -1.11996 -0.368362 15
-5.77402 -5.43824 2.11309 9
-5.764 -5.4099 1.52844 11
-3.16405 -2.05563 0.327052 3
-5.77015 -5.40059 0.964746 9
-3.16752 -2.05709 0.0653156 2
-0.652729 -0.425053 -0.0391201 15
-2.33994 -2.1816 -0.0552369 35
-0.565863 -0.368292 -0.078494 27
-0.860884 -0.559022 -0.192371 42
-1.56774 -1.46149 -0.334356 11
-0.862124 -0.558992 -0.265763 44
-1.19926 -1.11872 -0.370046 14
-5.7923 -5.43642 2.11632 9
-5.7806 -5.40655 1.53034 9
-3.16764 -2.0501 0.327052 2
-5.82309 -5.43116 0.972048 8
-3.15851 -2.04342 0.0650538 1
-0.64718 -0.419848 -0.0387263 15
-2.34923 -2.18263 -0.0553678 36
-0.574845 -0.372687 -0.0797109 29
-0.853609 -0.552198 -0.190466 42
-1.57029 -1.45875 -0.334356 11
-0.859038 -0.554872 -0.26447 42
-1.20477 -1.11996 -0.37117 15
-5.87197 -5.45372 2.13506 8
-5.89883 -5.45961 1.55417 11
-3.18252 -2.03617 0.327488 2
-5.89884 -5.44438 0.979958 11
-3.16917 -2.02685 0.0650538 2
-0.649369 -0.416454 -0.0387263 15
-2.37165 -2.18047 -0.0556295 36
-0.85028 -0.543763 -0.189038 41
-1.58153 -1.45386 -0.335139 11
-0.85582 -0.546476 -0.26253 42
-1.20883 -1.11198 -0.370608 15
-5.96474 -5.52061 2.16543 12
-5.91196 -5.45263 1.55513 9
-3.16086 -2.01456 0.324873 9
-5.90468 -5.43071 0.979349 11
-3.16638 -2.01729 0.064923 12
-0.650095 -0.41532 -0.0387263 15
-2.38097 -2.1814 -0.0557604 35
-0.857443 -0.546226 -0.190466 42
-1.5768 -1.44441 -0.333573 11
-0.856772 -0.544981 -0.26253 42
-1.20719 -1.10657 -0.369485 14
-6.01314 -5.50726 2.17254 12
-5.93861 -5.41995 1.55465 9
-5.93303 -5.39972 0.979349 8
-3.17478 -1.99936 0.0648793 23
-0.652261 -0.41191 -0.0387263 15
-2.39791 -2.17394 -0.0558913 36
-0.856134 -0.539119 -0.189514 42
-1.58434 -1.43613 -0.333573 11
-0.863706 -0.543053 -0.263823 44
-1.21476 -1.10187 -0.370046 14
-6.04592 -5.51793 2.18094 12
-5.95532 -5.41618 1.55656 9
-5.93877 -5.38602 0.978741 8
-3.16768 -1.98717 0.0646612 26
-0.648747 -0.40812 -0.0384638 15
-2.41096 -2.17815 -0.0561095 36
-0.857074 -0.537624 -0.189514 42
-1.57953 -1.42673 -0.332007 11
-0.854411 -0.53515 -0.26059 42
-1.21849 -1.10139 -0.370608 14
-6.09086 -5.50078 2.18676 11
-7.3088 -4.52976 1.3533 39
-5.97631 -5.37836 1.55465 9
-7.41052 -4.59456 0.75978 36
-3.16741 -1.96398 0.064443 26
-0.648753 -0.403403 -0.0383325 15
-2.4335 -2.17551 -0.0563713 35
-0.853614 -0.529258 -0.188085 41
-1.58882 -1.42009 -0.332398 11
-0.859256 -0.531937 -0.261237 44
-1.22243 -1.09336 -0.370046 14
-7.31604 -4.51661 1.97377 41
-6.113 -5.50145 2.19128 9
-7.31039 -4.51311 1.35213 41
-7.40158 -4.57115 0.758037 33
-3.16233 -1.9532 0.0642685 26
-0.653705 -0.404892 -0.038595 15
-2.44848 -2.18125 -0.0566331 35
-0.613956 -0.542323 -0.0684982 18
-0.850357 -0.525193 -0.187133 41
-1.58393 -1.41073 -0.330832 11
-0.860183 -0.530437 -0.261237 42
-1.23703 -1.10261 -0.373977 14
-7.32451 -4.46554 1.96928 39
-6.16972 -5.4924 2.20097 11
-7.31784 -4.46321 1.34901 41
-7.40707 -4.51937 0.756076 32
-6.56791 -5.81052 1.07093 2
-3.16858 -1.93346 0.0641812 27
-0.647359 -0.396152 -0.0380699 15
-2.46961 -2.17625 -0.0568512 35
-0.613149 -0.535694 -0.0680633 20
-0.848992 -0.518034 -0.186181 41
-1.5913 -1.40242 -0.330832 11
-0.856848 -0.522014 -0.259297 42
-1.24115 -1.09429 -0.373416 14
-7.31069 -4.44138 1.96366 36
-6.20819 -5.50728 2.21131 11
-7.30162 -4.4376 1.34471 38
-7.40643 -4.50126 0.755204 32
-6.54727 -5.77392 1.06606 2
-3.16768 -1.92533 0.064094 29
-0.645916 -0.393726 -0.0379387 15
-2.48466 -2.18184 -0.057113 35
-0.608477 -0.529684 -0.0674109 17
-0.851994 -0.517823 -0.186657 41
-1.58819 -1.39474 -0.329657 11
-0.851559 -0.516768 -0.257357 42
-1.24652 -1.09556 -0.374539 14
-7.30669 -4.38674 1.95636 33
-6.26138 -5.49812 2.22036 9
-7.30994 -4.39041 1.34198 35
-6.55662 -5.73749 1.68524 3
-7.40563 -4.44961 0.752808 32
-6.57554 -5.73793 1.06575 3
-3.16452 -1.90155 0.0638322 29
-0.650109 -0.391623 -0.0380699 15
-2.50132 -2.17417 -0.0572439 35
-0.613119 -0.528127 -0.0676284 20
-0.854604 -0.513504 -0.186657 41
-1.59175 -1.38315 -0.328874 11
-0.852091 -0.511212 -0.256711 42
-1.25224 -1.08902 -0.374539 14
-7.29552 -4.36273 1.95131 32
-6.28913 -5.50309 2.22682 9
-7.29004 -4.36117 1.33691 33
-6.56022 -5.71844 1.68333 3
-7.39843 -4.42773 0.751283 32
-6.60052 -5.73947 1.06819 3
-3.17031 -1.89675 0.0638758 30
-0.646505 -0.387927 -0.0378074 15
-2.51832 -2.18127 -0.0575493 35
-0.6084 -0.522156 -0.066976 18
-0.851284 -0.509497 -0.185705 41
-1.58112 -1.36903 -0.326134 11
-0.855146 -0.510811 -0.257357 42
-1.26332 -1.09484 -0.377346 14
-7.30223 -4.31329 1.94682 30
-6.34072 -5.48796 2.23458 9
-7.3029 -4.31539 1.33496 33
-6.60122 -5.69364 1.68619 4
-7.40298 -4.37623 0.749322 32
-6.61832 -5.69234 1.06606 3
-3.17159 -1.87504 0.0637013 30
-0.650678 -0.385806 -0.0379387 15
-2.53957 -2.17576 -0.0577675 35
-0.841613 -0.497957 -0.115611 41
-0.607348 -0.515717 -0.0665411 18
-0.854028 -0.504884 -0.185705 41
-1.58453 -1.35751 -0.325351 11
-0.849483 -0.501428 -0.254771 41
-1.27476 -1.09276 -0.379031 14
-7.288 -4.28946 1.9412 29
-6.37587 -5.49899 2.24362 9
-7.2969 -4.29639 1.33262 33
-6.61487 -5.68531 1.68714 4
-7.38699 -4.34941 0.746925 32
-6.60277 -5.66093 1.0621 3
-3.16409 -1.86317 0.0634831 30
-0.649198 -0.383404 -0.0378074 15
-2.54906 -2.1762 -0.0578984 35
-0.846673 -0.499149 -0.11622 41
-0.608247 -0.514656 -0.0665411 18
-0.848558 -0.499666 -0.184276 41
-1.57752 -1.34671 -0.323393 11
-0.852441 -0.501165 -0.255417 42
-1.28017 -1.09393 -0.380154 14
-7.2893 -4.239 1.93558 29
-6.433 -5.49175 2.25396 9
-7.30008 -4.24696 1.3291 33
-6.60806 -5.62152 1.67809 4
-7.39385 -4.3032 0.745399 32
-6.55667 -5.56203 1.04993 2
-3.17132 -1.84587 0.0634395 32
-0.646879 -0.377491 -0.0375448 15
-2.57339 -2.17459 -0.0582038 35
-0.842837 -0.490971 -0.115307 41
-0.609033 -0.509854 -0.0663237 18
-0.853199 -0.496596 -0.184752 41
-1.57326 -1.32884 -0.321044 11
-0.854966 -0.496844 -0.255417 42
-1.28588 -1.08721 -0.380154 14
-7.28404 -4.21895 1.93222 29
-6.45912 -5.49461 2.25978 9
-7.29466 -4.22678 1.32676 33
-6.5758 -5.57231 1.66713 2
-7.39272 -4.28529 0.744528 33
-6.59099 -5.57142 1.05389 2
-3.16404 -1.83352 0.0632213 32
-0.643216 -0.37386 -0.0372823 15
-2.58482 -2.17654 -0.0583783 35
-0.845841 -0.490741 -0.115611 41
-0.606117 -0.505577 -0.0658888 17
-0.851939 -0.493878 -0.184276 41
-0.855919 -0.495202 -0.255417 42
-1.29707 -1.09284 -0.382962 14
-7.29196 -4.17101 1.92828 27
-6.51831 -5.48447 2.27012 9
-7.28742 -4.17009 1.3213 30
-6.57293 -5.51098 1.65902 2
-7.39851 -4.23533 0.742785 33
-6.63626 -5.54842 1.05632 1
-3.16709 -1.8132 0.0630904 32
-0.642997 -0.369248 -0.037151 15
-2.60423 -2.16893 -0.0585528 35
-0.842019 -0.482466 -0.114699 41
-0.604933 -0.499202 -0.0654539 18
-0.850336 -0.486829 -0.183324 41
-0.854303 -0.488323 -0.254124 42
-1.30856 -1.0905 -0.384646 14
-7.27945 -4.1487 1.92323 27
-6.54822 -5.49017 2.27723 9
-7.28323 -4.15252 1.31935 33
-6.64089 -5.54831 1.6738 9
-7.39507 -4.21625 0.741695 32
-6.67545 -5.56342 1.06119 14
-3.15721 -1.80025 0.0628287 33
-0.64581 -0.369361 -0.0372823 15
-2.61954 -2.17398 -0.0588146 33
-0.838462 -0.478689 -0.11409 39
-0.607717 -0.499739 -0.0656713 18
-0.844783 -0.481706 -0.181895 41
-0.850953 -0.484448 -0.252831 41
-1.30654 -1.08532 -0.383523 14
-7.27772 -4.09738 1.91705 24
-6.60936 -5.48473 2.28886 9
-7.28121 -4.10101 1.31506 33
-6.71237 -5.55062 1.68476 14
-7.39245 -4.16532 0.739299 32
-6.69683 -5.52207 1.05997 14
-3.16193 -1.78179 0.0627414 33
-0.643383 -0.363526 -0.0370197 15
-2.64787 -2.175 -0.0592073 33
-0.845283 -0.476724 -0.114699 42
-0.608403 -0.494967 -0.0654539 18
-0.85149 -0.479828 -0.182848 39
-0.853394 -0.480134 -0.252831 44
-1.32347 -1.08778 -0.386892 12
-7.26573 -4.07395 1.912 23
-6.63753 -5.48859 2.29532 9
-7.28189 -4.08467 1.31388 33
-6.66432 -5.48932 1.66999 12
-7.38885 -4.14632 0.738209 33
-6.67963 -5.48831 1.05571 14
-3.16316 -1.7745 0.0626978 33
-0.646195 -0.363623 -0.037151 15
-2.6536 -2.17196 -0.0592509 33
-0.850445 -0.477672 -0.115307 42
-0.611191 -0.495485 -0.0656713 18
-0.8459 -0.474747 -0.181419 41
-0.854315 -0.478495 -0.252831 45
-1.32912 -1.08857 -0.388015 12
-7.26209 -4.02043 1.90526 18
-6.69328 -5.47402 2.30437 8
-7.2866 -4.03564 1.31076 33
-6.66254 -5.42953 1.66236 11
-7.38938 -4.09421 0.73603 33
-6.67458 -5.4239 1.05024 12
-3.15929 -1.75065 0.062436 33
-0.643721 -0.357817 -0.0368885 15
-2.68278 -2.17175 -0.0596436 33
-0.846501 -0.469462 -0.114394 42
-0.609911 -0.489138 -0.0652364 18
-0.850605 -0.47135 -0.181895 42
-0.858923 -0.475181 -0.253477 44
-1.34633 -1.09059 -0.391385 12
-7.2492 -3.99843 1.90021 17
-6.72528 -5.48065 2.31212 9
-7.28428 -4.01942 1.3092 33
-6.63773 -5.39003 1.65378 11
-7.37907 -4.07169 0.734287 33
-6.63876 -5.37746 1.04324 12
-3.16015 -1.74392 0.0623923 33
-2.67055 -2.15642 0.178073 3
-0.646531 -0.357898 -0.0370197 15
-2.68851 -2.16863 -0.0596872 32
-0.847238 -0.468132 -0.114394 42
-0.608827 -0.486506 -0.065019 18
-0.842824 -0.465133 -0.179991 41
-0.857634 -0.472519 -0.252831 44
-1.35182 -1.09155 -0.392508 12
-7.23794 -3.94294 1.89179 15
-6.78676 -5.47385 2.32375 8
-7.29222 -3.97414 1.30686 33
-6.65728 -5.35021 1.65188 12
-7.38865 -4.02833 0.733198 33
-6.65909 -5.33642 1.04202 12
-3.15577 -1.72073 0.0621306 33
-2.69155 -2.15021 0.178727 3
-0.648334 -0.354621 -0.0370197 18
-2.71506 -2.1675 -0.0600363 33
-0.849677 -0.46369 -0.114394 42
-0.609338 -0.481861 -0.0648015 18
-0.845168 -0.460862 -0.179991 42
-0.853647 -0.464718 -0.250891 44
-7.22485 -3.92111 1.88673 14
-6.81888 -5.48016 2.33151 8
-7.28395 -3.95316 1.30413 33
-6.66469 -5.33705 1.6514 11
-7.38473 -4.00949 0.732108 32
-6.6587 -5.31704 1.0405 12
-3.15657 -1.71403 0.0620869 33
-2.71481 -2.16108 0.180036 3
-0.648952 -0.353489 -0.0370197 20
-2.72665 -2.16899 -0.0602108 33
-0.852667 -0.463388 -0.114699 44
-0.604338 -0.476136 -0.0641491 18
-0.845971 -0.459386 -0.179991 42
-0.858706 -0.465523 -0.252184 44
-7.21375 -3.86472 1.87831 14
-6.87205 -5.46394 2.33991 8
-7.28713 -3.90564 1.30101 33
-6.73677 -5.33715 1.66236 9
-7.39245 -3.96371 0.730801 32
-6.72148 -5.30981 1.04598 12
-3.16109 -1.69512 0.0619997 35
-2.72805 -2.14839 0.180167 4
-0.652995 -0.351264 -0.037151 20
-2.75367 -2.16707 -0.0605599 33
-0.844141 -0.453065 -0.113177 44
-0.606823 -0.472966 -0.0641491 18
-0.8462 -0.453793 -0.179515 42
-0.537717 -0.418824 -0.102577 21
-0.85474 -0.45761 -0.250244 44
-7.18112 -3.83274 1.8682 14
-6.91563 -5.47895 2.35154 8
-7.27869 -3.88478 1.29828 35
-6.77688 -5.34974 1.66999 9
-7.38837 -3.94494 0.729711 33
-6.75023 -5.31343 1.04902 11
-3.15743 -1.68607 0.0618688 35
-2.74945 -2.15752 0.181344 4
-0.649201 -0.347775 -0.0368885 20
-2.76138 -2.16535 -0.0606471 33
-0.847121 -0.452758 -0.113482 44
-0.601775 -0.467286 -0.0634968 18
-0.851324 -0.454622 -0.180467 44
-0.532627 -0.413302 -0.101403 23
-0.855537 -0.456118 -0.250244 44
-7.17373 -3.77907 1.8609 14
-6.97652 -5.46801 2.36252 8
-7.28145 -3.83741 1.29515 33
-7.38689 -3.89459 0.727533 32
-3.15295 -1.66252 0.061607 35
-2.78041 -2.15843 0.182652 4
-0.653222 -0.345534 -0.0370197 21
-2.78846 -2.16314 -0.0609962 33
-0.842891 -0.444851 -0.112569 42
-0.602248 -0.462599 -0.0632793 20
-0.847175 -0.446733 -0.179038 42
-0.534784 -0.410508 -0.101403 23
-0.847221 -0.446023 -0.247011 44
-7.15809 -3.75648 1.85529 15
-7.27502 -3.81781 1.29281 33
-7.38486 -3.87706 0.726661 33
-3.15584 -1.65702 0.061607 35
-2.79995 -2.16581 0.183699 8
-0.653824 -0.344393 -0.0370197 23
-2.80606 -2.16899 -0.0613016 38
-0.843666 -0.443379 -0.112569 42
-0.601086 -0.460021 -0.0630619 20
-0.852302 -0.447529 -0.179991 44
-0.525747 -0.402004 -0.0994454 23
-0.847998 -0.444543 -0.247011 44
-7.16749 -3.7121 1.85248 18
-7.28394 -3.77399 1.29086 33
-7.38737 -3.82917 0.724918 33
-2.85782 -2.19 0.437193 3
-3.16226 -1.63932 0.0615634 36
-2.81522 -2.15416 0.183961 9
-0.648968 -0.337522 -0.0366259 23
-2.81738 -2.15427 -0.0613016 49
-0.845976 -0.438956 -0.112569 44
-0.605463 -0.458384 -0.0632793 20
-0.848093 -0.439681 -0.178562 44
-0.529803 -0.400749 -0.0998369 23
-0.848168 -0.43899 -0.246365 44
-0.852867 -0.650187 -0.239211 26
-7.15815 -3.69302 1.84855 20
-7.27735 -3.75448 1.28852 33
-2.86062 -2.19052 0.692968 4
-7.38076 -3.80942 0.723611 33
-2.83406 -2.16389 0.432934 9
-3.15845 -1.63036 0.0614325 36
-2.83087 -2.15834 0.184746 11
-0.653994 -0.338677 -0.0368885 23
-2.83305 -2.15845 -0.0615634 33
-0.844535 -0.436343 -0.112265 42
-0.598347 -0.451277 -0.0624095 18
-0.848859 -0.438201 -0.178562 44
-0.530502 -0.399824 -0.0998369 23
-0.844636 -0.435303 -0.245071 44
-0.854001 -0.648697 -0.239211 33
-7.15849 -3.64429 1.84349 21
-2.8653 -2.1782 0.953798 8
-7.28371 -3.7096 1.28618 33
-2.87791 -2.17996 0.694398 4
-7.38285 -3.76168 0.721868 33
-2.85326 -2.15501 0.434151 14
-3.15803 -1.60926 0.0612579 36
-2.84014 -2.14199 0.184615 14
-0.657983 -0.33638 -0.0370197 23
-2.84432 -2.14359 -0.0615634 17
-0.840172 -0.428542 -0.111352 42
-0.600702 -0.448138 -0.0624095 18
-0.851142 -0.43375 -0.178562 44
-0.534557 -0.398531 -0.100228 23
-0.853366 -0.43415 -0.247011 44
-7.149 -3.62534 1.83956 23
-2.86141 -2.16736 0.951213 9
-7.27255 -3.68795 1.28306 33
-2.86997 -2.16605 0.691538 9
-7.37386 -3.74091 0.720342 33
-2.86098 -2.15302 0.434759 26
-3.15415 -1.60036 0.061127 36
-2.85784 -2.14754 0.185531 11
-0.654115 -0.332974 -0.0367572 24
-2.84805 -2.13862 -0.0615634 2
-0.845346 -0.429316 -0.11196 44
-0.601483 -0.447089 -0.0624095 18
-0.840946 -0.426727 -0.176181 44
-0.531309 -0.394624 -0.0994454 23
-0.847654 -0.429396 -0.245071 44
-7.15388 -3.57773 1.83563 24
-2.88081 -2.15764 0.953798 4
-7.27031 -3.6375 1.27916 33
-2.87968 -2.14902 0.691062 8
-7.38062 -3.69427 0.719035 32
-2.89247 -2.15235 0.437802 1
-3.16052 -1.58215 0.0610834 36
-2.86141 -2.12608 0.185008 2
-0.662606 -0.332779 -0.037151 27
-2.88565 -2.14259 -0.0621306 2
-0.847657 -0.424736 -0.11196 44
-0.603893 -0.443828 -0.0624095 18
-0.841046 -0.421075 -0.175705 44
-0.531389 -0.39036 -0.0990538 23
-0.852127 -0.42588 -0.245718 44
-0.860022 -0.636607 -0.238649 39
-7.15077 -3.56214 1.83339 23
-2.88264 -2.15117 0.953152 2
-7.26938 -3.62278 1.27798 35
-2.88933 -2.14839 0.692491 1
-7.37146 -3.67361 0.71751 33
-2.87992 -2.13596 0.435368 1
-3.15209 -1.57106 0.0608653 36
-2.86073 -2.11861 0.184746 2
-0.658716 -0.329397 -0.0368885 27
-2.90946 -2.15244 -0.0625669 1
-0.839436 -0.418984 -0.110743 42
-0.606667 -0.444257 -0.0626269 18
-0.848374 -0.422882 -0.177134 44
-0.530087 -0.387959 -0.0986623 21
-0.848542 -0.422247 -0.244425 45
-0.853206 -0.629434 -0.236403 41
-7.15402 -3.51713 1.82946 24
-2.89932 -2.14086 0.95509 1
-7.27496 -3.57813 1.27564 35
-2.89029 -2.12645 0.690108 2
-7.37431 -3.62856 0.715984 32
-2.89107 -2.12085 0.435368 2
-2.8738 -2.10508 0.184877 1
-0.669337 -0.330463 -0.0374136 29
-2.93845 -2.151 -0.0629596 9
-0.843845 -0.415677 -0.111048 45
-0.608907 -0.441181 -0.0626269 18
-0.843893 -0.415341 -0.175705 44
-0.852837 -0.419008 -0.245071 44
-0.85649 -0.624958 -0.236403 41
-7.15078 -3.50161 1.82721 26
-2.90499 -2.13723 0.955737 2
-7.2701 -3.56 1.27369 35
-7.36721 -3.60911 0.714677 33
-2.94999 -2.15314 0.189587 3
-0.667671 -0.328198 -0.0372823 29
-2.9422 -2.14587 -0.0629596 26
-0.849029 -0.416382 -0.111656 44
-0.599627 -0.432765 -0.0615397 18
-0.844617 -0.413867 -0.175705 44
-0.849225 -0.415403 -0.243778 44
-0.855616 -0.622021 -0.235841 39
-7.15426 -3.45545 1.82328 26
-7.27975 -3.51759 1.27213 35
-7.36807 -3.56182 0.712934 35
-2.98752 -2.1567 0.191288 4
-0.67843 -0.32892 -0.0378074 30
-2.98377 -2.15241 -0.063614 18
-0.844492 -0.408698 -0.110743 44
-0.601959 -0.429514 -0.0615397 18
-0.84235 -0.407309 -0.174753 42
-0.842683 -0.406765 -0.241192 44
-0.854918 -0.61467 -0.234718 39
-7.14491 -3.43557 1.81935 26
-7.26585 -3.49524 1.26862 33
-7.3653 -3.54463 0.712062 33
-3.0176 -2.17046 0.192989 4
-0.679003 -0.327736 -0.0378074 36
-2.98753 -2.1472 -0.063614 17
-0.847441 -0.408297 -0.111048 44
-0.604728 -0.429919 -0.0617571 18
-0.845272 -0.4069 -0.175229 42
-0.839106 -0.403062 -0.239898 42
-0.852042 -0.610321 -0.233595 39
-7.15239 -3.39165 1.81654 26
-7.26903 -3.44847 1.26589 33
-7.37087 -3.49833 0.710755 35
-3.05979 -2.17585 0.194951 8
-0.687478 -0.327384 -0.0382012 42
-3.02557 -2.14986 -0.0641812 18
-0.845152 -0.401583 -0.110439 44
-0.843024 -0.400222 -0.174277 44
-0.845572 -0.400725 -0.241192 44
-0.857313 -0.60712 -0.234157 41
-7.14669 -3.37521 1.81373 26
-7.26551 -3.43283 1.26433 33
-7.37246 -3.48333 0.710319 33
-3.08171 -2.1874 0.459099 4
-3.06117 -2.16959 0.194821 11
-0.685791 -0.325118 -0.0380699 47
-3.03339 -2.14747 -0.0642685 20
-0.845782 -0.400254 -0.110439 44
-0.839281 -0.396659 -0.173324 44
-0.839713 -0.396167 -0.239252 42
-0.848347 -0.598702 -0.231349 42
-7.13777 -3.3254 1.80699 24
-3.08145 -2.17741 1.00032 2
-7.26772 -3.38745 1.26159 33
-3.09659 -2.1801 0.728712 3
-7.36516 -3.4344 0.707922 33
-3.08704 -2.16695 0.458186 9
-3.0684 -2.15066 0.194559 11
-0.691954 -0.323751 -0.0383325 52
-3.06468 -2.14645 -0.0647048 15
-0.843365 -0.393728 -0.109831 44
-0.603748 -0.41831 -0.0611048 18
-0.836826 -0.390338 -0.172372 44
-0.839517 -0.390896 -0.238605 42
-0.853461 -0.595656 -0.231911 41
-7.13414 -3.31009 1.80475 24
-3.103 -2.18456 1.00614 3
-7.26466 -3.3706 1.26003 33
-3.08232 -2.16199 0.724423 9
-7.36211 -3.41734 0.707051 33
-3.07659 -2.15159 0.456056 11
-3.07215 -2.1453 0.194559 11
-0.690253 -0.321493 -0.0382012 52
-3.06637 -2.13967 -0.0646612 12
-0.839548 -0.39017 -0.109222 44
-0.602437 -0.415828 -0.0608873 18
-0.837506 -0.388877 -0.172372 44
-0.838005 -0.388418 -0.237958 42
-0.850512 -0.591365 -0.230788 42
-7.15195 -3.27144 1.80475 23
-3.08866 -2.15031 0.99774 9
-7.26424 -3.3243 1.25691 33
-3.10972 -2.15703 0.728236 9
-7.36858 -3.37357 0.705961 32
-3.08985 -2.13687 0.45636 9
-3.08334 -2.12919 0.194559 11
-0.689711 -0.316716 -0.0380699 55
-3.09397 -2.13496 -0.0650102 3
-0.846094 -0.38783 -0.109831 44
-0.604678 -0.412562 -0.0608873 18
-0.837298 -0.383468 -0.171896 44
-0.842226 -0.385025 -0.238605 45
-0.849595 -0.584125 -0.229665 42
-7.21973 -3.28721 1.82047 18
-3.1162 -2.16147 1.00549 8
-7.25879 -3.3065 1.25496 35
-3.10982 -2.14826 0.727283 8
-7.35406 -3.35141 0.704 32
-3.11399 -2.14557 0.459403 2
-3.08705 -2.12381 0.194559 1
-0.690263 -0.315511 -0.0380699 53
-3.09975 -2.13098 -0.0650538 3
-0.84451 -0.385327 -0.109526 44
-0.601296 -0.408679 -0.0604524 18
-0.8402 -0.383021 -0.172372 44
-0.834164 -0.379422 -0.236019 42
-0.84861 -0.581255 -0.229103 42
-7.25075 -3.25408 1.82384 14
-3.12187 -2.14047 1.00356 4
-7.26531 -3.26212 1.25301 35
-3.13115 -2.13888 0.729666 2
-7.363 -3.30749 0.703129 32
-3.12146 -2.1259 0.458794 2
-3.11294 -2.11692 0.195475 3
-0.685072 -0.308827 -0.0376761 50
-3.12157 -2.12121 -0.065272 8
-0.848847 -0.381766 -0.109831 45
-0.60137 -0.404123 -0.0602349 18
-0.844501 -0.379472 -0.172848 44
-0.838344 -0.376034 -0.236665 42
-0.84571 -0.572529 -0.227419 42
-7.30256 -3.26355 1.83563 12
-3.13358 -2.14048 1.00614 2
-7.25239 -3.24265 1.24989 36
-3.12474 -2.1265 0.727283 2
-7.35739 -3.28955 0.702039 32
-3.13915 -2.13076 0.460924 3
-3.11833 -2.11343 0.195606 3
-0.690169 -0.309667 -0.0379387 52
-3.13147 -2.11997 -0.0654029 12
-0.842647 -0.3774 -0.108918 44
-0.597953 -0.400274 -0.0598 18
-0.840678 -0.376 -0.171896 44
-0.854165 -0.575097 -0.157781 49
-0.841206 -0.375551 -0.237312 44
-0.848621 -0.572572 -0.22798 42
-7.2705 -3.20367 1.82328 30
-3.14237 -2.12323 1.00549 2
-7.26249 -3.20164 1.24872 35
-3.15174 -2.12164 0.731095 3
-7.36483 -3.24826 0.701168 33
-3.15439 -2.11707 0.461532 4
-2.1061 -0.929537 0.0395733 4
-3.14178 -2.10543 0.196391 11
-0.684926 -0.303031 -0.0375448 49
-3.14216 -2.1041 -0.0654029 14
-0.844612 -0.372982 -0.108918 44
-0.602109 -0.398526 -0.0600175 18
-0.84257 -0.37174 -0.171896 44
-0.857165 -0.570617 -0.157781 47
-0.836461 -0.368379 -0.235372 42
-0.847567 -0.565398 -0.226857 44
-7.25154 -3.18021 1.8171 32
-3.15007 -2.12045 1.00679 2
-7.25676 -3.184 1.24677 35
-3.17413 -2.1279 0.735385 3
-7.35224 -3.22739 0.699425 35
-3.1622 -2.11432 0.462141 4
-2.11933 -0.93051 0.0397915 4
-3.15168 -2.10411 0.196783 2
-0.680881 -0.299832 -0.0372823 47
-3.14998 -2.10139 -0.0654901 8
-0.845262 -0.371508 -0.108918 45
-0.602803 -0.397475 -0.0600175 18
-0.836472 -0.367319 -0.170467 44
-0.852006 -0.564997 -0.156607 49
-0.834953 -0.365807 -0.234725 42
-0.846531 -0.562559 -0.226295 44
-7.25969 -3.13707 1.81486 33
-3.18561 -2.11946 1.01454 3
-7.25348 -3.13588 1.24325 33
-3.18523 -2.11126 0.735385 3
-7.35588 -3.18164 0.698118 33
-3.18186 -2.10267 0.463358 3
-2.11958 -0.917417 0.0397042 4
-3.17967 -2.09804 0.19783 8
-0.682441 -0.296263 -0.0372823 47
-3.17382 -2.09259 -0.0657519 3
-0.838145 -0.362998 -0.107701 45
-0.606954 -0.395687 -0.0602349 18
-0.836193 -0.361817 -0.169991 44
-0.857011 -0.561892 -0.156998 49
-0.83242 -0.359522 -0.233432 42
-0.853621 -0.560665 -0.227419 44
-7.25342 -3.12085 1.81205 33
-3.19534 -2.11791 1.01648 2
-7.25613 -3.1235 1.24286 36
-3.1705 -2.0935 0.731095 3
-7.35685 -3.16682 0.697682 33
-3.1686 -2.08673 0.460924 2
-2.12577 -0.915691 0.0397915 4
-3.16212 -2.0793 0.196522 2
-0.682957 -0.295071 -0.0372823 49
-3.15659 -2.07329 -0.0653156 1
-0.840994 -0.36266 -0.108005 45
-0.601404 -0.390516 -0.0595826 18
-0.845846 -0.364226 -0.171896 45
-0.853868 -0.557676 -0.156215 47
-0.837487 -0.359969 -0.234725 44
-0.844342 -0.552604 -0.224611 45
-7.26742 -3.08188 1.81149 35
-7.24965 -3.07583 1.23896 33
-7.36361 -3.12566 0.69681 35
-3.18133 -2.06817 0.197045 1
-0.682144 -0.290636 -0.037151 49
-3.16914 -2.05866 -0.0653593 2
-0.842882 -0.358252 -0.108005 45
-0.60546 -0.388827 -0.0598 20
-0.843158 -0.358028 -0.170944 45
-0.856777 -0.553197 -0.156215 47
-0.841523 -0.356664 -0.235372 44
-0.847223 -0.548176 -0.224611 44
-7.2498 -3.06099 1.80587 33
-7.24363 -3.05837 1.23701 35
-7.35299 -3.10602 0.695285 35
-3.15981 -2.0463 0.195475 1
-0.68495 -0.290415 -0.0372823 49
-3.16224 -2.04632 -0.0651411 2
-0.841219 -0.355817 -0.107701 47
-0.595693 -0.380989 -0.0587128 20
-0.846043 -0.357508 -0.17142 45
-0.85153 -0.547664 -0.155041 47
-0.835465 -0.35239 -0.233432 42
-0.846138 -0.545367 -0.224049 42
-7.25726 -3.01798 1.80363 33
-7.24815 -3.01566 1.23506 33
-7.36226 -3.0646 0.694631 35
-3.16628 -2.02703 0.195213 4
-0.686511 -0.286705 -0.0372823 49
-3.17081 -2.02838 -0.0650975 15
-0.849946 -0.354261 -0.108614 45
-0.601938 -0.38045 -0.0591477 20
-0.843369 -0.351193 -0.170467 45
-0.854386 -0.543198 -0.155041 47
-0.83953 -0.348934 -0.234079 44
-0.842837 -0.536972 -0.222365 44
-7.25802 -3.00344 1.8025 35
-7.24199 -2.99828 1.23311 35
-7.34689 -3.04318 0.69267 33
-3.16771 -2.02015 0.195082 9
-0.680089 -0.282645 -0.0368885 49
-3.15749 -2.01208 -0.0647484 14
-0.843682 -0.349936 -0.107701 45
-0.606798 -0.382081 -0.0595826 21
-0.841712 -0.348785 -0.169991 45
-0.853253 -0.540375 -0.154649 47
-0.835732 -0.345483 -0.232785 44
-0.841722 -0.534185 -0.221803 44
-7.26288 -2.95954 1.7997 33
-7.24896 -2.95533 1.23155 35
-7.35402 -2.99962 0.691799 33
-0.679248 -0.278139 -0.0367572 49
-3.16622 -1.99363 -0.0647048 35
-0.843265 -0.344431 -0.107397 45
-0.600368 -0.373578 -0.0587128 20
-0.841313 -0.343302 -0.169515 45
-0.85199 -0.533111 -0.153866 47
-0.835291 -0.340195 -0.232139 42
-0.840485 -0.527014 -0.22068 42
-7.25397 -2.94263 1.79633 33
-7.24953 -2.94082 1.23077 35
-7.34078 -2.97929 0.690056 33
-0.679732 -0.276953 -0.0367572 49
-3.16123 -1.98278 -0.0645303 30
-0.841564 -0.342028 -0.107093 45
-0.601019 -0.37253 -0.0587128 21
-0.841911 -0.341833 -0.169515 45
-0.852919 -0.531623 -0.153866 45
-0.833644 -0.337833 -0.231492 42
-0.843463 -0.526847 -0.221242 42
-7.25344 -2.89828 1.7924 32
-7.24827 -2.89767 1.22804 35
-7.34651 -2.9384 0.689184 33
-7.40624 -4.6115 1.06545 41
-7.26799 -4.51829 0.446687 1
-0.678854 -0.272465 -0.0366259 49
-3.16486 -1.96279 -0.0643994 30
-0.847894 -0.339602 -0.107701 45
-0.611421 -0.374639 -0.0595826 21
-0.841351 -0.336659 -0.169039 45
-0.847216 -0.522077 -0.1523 45
-0.830855 -0.331825 -0.230199 42
-0.846119 -0.522571 -0.221242 42
-7.24944 -2.88202 1.79015 32
-7.24414 -2.88137 1.22647 35
-7.30677 -4.54414 1.66427 38
-7.347 -2.92373 0.688748 33
-7.40373 -4.59202 1.06393 42
-7.25677 -4.49376 0.44551 1
-0.677008 -0.270358 -0.0364946 49
-3.15765 -1.95068 -0.0641812 29
-0.846179 -0.337207 -0.107397 45
-0.609956 -0.37226 -0.0593651 23
-0.8465 -0.336998 -0.169991 45
-0.852322 -0.523202 -0.153083 45
-0.835982 -0.332005 -0.231492 44
-0.838755 -0.515947 -0.218996 42
-7.25812 -2.84009 1.78846 32
-7.3297 -4.52293 2.29532 38
-7.24123 -2.83493 1.22335 29
-7.31375 -4.49553 1.66045 39
-7.3488 -2.87849 0.687441 32
-7.42213 -4.548 1.06302 39
-7.32142 -4.47921 0.447996 1
-0.683065 -0.268628 -0.0367572 50
-3.1639 -1.93096 -0.064094 29
-0.841057 -0.329916 -0.106484 47
-0.607649 -0.36646 -0.0589302 21
-0.848311 -0.332413 -0.169991 45
-0.855141 -0.518583 -0.153083 45
-0.833208 -0.325871 -0.230199 42
-0.839459 -0.510126 -0.218434 42
-7.31907 -4.49874 2.2895 36
-7.31321 -4.47762 1.65855 39
-7.40253 -4.51822 1.05906 36
-7.3889 -4.50283 0.451659 29
-0.683533 -0.267435 -0.0367572 50
-3.15873 -1.92023 -0.0639194 29
