# .PCD v0.7 - Point Cloud Data file format
VERSION 0.7
FIELDS x y z intensity
SIZE 4 4 4 4
TYPE F F F F
COUNT 1 1 1 1
WIDTH 1636
HEIGHT 1
VIEWPOINT 0 0 0 1 0 0 0
POINTS 1636
DATA ascii
3.48426 -0.87312 0.951859 64
3.43252 -1.54975 0.589629 62
3.49102 -0.881225 0.692491 65
2.35864 -1.06444 0.223337 3
3.48747 -0.884828 0.436889 62
2.18477 -0.986319 0.0412313 33
3.4886 -0.887685 0.186839 62
2.22518 -1.00506 -0.12655 49
2.95446 -0.754168 -0.052619 17
2.2251 -1.00595 -0.295113 52
3.50164 -0.892292 -0.312482 65
2.22738 -1.00838 -0.467595 50
3.50838 -0.891425 -0.568483 64
2.23112 -1.01193 -0.646626 58
3.02572 -0.766145 -0.711455 9
3.4493 -1.57985 0.866437 73
3.4798 -0.890744 0.951859 62
3.43333 -1.57182 0.59119 17
3.4889 -0.899493 0.692968 64
2.35775 -1.07844 0.223772 3
3.47799 -0.901837 0.436281 61
3.48148 -0.905314 0.186709 61
2.21779 -1.01526 -0.126418 50
3.09821 -0.807341 -0.0552805 8
2.22206 -1.01862 -0.295417 52
3.49949 -0.910628 -0.3127 61
2.22894 -1.02272 -0.469023 50
3.50367 -0.909783 -0.568483 62
2.23036 -1.02523 -0.647919 58
2.93909 -0.760743 -0.691802 4
3.44903 -1.58628 0.866998 49
3.48058 -0.897416 0.952506 62
3.40591 -1.56645 0.586897 55
3.48732 -0.905581 0.692968 65
2.36039 -1.08463 0.224208 3
3.48361 -0.909777 0.437193 61
2.22509 -1.02331 -0.126944 50
2.22253 -1.02354 -0.295722 52
3.48584 -0.913594 -0.311613 53
2.22715 -1.02661 -0.469023 50
3.50924 -0.917761 -0.569657 62
2.23295 -1.03115 -0.649213 58
2.92361 -0.762207 -0.688432 12
3.44701 -1.60801 0.868683 56
3.47817 -0.91624 0.953152 64
3.3999 -1.5853 0.587287 58
3.48728 -0.92508 0.693921 65
2.36145 -1.10013 0.224862 2
3.4812 -0.928641 0.437497 61
2.99496 -0.801849 0.160671 35
2.22178 -1.03639 -0.127075 50
2.94275 -0.789049 -0.0525754 4
2.22389 -1.03832 -0.296634 52
3.44716 -0.923463 -0.308568 41
2.22397 -1.03929 -0.469499 50
3.50916 -0.937391 -0.57044 61
2.22533 -1.0418 -0.648566 58
2.9078 -0.774389 -0.685625 11
3.44641 -1.61506 0.869244 62
3.4789 -0.922925 0.953798 64
3.39266 -1.58914 0.586507 55
3.49024 -0.933035 0.694874 65
2.35727 -1.1032 0.224644 3
3.47957 -0.934716 0.437497 61
2.99115 -0.806428 0.160541 35
2.22223 -1.04133 -0.127206 50
2.22432 -1.04325 -0.296939 50
3.40705 -0.919151 -0.305089 29
2.2266 -1.04526 -0.470452 50
3.50752 -0.943514 -0.57044 61
2.23643 -1.05225 -0.652446 59
2.92527 -0.784481 -0.690117 8
3.44642 -1.63787 0.87149 62
3.47619 -0.942363 0.954444 61
3.39516 -1.61277 0.588458 55
3.48531 -0.951297 0.694874 62
2.34677 -1.1138 0.224208 29
3.47925 -0.954835 0.438106 61
2.98433 -0.821941 0.16041 47
2.21656 -1.05334 -0.127206 49
2.22536 -1.05847 -0.297851 50
3.38522 -0.932962 -0.303567 15
2.22534 -1.05941 -0.471404 50
3.50474 -0.963129 -0.570832 62
2.22872 -1.06291 -0.651799 61
2.95155 -0.808616 -0.697417 8
3.44575 -1.64493 0.872052 61
3.4792 -0.949694 0.955737 64
3.3968 -1.62082 0.589239 53
3.48584 -0.958634 0.695351 65
3.48476 -0.962879 0.439019 62
2.97808 -0.825822 0.160148 47
2.21697 -1.05828 -0.127337 50
2.22351 -1.06235 -0.297851 52
2.2257 -1.06435 -0.47188 50
3.50782 -0.970555 -0.571615 62
2.23538 -1.07136 -0.654386 59
2.93603 -0.809902 -0.694048 4
3.439 -1.66461 0.872613 61
3.47633 -0.96915 0.956383 61
3.39242 -1.64133 0.590019 53
3.4855 -0.978192 0.696304 64
3.4795 -0.98172 0.439019 62
2.96876 -0.840569 0.159886 49
2.21814 -1.07314 -0.127731 49
2.21773 -1.07437 -0.297851 50
2.22212 -1.07745 -0.472356 50
3.50252 -0.98952 -0.571615 62
2.23191 -1.08411 -0.655032 47
3.04187 -0.856643 -0.72044 9
3.44295 -1.67321 0.874298 61
3.47696 -0.975865 0.957029 59
3.33848 -1.62241 0.581044 15
3.48615 -0.984938 0.696781 64
3.48255 -0.989141 0.439627 61
2.95768 -0.843027 0.159363 44
2.22075 -1.07919 -0.127994 50
3.10524 -0.886003 -0.0557604 11
2.22254 -1.0815 -0.298764 52
2.72042 -0.776319 -0.243984 9
2.22464 -1.08348 -0.473309 50
3.50791 -0.997648 -0.57279 61
2.217 -1.08164 -0.651152 24
3.03568 -0.860629 -0.719316 11
3.4404 -1.69505 0.875983 61
3.47645 -0.99538 0.958322 61
3.44733 -1.69773 0.601726 61
3.48095 -1.00318 0.696781 64
3.47733 -1.00736 0.439627 62
2.95083 -0.857809 0.159232 50
2.21955 -1.09302 -0.128256 50
3.05014 -0.887658 -0.0548442 17
2.21907 -1.09422 -0.299068 52
2.70436 -0.787093 -0.242897 9
2.22774 -1.09946 -0.475213 49
3.50501 -1.01669 -0.573181 62
2.23511 -1.10502 -0.658265 53
3.03581 -0.877858 -0.72044 11
3.4421 -1.70261 0.877106 61
3.47703 -1.00211 0.958968 59
3.44879 -1.70593 0.602506 62
3.48626 -1.01129 0.69821 64
3.4851 -1.01619 0.440844 62
2.95173 -0.863655 0.159363 50
2.2154 -1.09578 -0.128125 50
3.01259 -0.882494 -0.0541897 17
2.22383 -1.1014 -0.299981 50
2.70298 -0.791812 -0.242897 9
2.22582 -1.10335 -0.475213 49
3.5056 -1.02349 -0.573573 62
2.23534 -1.11 -0.658912 56
3.03193 -0.882478 -0.719878 11
3.43719 -1.72339 0.878229 61
3.47637 -1.02166 0.96026 61
3.44864 -1.7284 0.604067 62
3.48798 -1.03161 0.69964 67
3.47259 -1.03232 0.439931 61
2.95434 -0.881228 0.159755 44
2.21633 -1.11072 -0.128519 49
2.99594 -0.894698 -0.0539716 30
2.22025 -1.11414 -0.300285 50
2.69402 -0.804537 -0.242462 9
2.22001 -1.11498 -0.475213 49
3.50275 -1.04192 -0.573964 62
2.19068 -1.10213 -0.647273 15
3.02727 -0.898341 -0.719878 9
3.44101 -1.73208 0.879913 59
3.4769 -1.02841 0.960906 61
3.44592 -1.73381 0.604067 61
3.48382 -1.037 0.699164 67
3.48286 -1.04131 0.441453 62
2.96731 -0.89015 0.160541 44
2.21439 -1.11459 -0.128519 49
2.9824 -0.896347 -0.0537534 36
2.22293 -1.11986 -0.300894 50
2.69023 -0.808525 -0.242244 9
2.22901 -1.12439 -0.477594 50
3.50329 -1.04874 -0.574356 62
2.18013 -1.10159 -0.644686 15
3.4384 -1.75339 0.881598 61
3.47396 -1.04669 0.961553 62
3.44339 -1.7552 0.605238 61
3.48558 -1.05675 0.700593 64
3.47498 -1.05881 0.441148 61
2.97216 -0.908579 0.161064 52
2.21539 -1.12919 -0.128913 50
2.96587 -0.907791 -0.0535353 38
2.22145 -1.13374 -0.301502 50
2.6861 -0.822131 -0.242244 9
2.22329 -1.13566 -0.477594 49
3.50502 -1.06861 -0.57553 62
2.14659 -1.09829 -0.63628 14
3.44215 -1.76213 0.883282 59
3.47213 -1.05275 0.961553 62
3.44502 -1.76286 0.606018 61
3.48843 -1.06426 0.701547 68
3.25699 -1.66657 0.317029 21
3.48043 -1.06644 0.442061 61
2.96596 -0.911787 0.160802 44
2.21786 -1.13533 -0.129175 49
2.96428 -0.912966 -0.0535353 42
2.22188 -1.13837 -0.301806 50
2.68228 -0.826088 -0.242027 9
2.22786 -1.1429 -0.479023 49
3.50315 -1.07472 -0.57553 62
2.12534 -1.09209 -0.630461 15
2.28548 -0.700336 -0.542997 14
3.43287 -1.78012 0.883282 61
3.47368 -1.07244 0.963491 62
3.44013 -1.78314 0.606799 61
3.48534 -1.08262 0.702023 67
3.43202 -1.77819 0.335114 59
3.47717 -1.08538 0.442365 62
2.96114 -0.927304 0.160802 53
2.21651 -1.14884 -0.129438 49
2.95246 -0.925725 -0.0534044 44
2.22249 -1.15342 -0.302719 52
2.68758 -0.842618 -0.242897 9
2.22205 -1.15416 -0.479023 52
3.49984 -1.09379 -0.575922 61
2.10694 -1.09614 -0.626581 15
2.27713 -0.71085 -0.541874 14
3.44087 -1.79114 0.88609 61
3.47411 -1.07921 0.964137 61
3.44796 -1.79485 0.60875 62
3.48579 -1.08943 0.7025 67
3.39357 -1.76577 0.331628 59
3.47527 -1.09145 0.442365 59
2.95714 -0.931724 0.160671 49
2.22115 -1.15617 -0.129832 50
2.95084 -0.930877 -0.0534044 47
2.22487 -1.15959 -0.303328 55
2.68135 -0.845817 -0.242462 9
2.23308 -1.16486 -0.48188 58
3.50499 -1.1021 -0.577096 62
2.08362 -1.08862 -0.620114 15
3.43544 -1.81201 0.887213 61
3.47302 -1.09884 0.96543 62
3.4407 -1.81403 0.60914 62
3.48238 -1.10841 0.702976 67
3.4063 -1.79513 0.333806 59
3.47187 -1.11039 0.44267 59
2.93319 -0.941122 0.159625 50
2.21727 -1.16895 -0.129963 61
2.92926 -0.940989 -0.0530989 47
2.22974 -1.17702 -0.304849 65
2.68163 -0.86136 -0.242897 9
2.23129 -1.17883 -0.482832 73
3.48976 -1.11744 -0.57553 59
2.07363 -1.09725 -0.618821 15
3.43905 -1.82082 0.888898 61
3.4734 -1.10563 0.966076 61
3.44408 -1.8235 0.610311 59
3.48277 -1.11523 0.703453 67
3.40096 -1.79991 0.333589 61
3.47702 -1.11871 0.443582 61
2.92204 -0.943187 0.159101 50
2.22405 -1.1775 -0.130488 83
2.9181 -0.94304 -0.0529244 47
2.2233 -1.17858 -0.30424 76
2.68486 -0.867563 -0.243332 9
2.23573 -1.18618 -0.484261 86
2.04826 -1.08839 -0.611708 15
2.23835 -0.720314 -0.534012 14
3.43559 -1.84286 0.890582 59
3.46986 -1.12454 0.966722 61
3.43883 -1.84385 0.611091 61
3.47689 -1.13345 0.703453 59
3.40027 -1.8224 0.33446 61
3.47583 -1.13844 0.444191 61
2.91469 -0.957699 0.15897 50
2.22225 -1.19149 -0.130751 90
2.90599 -0.955974 -0.0527935 49
2.2171 -1.19021 -0.30424 71
2.68975 -0.884705 -0.244202 9
2.22084 -1.19321 -0.482356 44
2.03403 -1.09452 -0.609122 14
2.23455 -0.732024 -0.534012 14
3.43698 -1.85057 0.891705 61
3.47479 -1.13283 0.968661 61
3.4443 -1.85453 0.612652 59
3.40805 -1.83424 0.33555 47
3.47148 -1.14373 0.443887 61
2.90115 -0.958885 0.158316 49
2.21358 -1.19181 -0.130357 53
2.90432 -0.961045 -0.0527935 49
2.20628 -1.18936 -0.303023 35
2.68347 -0.887842 -0.243767 9
2.20364 -1.18892 -0.479023 30
2.013 -1.08772 -0.603302 15
2.21938 -0.731377 -0.530643 14
3.43761 -1.87497 0.894513 61
3.4711 -1.15177 0.969307 61
3.44105 -1.87609 0.613823 61
3.4137 -1.86041 0.337075 47
3.46545 -1.1619 0.443887 61
2.89372 -0.97327 0.158185 50
2.19614 -1.19779 -0.1297 29
2.89214 -0.973857 -0.0526626 49
2.19567 -1.19852 -0.302415 27
2.68571 -0.904721 -0.244419 9
2.18231 -1.1922 -0.47569 29
1.99033 -1.08896 -0.598129 15
2.20858 -0.740678 -0.528959 14
3.4386 -1.88331 0.895636 59
3.47367 -1.15935 0.970599 61
3.4421 -1.88446 0.614603 59
2.90807 -0.977563 0.58907 11
3.42356 -1.87354 0.338382 56
2.89202 -0.978319 0.158185 50
2.17654 -1.19201 -0.12865 26
2.8928 -0.979701 -0.0527063 52
2.16747 -1.18802 -0.298764 26
2.69357 -0.912588 -0.245289 9
2.16732 -1.18892 -0.472833 27
1.97555 -1.0858 -0.594249 12
2.19574 -0.740663 -0.526151 14
3.43688 -1.90662 0.897882 61
3.46963 -1.1789 0.971246 62
3.43617 -1.90546 0.615384 59
2.882 -0.985662 0.584781 9
3.43297 -1.90291 0.340343 62
2.15935 -1.19733 -0.127994 24
2.88509 -0.994527 -0.0526626 55
2.15017 -1.1937 -0.297243 26
2.70054 -0.930717 -0.246376 9
2.1437 -1.19108 -0.469023 27
2.18017 -0.748601 -0.523343 14
3.43814 -1.91439 0.899005 61
3.46986 -1.18573 0.971892 61
3.43533 -1.91205 0.615774 58
2.86402 -0.985129 0.581445 9
3.43182 -1.91011 0.340561 59
2.9295 -1.0115 0.375737 11
2.14417 -1.19381 -0.127206 24
2.88099 -0.998746 -0.052619 56
2.12879 -1.1862 -0.294505 24
2.71539 -0.94111 -0.247898 9
2.12448 -1.18524 -0.465214 27
2.24235 -0.776326 -0.370767 14
2.16055 -0.745705 -0.518851 14
3.43231 -1.93476 0.900128 61
3.46609 -1.20406 0.972538 61
3.43818 -1.93729 0.618115 59
2.84509 -0.994774 0.578585 11
3.4373 -1.93602 0.342086 61
2.89371 -1.01618 0.371782 11
2.1292 -1.20011 -0.126681 24
2.87826 -1.01414 -0.0526626 56
2.11391 -1.19244 -0.293288 24
2.73863 -0.965203 -0.250508 9
2.10777 -1.18994 -0.462833 27
2.21728 -0.780719 -0.367243 12
2.14742 -0.7538 -0.516605 14
3.43529 -1.94435 0.901813 61
3.46399 -1.21011 0.972538 61
3.43694 -1.94451 0.618505 59
2.85012 -1.00267 0.580015 9
3.44041 -1.94569 0.34274 61
2.88959 -1.02041 0.371477 12
2.1119 -1.19521 -0.125762 24
2.87648 -1.01916 -0.0526626 55
2.10319 -1.19124 -0.292071 24
2.76043 -0.978262 -0.252682 9
2.09075 -1.18514 -0.4595 29
2.20893 -0.78213 -0.366068 12
2.12541 -0.750293 -0.511551 14
3.43106 -1.96654 0.903497 62
3.45511 -1.22803 0.971892 56
3.43494 -1.96799 0.620066 59
2.83559 -1.01429 0.578109 9
3.43848 -1.96923 0.343612 59
2.87 -1.03101 0.369652 12
2.09478 -1.20004 -0.125106 24
2.87328 -1.03556 -0.0527063 55
2.0838 -1.19518 -0.290245 26
2.78575 -1.00363 -0.255509 9
2.07154 -1.1891 -0.456643 29
2.20015 -0.792022 -0.365285 12
2.10526 -0.756052 -0.507621 14
3.4343 -1.97557 0.905182 61
3.46434 -1.23811 0.975123 61
3.44041 -1.97831 0.621627 59
2.83612 -1.02006 0.578585 8
3.4372 -1.97647 0.343829 58
2.86605 -1.03468 0.369348 14
1.83331 -1.05388 0.036301 65
2.07538 -1.19372 -0.124055 24
2.87382 -1.04142 -0.0527499 55
2.06472 -1.18854 -0.287811 24
2.80976 -1.01778 -0.257901 8
2.05458 -1.18412 -0.45331 29
2.1918 -0.793354 -0.364111 12
2.09948 -0.757714 -0.506498 14
3.42601 -1.99476 0.905743 61
3.4603 -1.25645 0.975769 61
3.43427 -1.99878 0.622408 59
2.82631 -1.03272 0.577632 3
3.44006 -2.00136 0.345137 59
2.85593 -1.04797 0.368739 15
1.82795 -1.06314 0.036301 59
2.05637 -1.19667 -0.123268 26
2.87321 -1.05767 -0.0528372 55
2.04347 -1.19058 -0.285682 26
2.81393 -1.03541 -0.258771 8
2.03797 -1.18832 -0.450929 29
2.17834 -0.801428 -0.362545 12
2.08633 -0.765361 -0.504251 14
3.42918 -2.00382 0.907428 59
3.46264 -1.26414 0.977061 61
3.43504 -2.00726 0.623188 59
2.82681 -1.0385 0.578109 2
3.44301 -2.01114 0.34579 59
2.84943 -1.05125 0.368131 15
2.03703 -1.19017 -0.122218 26
2.86666 -1.06095 -0.0527499 55
2.03282 -1.18913 -0.284465 26
2.81212 -1.04032 -0.258771 8
2.02107 -1.18319 -0.447596 30
2.15608 -0.797563 -0.359021 12
2.07584 -0.765649 -0.502005 15
3.42038 -2.02359 0.90799 59
3.46277 -1.28476 0.979 61
3.42661 -2.02648 0.623578 59
2.84434 -1.06183 0.582875 3
3.43887 -2.03294 0.346444 61
2.84854 -1.06789 0.368739 15
2.01144 -1.18937 -0.121036 24
2.87043 -1.07945 -0.0529244 55
2.00522 -1.1871 -0.281422 26
2.81363 -1.05765 -0.259423 8
2.00218 -1.18624 -0.444739 29
2.14262 -0.805385 -0.357455 12
2.06952 -0.775658 -0.501444 29
3.42977 -2.03643 0.911359 59
3.46279 -1.29164 0.979646 61
3.43368 -2.03876 0.625529 59
2.8103 -1.05477 0.576202 4
3.44602 -2.0453 0.347534 61
2.85132 -1.0746 0.369348 12
2.00078 -1.18778 -0.120511 24
2.86855 -1.08446 -0.0529244 52
1.99249 -1.18426 -0.279901 26
1.99167 -1.18471 -0.442834 30
2.12503 -0.803048 -0.354715 12
2.07044 -0.780122 -0.502005 52
3.42287 -2.05747 0.912482 59
3.46275 -1.31231 0.981585 61
3.42296 -2.05671 0.625529 59
3.43526 -2.06331 0.347534 61
1.9817 -1.19052 -0.119723 26
2.86283 -1.09947 -0.0529244 49
1.9735 -1.18699 -0.278076 26
1.97073 -1.18625 -0.439501 30
2.13233 -0.818564 -0.356672 14
2.06633 -0.790952 -0.502005 32
3.43215 -2.07039 0.915851 61
3.46046 -1.31836 0.981585 61
3.4257 -2.06651 0.6267 58
3.44018 -2.07445 0.348405 61
1.97534 -1.19139 -0.119461 26
2.85857 -1.10357 -0.0528808 45
1.96294 -1.1853 -0.276859 27
1.95816 -1.18334 -0.43712 32
2.11245 -0.815212 -0.35354 12
2.06267 -0.793688 -0.501444 15
3.42298 -2.0902 0.916413 59
3.46478 -1.3408 0.984816 61
3.42326 -2.08957 0.628261 59
3.44023 -1.33818 0.710125 49
3.42715 -2.09114 0.348187 61
3.4693 -1.35499 0.452405 61
1.95416 -1.19261 -0.118542 26
2.86673 -1.12397 -0.0531426 47
1.944 -1.18779 -0.275033 27
1.93519 -1.18332 -0.433311 30
2.13347 -0.836119 -0.357847 12
2.05849 -0.804477 -0.501444 15
3.428 -2.10067 0.918659 61
3.46243 -1.34685 0.984816 61
3.43224 -2.10329 0.630602 61
3.46762 -1.35577 0.716321 64
3.43836 -2.10623 0.349712 67
3.47387 -1.36375 0.453318 62
1.94357 -1.19079 -0.118017 27
1.93981 -1.18988 -0.274729 27
2.1343 -0.840741 -0.358238 14
2.05254 -0.806297 -0.500321 17
3.42279 -2.12304 0.920343 67
3.45983 -1.36672 0.986108 59
3.42538 -2.12384 0.631383 67
3.4696 -1.37751 0.718227 62
3.42517 -2.12289 0.349495 67
3.4759 -1.38559 0.454535 65
1.92458 -1.19305 -0.117229 27
1.91459 -1.18823 -0.271991 26
2.23322 -0.894314 -0.207017 17
2.13217 -0.852817 -0.35863 14
2.04829 -0.817033 -0.500321 18
3.43186 -2.13614 0.923712 71
3.45744 -1.37276 0.986108 59
3.43215 -2.13634 0.633334 73
3.46491 -1.38266 0.717751 64
3.44048 -2.14071 0.351456 79
3.46887 -1.38981 0.453926 64
2.39711 -0.963927 0.133588 3
1.9119 -1.18981 -0.116573 27
2.22098 -0.894375 -0.0411877 35
1.89988 -1.18369 -0.270165 27
2.22935 -0.897285 -0.206799 47
2.13985 -0.860202 -0.360196 36
2.04234 -0.818804 -0.499198 20
3.41613 -2.15208 0.922589 62
3.45916 -1.39445 0.988693 59
3.41465 -2.15033 0.632163 42
3.47128 -1.4063 0.72061 64
3.4208 -2.15339 0.350584 41
3.46844 -1.41075 0.454839 65
2.38972 -0.975526 0.133457 3
1.89086 -1.19048 -0.115654 27
2.22321 -0.908815 -0.0413186 47
1.88526 -1.18833 -0.268948 27
2.22923 -0.91082 -0.207234 47
2.13531 -0.871394 -0.360196 38
2.04705 -0.83314 -0.501444 21
3.39422 -2.14572 0.917536 24
3.45897 -1.40138 0.989339 58
3.39211 -2.1444 0.628651 24
3.46882 -1.41235 0.72061 64
3.39388 -2.14471 0.348187 24
3.46828 -1.41774 0.455143 64
2.39032 -0.980639 0.133588 3
1.87612 -1.18577 -0.114866 30
2.22162 -0.912694 -0.0413186 47
2.22533 -0.913768 -0.207017 49
2.12236 -0.870459 -0.358238 15
2.04334 -0.835794 -0.500882 21
3.35794 -2.14829 0.910797 18
3.46275 -1.42405 0.99257 59
3.36627 -2.15282 0.62592 20
3.46818 -1.4333 0.72204 64
3.37002 -2.1544 0.34688 21
3.4631 -1.43683 0.455448 64
2.38977 -0.995052 0.133849 2
1.87388 -1.1986 -0.115129 30
2.21912 -0.925271 -0.0413622 47
2.22956 -0.92961 -0.207887 47
2.12233 -0.883448 -0.359021 15
2.0547 -0.852985 -0.504813 35
3.34189 -2.14625 0.907428 18
3.4558 -1.42826 0.991278 59
3.33343 -2.14 0.620457 20
3.46543 -1.43995 0.72204 64
3.3432 -2.14547 0.344483 21
3.46288 -1.44382 0.455752 64
2.38803 -0.999221 0.133849 2
1.86969 -1.20052 -0.114997 14
2.21751 -0.929143 -0.0413622 45
2.22563 -0.932543 -0.207669 47
2.11851 -0.886202 -0.35863 15
3.3098 -2.15102 0.901813 39
3.45247 -1.4488 0.99257 59
3.31559 -2.15397 0.619286 44
3.46463 -1.46093 0.72347 64
3.31693 -2.15403 0.342958 32
3.45501 -1.46254 0.455752 62
2.21245 -0.941127 -0.0413622 38
2.22301 -0.945153 -0.207887 47
3.30846 -2.15754 0.902374 4
3.45439 -1.45669 0.993863 58
3.31389 -2.1611 0.619676 1
3.46207 -1.46698 0.72347 61
3.32151 -2.16526 0.343829 9
3.45931 -1.47147 0.456665 62
2.2131 -0.945965 -0.0414058 29
2.07594 -1.35524 -0.299677 45
2.22365 -0.950005 -0.208104 47
3.1149 -2.03589 -0.715201 12
3.32761 -2.19497 0.910797 2
3.45142 -1.47605 0.995155 58
3.32764 -2.19417 0.624359 4
3.46137 -1.48738 0.7249 65
3.31258 -2.18342 0.344047 11
3.46094 -1.49288 0.457882 64
1.7595 -1.1594 0.0361701 18
2.21517 -0.960123 -0.0415367 44
2.07526 -1.36983 -0.300589 45
2.22322 -0.963607 -0.208539 45
3.11069 -2.05569 -0.71663 12
2.22773 -0.963739 -0.37938 47
3.3055 -2.18866 0.905743 2
3.45772 -1.48587 0.99774 58
3.31146 -2.19179 0.622017 3
3.46527 -1.49693 0.72633 67
3.30461 -2.18644 0.343612 3
3.46288 -1.50088 0.45849 62
1.73643 -1.14896 0.0357338 20
2.21808 -0.965974 -0.041624 45
2.077 -1.3762 -0.301198 47
2.22382 -0.968476 -0.208756 45
3.11119 -2.06383 -0.717582 12
2.22831 -0.968606 -0.379772 47
3.28147 -2.19838 0.902374 9
3.45406 -1.50649 0.999032 58
3.32211 -2.2248 0.62631 3
3.46413 -1.518 0.727759 67
3.30308 -2.21122 0.344701 8
3.45926 -1.52159 0.459099 61
1.72001 -1.15108 0.0355156 26
2.07232 -1.38773 -0.129306 47
2.2174 -0.979973 -0.0417112 45
2.07571 -1.39156 -0.302111 47
2.22784 -0.984114 -0.209626 47
3.10202 -2.082 -0.718058 12
2.22774 -0.982243 -0.380555 47
2.22817 -0.98016 -0.553104 45
3.31844 -2.23072 0.913605 2
3.45585 -1.51444 1.00032 58
3.30632 -2.22175 0.623969 3
3.46148 -1.52405 0.727759 62
3.34055 -2.24478 0.349059 1
3.4614 -1.52902 0.459707 62
1.71178 -1.1499 0.0353848 45
2.07404 -1.39413 -0.129569 45
2.21797 -0.984852 -0.0417549 45
2.07558 -1.39621 -0.302415 45
2.2284 -0.989006 -0.209844 47
3.11669 -2.09976 -0.722344 12
2.22828 -0.987125 -0.380946 47
2.22663 -0.983659 -0.553104 45
3.32081 -2.25766 0.917536 2
3.45697 -1.53583 1.00291 59
3.30894 -2.24875 0.6267 2
3.46269 -1.54554 0.729666 62
3.33738 -2.26726 0.34993 3
3.46015 -1.55016 0.46062 65
1.7018 -1.15573 0.0352975 38
2.0729 -1.40918 -0.129963 47
2.21524 -0.997087 -0.0417985 47
2.07644 -1.41264 -0.303632 47
2.22546 -1.00168 -0.210061 47
3.10602 -2.11551 -0.722344 14
2.22759 -1.00079 -0.381729 47
2.2259 -0.997287 -0.554227 47
3.30882 -2.25796 0.915289 15
3.4565 -1.54284 1.00356 59
3.31724 -2.26287 0.629041 15
3.4642 -1.55418 0.730619 70
3.36839 -2.29695 0.353634 18
3.4597 -1.55721 0.460924 67
1.69132 -1.15336 0.035123 33
2.07663 -1.41703 -0.130357 45
2.21577 -1.00198 -0.0418421 45
2.07397 -1.41627 -0.303632 45
2.22371 -1.00556 -0.210061 47
3.07802 -2.10429 -0.71663 15
2.23034 -1.0067 -0.382512 45
2.23082 -1.00416 -0.555912 49
3.35067 -2.31321 0.930451 15
3.4503 -1.56251 1.0042 64
3.33543 -2.30184 0.634895 15
3.46048 -1.57433 0.731572 68
3.38256 -2.33353 0.356467 20
3.45574 -1.57796 0.461532 64
1.68115 -1.15936 0.0350357 42
2.07329 -1.43072 -0.130619 45
2.21259 -1.01499 -0.0418858 45
2.07036 -1.43029 -0.30424 44
2.22521 -1.02029 -0.210714 47
3.06256 -2.11812 -0.715677 17
2.22279 -1.01734 -0.382121 47
2.22314 -1.0152 -0.55535 47
3.38908 -2.34762 0.942243 12
3.45197 -1.57053 1.00549 67
3.30339 -2.28738 0.629432 12
3.4622 -1.5824 0.732525 64
3.37848 -2.33943 0.356467 14
3.44875 -1.58133 0.460924 50
1.67912 -1.16229 0.0350357 49
2.07489 -1.43718 -0.130882 45
2.21764 -1.02197 -0.0420167 45
2.22343 -1.02417 -0.210714 47
2.22775 -1.0243 -0.383295 45
2.22819 -1.02173 -0.557035 47
3.38671 -2.37232 0.94505 11
3.44617 -1.58899 1.00614 44
3.27924 -2.29615 0.62709 14
3.44746 -1.59682 0.731095 39
3.40331 -2.38222 0.360389 20
3.44942 -1.60354 0.462141 56
1.66707 -1.16647 0.0349048 38
2.07142 -1.45089 -0.131144 45
2.2147 -1.03424 -0.0420603 45
2.22481 -1.03895 -0.211366 45
2.22684 -1.03803 -0.384078 47
2.22723 -1.03543 -0.558158 47
3.38058 -2.37683 0.944489 11
3.45435 -1.60006 1.00937 50
3.30552 -2.32317 0.632944 14
3.45329 -1.60757 0.733002 52
3.4236 -2.40535 0.363004 21
3.45562 -1.61374 0.463358 61
1.66279 -1.16823 0.0348612 49
2.07297 -1.45738 -0.131407 45
2.21516 -1.03916 -0.0421039 45
2.22525 -1.04388 -0.211583 45
2.23174 -1.04504 -0.385253 45
2.22984 -1.04137 -0.559281 47
3.38156 -2.40497 0.94842 11
3.44564 -1.61873 1.00937 59
3.24663 -2.3081 0.623969 29
3.45149 -1.62876 0.734432 59
3.41865 -2.42961 0.363875 20
3.45357 -1.63559 0.464271 56
1.65665 -1.17692 0.0348612 45
2.07141 -1.47255 -0.131801 45
2.21854 -1.05541 -0.0422784 45
2.22201 -1.05659 -0.211801 47
2.22623 -1.05672 -0.385253 47
2.22197 -1.05238 -0.55872 45
3.38174 -2.41311 0.949543 11
3.44718 -1.62679 1.01066 58
3.45308 -1.63688 0.735385 58
3.42252 -2.44136 0.364747 20
3.45548 -1.64314 0.464879 52
1.65256 -1.17836 0.0348176 44
2.0729 -1.47907 -0.132063 45
2.2167 -1.05928 -0.0422784 45
2.22691 -1.06367 -0.212453 45
2.22885 -1.06272 -0.386036 45
2.23132 -1.06107 -0.561527 49
3.38289 -2.44077 0.953473 11
3.44327 -1.6463 1.01196 58
3.45139 -1.65751 0.736815 50
3.41416 -2.46156 0.365183 14
3.4513 -1.66336 0.465488 58
1.64657 -1.18671 0.0348176 41
2.07323 -1.49575 -0.132588 45
2.21356 -1.07157 -0.0423221 45
1.65207 -1.19243 -0.245522 15
2.22355 -1.0764 -0.212671 45
2.2277 -1.07651 -0.386819 45
2.22574 -1.07274 -0.561527 49
3.38257 -2.44953 0.954596 11
3.44257 -1.65335 1.0126 56
3.4482 -1.66413 0.736815 55
3.45286 -1.67154 0.466096 58
1.64631 -1.19134 0.0348612 38
2.07263 -1.50083 -0.13272 44
2.21843 -1.0787 -0.042453 45
1.63995 -1.18802 -0.244001 15
2.22616 -1.08245 -0.213106 45
1.62189 -1.17578 -0.381885 27
2.22582 -1.0804 -0.386819 45
2.21947 -1.07451 -0.560404 47
3.37909 -2.475 0.957404 11
3.44226 -1.67617 1.01519 58
3.44826 -1.68647 0.738721 59
3.44823 -1.69238 0.466705 58
1.63602 -1.19698 0.0347739 35
2.06877 -1.51462 -0.132982 44
2.21257 -1.09068 -0.042453 45
1.62349 -1.18954 -0.242479 15
2.22046 -1.09409 -0.213106 45
1.61946 -1.18745 -0.382837 29
2.22679 -1.09529 -0.387993 45
2.21582 -1.08757 -0.560966 45
3.3752 -2.4803 0.957404 11
3.4415 -1.68323 1.01583 56
3.44532 -1.69248 0.738721 49
1.62426 -1.19229 0.173222 24
3.44111 -1.6956 0.466096 58
2.07417 -1.52414 -0.133507 44
2.21963 -1.09896 -0.0426275 44
1.60763 -1.18179 -0.24035 18
2.22525 -1.10126 -0.213758 45
1.61146 -1.1859 -0.381409 30
2.22709 -1.10027 -0.388385 45
2.22504 -1.09641 -0.563773 47
3.36607 -2.50085 0.958527 11
3.44593 -1.70704 1.01971 58
3.4477 -1.71535 0.741104 62
1.60221 -1.18862 0.171479 36
3.44107 -1.71802 0.467313 56
2.06843 -1.53611 -0.133639 44
2.21851 -1.11241 -0.0427148 44
1.59545 -1.18575 -0.239437 20
2.22633 -1.11585 -0.21441 45
1.6015 -1.19111 -0.380456 32
2.23014 -1.11632 -0.389951 45
1.61809 -1.2052 -0.53088 56
2.22582 -1.1113 -0.565458 47
3.37776 -2.51778 0.963019 11
3.44727 -1.7152 1.021 56
3.4469 -1.72246 0.74158 61
1.60013 -1.19141 0.171479 36
3.44029 -1.72513 0.467617 56
3.45769 -1.73683 0.20097 53
2.07575 -1.54718 -0.134295 44
2.21657 -1.11629 -0.0427148 44
1.57946 -1.17813 -0.237307 21
2.22438 -1.11973 -0.21441 45
1.59942 -1.1939 -0.380456 33
2.23039 -1.12131 -0.390343 45
1.61985 -1.21092 -0.532173 50
2.22387 -1.11519 -0.565458 45
3.36993 -2.54042 0.964704 11
3.44256 -1.7354 1.0223 59
1.677 -1.26288 0.326227 9
3.44659 -1.74491 0.743487 61
1.58592 -1.19378 0.170607 47
3.44006 -1.74761 0.468834 58
3.44855 -1.75491 0.20097 53
2.06364 -1.55502 -0.134032 44
2.21515 -1.13014 -0.042802 39
1.56337 -1.17891 -0.235786 20
2.22737 -1.13587 -0.21528 45
1.59315 -1.20226 -0.380456 35
2.2289 -1.13521 -0.391126 45
2.22452 -1.13011 -0.567143 47
3.37564 -2.55306 0.967512 11
3.44168 -1.74249 1.02294 58
1.66889 -1.26133 0.325057 8
3.44792 -1.75314 0.74444 59
1.58383 -1.19654 0.170607 47
3.43922 -1.75473 0.469139 58
3.43658 -1.75639 0.200447 45
2.21094 -1.13287 -0.0427584 23
1.56131 -1.18164 -0.235786 15
2.22316 -1.13862 -0.215063 45
1.59105 -1.20504 -0.380456 38
2.22911 -1.14022 -0.391517 45
2.22038 -1.13289 -0.566581 45
3.36178 -2.57129 0.967512 11
3.43896 -1.76379 1.02488 58
1.6603 -1.26855 0.324667 9
3.44524 -1.77453 0.74587 59
1.57557 -1.2033 0.170389 49
3.44322 -1.77954 0.470964 59
3.44287 -1.78238 0.201363 50
2.21387 -1.14902 -0.0429329 38
1.54132 -1.17923 -0.233657 23
2.22361 -1.15406 -0.215715 45
1.59056 -1.21784 -0.381885 39
2.2275 -1.15414 -0.3923 47
1.58195 -1.21297 -0.524414 49
2.22525 -1.15007 -0.569389 47
3.37081 -2.58754 0.971442 11
3.44232 -1.77309 1.02682 59
1.65613 -1.26995 0.324276 9
3.44619 -1.7834 0.746823 59
1.57149 -1.20454 0.170172 49
3.44452 -1.78782 0.471572 59
3.45305 -1.79528 0.202148 58
2.21851 -1.15633 -0.0430638 49
1.53729 -1.18041 -0.233352 24
2.22822 -1.16138 -0.216367 50
1.58843 -1.22061 -0.381885 38
2.22767 -1.15916 -0.392692 50
1.57771 -1.21453 -0.523767 50
2.22756 -1.15619 -0.570512 50
3.36831 -2.61471 0.974811 11
3.43911 -1.79504 1.02876 58
1.64338 -1.27435 0.323106 9
3.44551 -1.80596 0.748729 59
1.56298 -1.21149 0.169954 50
3.44358 -1.81104 0.472789 61
3.44992 -1.81742 0.20254 56
2.21665 -1.17065 -0.0431511 55
1.52109 -1.18109 -0.231831 21
2.22652 -1.17535 -0.216802 55
1.58761 -1.23371 -0.383314 36
2.22793 -1.17464 -0.393866 56
1.57323 -1.22426 -0.524414 50
2.23423 -1.175 -0.573881 59
3.37572 -2.62898 0.978181 11
3.43811 -1.80216 1.0294 56
1.63921 -1.27569 0.322715 11
3.44887 -1.81539 0.750159 59
1.55694 -1.21116 0.169518 52
3.44481 -1.81936 0.473398 59
2.22123 -1.17801 -0.043282 76
1.51707 -1.18222 -0.231527 21
2.22887 -1.18156 -0.217237 67
1.58739 -1.23799 -0.38379 30
2.23243 -1.18198 -0.395041 62
1.56919 -1.22551 -0.523767 50
2.22786 -1.17663 -0.572758 61
3.36574 -2.64964 0.979304 11
3.43962 -1.82518 1.03263 58
1.63273 -1.28397 0.322715 11
3.44397 -1.83513 0.751112 59
1.55079 -1.21902 0.169518 53
3.43774 -1.83794 0.473702 59
2.22627 -1.19513 -0.0435001 88
1.50522 -1.18527 -0.230614 20
2.22705 -1.19556 -0.217672 59
1.58303 -1.24753 -0.384266 27
2.2177 -1.18861 -0.393475 50
1.56486 -1.23494 -0.524414 49
2.22188 -1.18789 -0.572758 44
3.37258 -2.66457 0.982673 11
3.44282 -1.83458 1.03457 56
1.63048 -1.28682 0.322715 11
3.44694 -1.8452 0.752542 59
1.54475 -1.21864 0.169082 52
3.44328 -1.84862 0.474919 59
1.8695 -1.47626 0.0409695 29
2.21537 -1.19429 -0.0433256 49
1.49926 -1.18482 -0.230006 21
2.2096 -1.1912 -0.21615 32
2.20257 -1.18548 -0.391126 23
1.55682 -1.23344 -0.522474 49
2.19831 -1.18029 -0.567143 23
3.36762 -2.69039 0.98548 11
3.43497 -1.85433 1.03522 55
1.60999 -1.28483 0.319984 11
3.44587 -1.86789 0.754449 59
1.5323 -1.22232 0.168428 52
3.43977 -1.87078 0.475832 59
1.85588 -1.48135 0.0408386 32
3.44614 -1.87733 0.203849 59
2.18472 -1.19312 -0.0428457 23
1.48507 -1.18671 -0.228789 23
2.18801 -1.19443 -0.214628 21
2.18114 -1.18876 -0.388385 21
1.55034 -1.24157 -0.522474 47
2.1769 -1.18405 -0.563212 21
3.36339 -2.69567 0.98548 11
3.43811 -1.86376 1.03716 56
1.6099 -1.28891 0.320374 11
3.44476 -1.87508 0.754925 59
1.5321 -1.22655 0.168646 50
3.43901 -1.87736 0.476136 58
1.8533 -1.48459 0.0408386 26
3.44977 -1.88632 0.204241 59
2.16727 -1.18855 -0.0425402 20
1.47547 -1.18283 -0.227572 24
2.16625 -1.18751 -0.212671 20
2.16171 -1.18311 -0.385253 20
1.54252 -1.23973 -0.520534 47
2.16005 -1.17932 -0.559281 21
3.36059 -2.72245 0.98885 11
3.43499 -1.88462 1.0391 55
1.60505 -1.29887 0.320764 11
3.43952 -1.89485 0.755878 58
1.52394 -1.23272 0.168428 50
3.43783 -1.90013 0.477353 58
3.4464 -1.90798 0.204634 59
2.14591 -1.19104 -0.0422348 20
1.4654 -1.18741 -0.226963 23
2.14692 -1.19161 -0.211366 20
2.14252 -1.18726 -0.382904 20
1.53998 -1.25057 -0.521827 45
2.14104 -1.18357 -0.555912 21
3.36528 -2.736 0.991657 11
3.43804 -1.8941 1.04104 56
1.6047 -1.30323 0.321155 11
3.44447 -1.90619 0.757785 58
1.52179 -1.23538 0.168428 50
3.44319 -1.91094 0.47857 58
3.44961 -1.91762 0.205026 58
2.12853 -1.1863 -0.0419294 20
2.13395 -1.18932 -0.210279 20
2.12532 -1.18262 -0.380163 20
2.12405 -1.17906 -0.551981 21
3.36736 -2.76809 0.996711 11
3.43618 -1.91737 1.04362 56
1.59381 -1.30876 0.320374 11
3.44087 -1.92779 0.759214 58
1.51123 -1.24043 0.167993 50
3.43929 -1.93318 0.479483 58
3.44354 -1.9387 0.205288 59
2.06584 -1.69752 -0.138758 41
2.10465 -1.188 -0.0415804 20
2.10815 -1.1895 -0.208322 20
2.33289 -1.92059 -0.579494 33
2.10833 -1.1877 -0.378206 20
2.10701 -1.18459 -0.549174 21
3.36677 -2.77648 0.997834 11
3.43705 -1.92572 1.04491 56
1.59365 -1.31283 0.320764 11
3.44178 -1.9362 0.760168 58
1.50522 -1.2399 0.167557 49
3.44058 -1.94101 0.480091 58
3.45137 -1.95024 0.205942 58
2.06865 -1.70589 -0.139152 41
2.09604 -1.18799 -0.0414495 20
2.09522 -1.18706 -0.207234 20
2.32007 -1.91684 -0.577113 33
2.08904 -1.18169 -0.375073 20
2.09027 -1.17954 -0.545243 21
3.36154 -2.80187 1.00064 11
3.43357 -1.94666 1.04685 58
1.59434 -1.32748 0.322325 11
3.44048 -1.95844 0.762074 58
1.49893 -1.2475 0.167557 50
3.43468 -1.96146 0.4807 58
3.44545 -1.97076 0.206204 58
2.0616 -1.7183 -0.139283 41
2.07698 -1.19115 -0.0411877 20
2.076 -1.19061 -0.20593 21
2.30469 -1.92383 -0.575684 35
2.06781 -1.18405 -0.372333 20
2.06501 -1.17964 -0.540189 21
3.36225 -2.81243 1.00233 11
3.43436 -1.95503 1.04814 58
1.59013 -1.32868 0.321935 12
3.44311 -1.96869 0.763504 58
1.49293 -1.24692 0.167121 52
3.43771 -1.97114 0.481612 58
3.4485 -1.98049 0.206596 58
2.06434 -1.7267 -0.139677 42
2.05971 -1.18607 -0.0408823 21
2.06312 -1.18803 -0.204842 21
2.29193 -1.91997 -0.573304 35
2.05502 -1.18152 -0.370375 21
2.05025 -1.17599 -0.53682 21
3.42792 -1.97599 1.04944 56
1.5848 -1.33886 0.322325 12
3.43913 -1.99037 0.764934 58
1.48996 -1.25819 0.167557 50
3.43344 -1.99344 0.482525 58
2.03813 -1.18841 -0.0405768 21
2.03963 -1.18882 -0.203103 21
2.27027 -1.92282 -0.570447 36
2.03813 -1.18608 -0.368418 21
2.141 -1.81577 -0.742327 9
2.02699 -1.17731 -0.532328 21
3.42656 -1.98318 1.05008 58
1.58458 -1.34294 0.322715 15
3.44414 -2.00129 0.76684 58
1.48397 -1.25757 0.167121 52
3.43889 -2.00382 0.483742 56
1.51005 -1.28016 0.0339449 29
3.20156 -1.86889 0.192465 36
2.02526 -1.18568 -0.0403587 21
2.02679 -1.18611 -0.202015 21
2.2557 -1.91724 -0.56759 35
2.02325 -1.18219 -0.366068 21
2.14518 -1.82576 -0.744913 9
2.0146 -1.17438 -0.52952 21
2.48271 -2.12834 0.745708 1
3.42691 -2.00658 1.05331 56
1.58503 -1.35765 0.324276 24
3.44032 -2.02242 0.76827 58
1.47569 -1.26344 0.166903 47
3.43263 -2.02432 0.484351 56
1.49027 -1.27639 0.0336395 29
3.4305 -2.02627 0.206989 58
2.002 -1.18576 -0.0400096 21
2.00554 -1.18786 -0.200493 21
2.23108 -1.91583 -0.56378 35
2.00213 -1.184 -0.363328 21
2.13408 -1.83502 -0.744267 9
2.00212 -1.18122 -0.527836 23
2.48453 -2.13744 0.747393 2
3.42965 -2.01623 1.05525 56
1.57704 -1.35558 0.323106 23
3.43855 -2.03027 0.768746 58
1.46971 -1.26277 0.166467 52
3.4355 -2.03409 0.485263 58
1.47455 -1.26783 0.0333341 27
3.37968 -2.0043 0.20411 58
1.99133 -1.18416 -0.0398351 21
1.99489 -1.18628 -0.199623 21
2.22029 -1.91331 -0.561876 36
1.98731 -1.17995 -0.360979 23
2.12872 -1.83754 -0.74362 11
1.98537 -1.17605 -0.523905 23
2.47661 -2.15405 0.748516 3
3.42907 -2.04092 1.05848 56
1.57341 -1.36734 0.323886 14
3.43209 -2.05075 0.7697 58
1.46285 -1.2707 0.166467 52
3.43509 -2.05901 0.486784 58
1.45658 -1.26569 0.0330723 29
3.43948 -2.06487 0.208428 58
1.97202 -1.1872 -0.0395733 21
1.97583 -1.18903 -0.198319 23
2.20066 -1.91723 -0.559495 36
1.97051 -1.18401 -0.359021 23
2.12271 -1.85184 -0.744913 11
1.96642 -1.17928 -0.520536 24
2.47322 -2.15794 0.748516 9
3.43173 -2.05061 1.06042 56
1.55824 -1.35844 0.321155 18
3.43693 -2.06178 0.771606 59
1.45688 -1.26998 0.166032 47
3.43611 -2.06696 0.487393 58
1.45249 -1.26659 0.0330287 42
3.43409 -2.06899 0.208297 55
1.96138 -1.18549 -0.0393988 23
1.95881 -1.18349 -0.196796 23
2.18808 -1.91299 -0.557114 35
1.95785 -1.18109 -0.357064 23
2.11403 -1.85076 -0.742973 11
1.95621 -1.17736 -0.51829 24
2.45823 -2.16763 0.747393 9
3.42545 -2.07044 1.06171 56
1.54925 -1.36495 0.320764 18
3.43485 -2.08423 0.773512 59
1.45044 -1.27733 0.166032 45
3.4316 -2.08878 0.488306 59
1.44044 -1.26896 0.0328978 44
3.44027 -2.09732 0.209344 61
1.94254 -1.18761 -0.039137 23
1.26934 -1.11958 -0.203232 4
1.94408 -1.18855 -0.195927 23
2.17285 -1.91916 -0.555686 36
1.94109 -1.18491 -0.355106 21
2.10463 -1.86144 -0.742973 11
1.93543 -1.17875 -0.514359 26
2.44533 -2.16384 0.744585 11
3.43009 -2.08142 1.0643 56
1.54317 -1.36437 0.319984 26
3.43713 -2.09465 0.774942 59
1.44447 -1.27656 0.165596 45
3.43431 -2.09865 0.489218 59
1.43238 -1.26675 0.0327669 42
3.44513 -2.10852 0.209867 64
1.9298 -1.18448 -0.0389189 23
1.2711 -1.12509 -0.203841 8
1.9335 -1.18675 -0.195057 24
2.15665 -1.91155 -0.552352 36
1.92216 -1.17801 -0.351974 23
2.10647 -1.87029 -0.744913 11
1.92297 -1.17579 -0.511551 26
2.4717 -2.21117 0.756377 1
3.4229 -2.10247 1.06559 58
1.5376 -1.37435 0.320374 30
3.43239 -2.11647 0.776372 61
1.43012 -1.27772 0.164724 52
3.43135 -2.12241 0.490435 68
1.41828 -1.26757 0.0325924 39
3.44217 -2.13238 0.210391 77
1.37171 -1.22632 -0.0949123 42
1.91274 -1.18833 -0.0387007 23
1.2576 -1.12532 -0.202624 8
1.91455 -1.189 -0.193752 24
2.13897 -1.91663 -0.550448 36
1.90336 -1.18028 -0.349625 23
2.09485 -1.87968 -0.744267 12
1.90413 -1.17852 -0.508182 26
3.42951 -2.11477 1.06882 59
1.54647 -1.38666 0.322715 35
3.43913 -2.12891 0.778755 73
1.42789 -1.28021 0.164724 50
3.43645 -2.13302 0.491652 76
1.40677 -1.26169 0.0323742 38
3.43882 -2.13778 0.210391 73
1.35843 -1.2187 -0.0941246 44
1.90004 -1.18508 -0.0384826 23
1.25768 -1.12896 -0.202928 3
2.13014 -1.91544 -0.549019 36
2.09157 -1.88333 -0.744267 12
1.89192 -1.1751 -0.505375 29
3.42902 -2.13848 1.07205 67
1.53919 -1.39474 0.322715 33
3.43455 -2.15018 0.780185 73
1.42139 -1.28742 0.164724 42
3.41683 -2.14571 0.490435 44
1.39481 -1.26375 0.0322433 38
3.41277 -2.14647 0.209475 35
1.34464 -1.21908 -0.0935995 44
1.87708 -1.18405 -0.0381335 26
1.24073 -1.12551 -0.201103 3
2.10771 -1.91464 -0.545686 36
3.35859 -3.05739 1.03883 12
3.42937 -2.14701 1.07335 62
3.41379 -2.14634 0.776372 32
1.41546 -1.28655 0.164289 45
3.38577 -2.1345 0.48648 23
1.38129 -1.25633 0.0319815 36
3.38156 -2.13513 0.207774 20
1.34251 -1.22143 -0.0935995 44
1.87078 -1.18465 -0.0380462 33
1.26443 -1.15109 -0.205362 3
3.35633 -3.08872 1.04332 11
3.40138 -2.15522 1.06818 27
3.37556 -2.1471 0.770176 20
1.40664 -1.2925 0.164071 49
3.35114 -2.13814 0.483134 18
1.3747 -1.26354 0.0319815 39
3.35311 -2.14266 0.206727 18
1.27278 -1.17137 -0.207796 3
3.36221 -3.1039 1.04669 11
3.37518 -2.14692 1.06107 18
3.3449 -2.13585 0.76398 17
1.40256 -1.29326 0.163853 47
3.33277 -2.13463 0.481004 23
1.36698 -1.26085 0.0318506 45
3.33044 -2.1364 0.205549 26
1.29077 -1.19212 -0.211143 9
3.35304 -3.12811 1.04893 11
3.33378 -2.14442 1.05138 17
3.32373 -2.14611 0.761597 24
1.39417 -1.29865 0.163635 42
3.31567 -2.14743 0.480091 36
1.35875 -1.26605 0.031807 49
3.32378 -2.15594 0.205811 15
1.29198 -1.20542 -0.21236 11
3.35469 -3.14062 1.05118 12
3.31581 -2.14108 1.04685 27
3.3196 -2.15249 0.761597 24
1.39372 -1.30278 0.163853 41
3.33273 -2.16672 0.483134 2
1.3545 -1.26695 0.0317634 49
3.31582 -2.15902 0.205549 12
1.30073 -1.21785 -0.214185 12
2.08338 -1.35971 -0.214193 42
3.34118 -3.16208 1.0523 11
3.30014 -2.15635 1.04556 12
3.36006 -3.17886 0.725427 11
3.33293 -2.18596 0.767317 1
1.38665 -1.3103 0.163853 41
3.32757 -2.18822 0.484046 9
1.34785 -1.27402 0.0317634 49
3.31244 -2.18242 0.206073 3
1.29794 -1.22806 -0.214794 12
2.07831 -1.37196 -0.21441 42
1.61456 -1.52969 -0.42474 23
1.58983 -1.50832 -0.577437 33
2.67163 -1.75541 -0.728862 11
3.34504 -3.17571 1.05511 11
3.32668 -2.18194 1.05525 1
3.36043 -3.18923 0.726597 11
3.32911 -2.19177 0.767317 3
1.3864 -1.31419 0.164071 41
3.31752 -2.18993 0.483134 9
1.342 -1.27293 0.0316761 49
3.30067 -2.18212 0.205549 12
1.29759 -1.23203 -0.215098 14
2.08239 -1.37934 -0.215063 42
1.59971 -1.52038 -0.421407 27
2.08193 -1.37751 -0.390343 41
1.57522 -1.49916 -0.572911 33
2.66449 -1.75739 -0.727739 9
3.3465 -3.20947 1.06073 11
3.29785 -2.18618 1.04944 2
3.34781 -3.20962 0.727378 11
3.31018 -2.20259 0.76541 4
1.37793 -1.31947 0.163853 41
3.31259 -2.21082 0.484046 9
1.33937 -1.28293 0.0317634 45
3.2875 -2.19741 0.205419 18
2.07431 -1.38966 -0.0429765 41
1.29134 -1.23859 -0.215098 15
2.07928 -1.39299 -0.215498 41
1.59376 -1.53016 -0.421883 27
2.07699 -1.3894 -0.390734 41
1.55717 -1.49706 -0.569031 36
2.65759 -1.77221 -0.728301 9
3.34967 -3.22375 1.06353 11
3.29805 -2.1946 1.05073 4
3.35466 -3.22745 0.73011 11
3.29982 -2.20486 0.76398 4
1.37563 -1.32187 0.163853 39
3.32111 -2.22487 0.485872 2
1.3315 -1.2803 0.0316325 44
3.26706 -2.19204 0.204372 17
2.07396 -1.39467 -0.0430202 41
1.29275 -1.24428 -0.215706 15
2.08306 -1.40077 -0.21615 42
1.58579 -1.52783 -0.420454 33
1.55256 -1.49837 -0.568384 39
2.66868 -1.78631 -0.732232 9
3.34789 -3.25712 1.06859 11
3.29415 -2.2178 1.05331 3
3.34776 -3.25588 0.732451 11
3.34114 -2.25777 0.776372 1
1.37024 -1.33103 0.164071 39
3.34192 -2.26504 0.49074 2
1.31761 -1.28028 0.031458 49
3.23862 -2.19849 0.203325 14
2.07259 -1.41008 -0.0431511 41
1.28422 -1.24953 -0.215402 17
2.07775 -1.41306 -0.216367 41
1.57574 -1.53467 -0.419978 35
1.54297 -1.50479 -0.567738 39
2.65494 -1.79799 -0.731109 9
3.34974 -3.26919 1.07083 11
3.32832 -2.24919 1.06559 1
3.35798 -3.27725 0.735963 11
3.34329 -2.26772 0.777802 11
1.36435 -1.32994 0.163635 39
3.34617 -2.27645 0.491957 14
1.31537 -1.28258 0.031458 50
2.07219 -1.4151 -0.0431947 41
1.28913 -1.25871 -0.216619 24
2.0794 -1.41948 -0.216802 41
1.56955 -1.53399 -0.419026 33
1.53689 -1.5041 -0.566445 42
2.65986 -1.80809 -0.733355 9
3.34414 -3.29924 1.07476 11
3.34045 -2.28291 1.07335 14
3.3478 -3.30172 0.737524 11
3.36783 -2.31014 0.78638 15
1.36446 -1.34406 0.164506 39
3.35467 -2.30798 0.494999 4
1.31042 -1.29121 0.0315016 52
2.06476 -1.42593 -0.0431947 39
1.27547 -1.25846 -0.215402 30
2.07605 -1.43317 -0.217237 41
1.55801 -1.53874 -0.418074 33
1.53071 -1.51383 -0.567091 44
2.64835 -1.82062 -0.732793 9
3.34588 -3.31135 1.07701 11
3.36436 -2.30783 1.08239 17
3.35607 -3.32146 0.740646 11
3.39819 -2.33963 0.794482 15
1.36034 -1.34469 0.164289 38
3.35063 -2.31383 0.494999 11
1.31527 -1.30053 0.0316761 52
1.68215 -1.16625 0.105457 15
2.07255 -1.43663 -0.0434129 41
1.27503 -1.26243 -0.215706 33
2.08379 -1.44387 -0.218324 42
1.55706 -1.54318 -0.41855 32
1.52978 -1.5182 -0.567738 44
2.63313 -1.81695 -0.729424 9
3.33996 -3.34147 1.08094 11
3.386 -2.34878 1.09338 12
3.35085 -3.35122 0.743377 11
3.39395 -2.36299 0.796389 11
1.3568 -1.35532 0.164724 38
3.34051 -2.33276 0.495303 12
1.30314 -1.30209 0.0315452 52
1.66374 -1.16647 0.104672 24
1.26606 -1.26542 -0.0922868 52
2.0691 -1.45032 -0.0435001 41
1.27191 -1.2726 -0.216315 35
2.08029 -1.45761 -0.218759 42
1.54896 -1.55131 -0.41855 30
1.67651 -1.17455 -0.319086 21
2.62158 -1.82932 -0.728862 9
3.33987 -3.35189 1.08262 11
3.39974 -2.36708 1.09919 11
3.34848 -3.36056 0.744158 11
3.4019 -2.37733 0.799248 11
1.35619 -1.35945 0.164942 38
3.3527 -2.34996 0.497737 14
1.2991 -1.30259 0.0315016 52
1.26385 -1.26763 -0.0922868 52
2.07066 -1.4568 -0.0435874 42
1.26968 -1.27482 -0.216315 35
2.07774 -1.46124 -0.218759 42
1.54971 -1.5575 -0.419502 32
1.66434 -1.1704 -0.317129 15
2.61638 -1.8325 -0.728301 9
3.33536 -3.38379 1.08712 11
3.3873 -2.38485 1.09919 12
3.34644 -3.39387 0.74767 11
3.39342 -2.39794 0.800202 11
1.34906 -1.36653 0.164942 36
3.36466 -2.38467 0.501388 11
1.29402 -1.31116 0.0315452 50
1.25872 -1.27623 -0.092418 52
2.063 -1.46762 -0.0435874 41
1.26473 -1.28322 -0.216619 35
2.0759 -1.47678 -0.219412 42
1.54325 -1.56734 -0.419978 32
1.65214 -1.17482 -0.315954 15
3.33969 -3.40004 1.09049 11
3.39103 -2.39632 1.10178 11
3.3457 -3.405 0.74884 11
3.40083 -2.41296 0.803061 11
1.35191 -1.37421 0.165596 33
3.37466 -2.40059 0.503518 11
1.2915 -1.31364 0.0315452 47
1.64739 -1.17661 0.104279 44
1.25474 -1.27664 -0.0922868 50
2.06655 -1.47557 -0.0437183 41
1.25728 -1.28011 -0.215706 33
2.07332 -1.4804 -0.219412 39
1.5388 -1.56828 -0.419502 33
1.64002 -1.17055 -0.313997 21
3.33822 -3.43554 1.0961 11
3.38981 -2.42305 1.10566 11
3.34616 -3.44253 0.753133 11
3.38615 -2.4293 0.802585 11
1.34619 -1.38329 0.165814 32
3.38178 -2.43328 0.50656 11
1.28286 -1.31859 0.0315016 44
1.62681 -1.1753 0.103364 42
1.25326 -1.28857 -0.0926806 49
2.06259 -1.48965 -0.0438055 41
1.25379 -1.29046 -0.216315 33
2.07363 -1.49705 -0.220282 41
1.62986 -1.17624 -0.313214 24
1.6371 -1.17933 -0.457083 21
3.3379 -3.44603 1.09779 11
3.38754 -2.43037 1.1063 11
3.34934 -3.45665 0.755084 11
3.39985 -2.44809 0.806874 11
1.34377 -1.38564 0.165814 29
3.39004 -2.44729 0.508385 11
1.28404 -1.32442 0.0315889 39
1.62294 -1.1764 0.103233 45
1.24927 -1.28896 -0.0925493 50
2.06202 -1.49471 -0.0438492 39
1.25176 -1.29243 -0.216315 38
2.06899 -1.49921 -0.220064 39
1.6258 -1.17764 -0.312822 29
1.62338 -1.17336 -0.453714 24
3.33498 -3.47929 1.10284 11
3.38107 -2.45173 1.10824 11
3.34315 -3.48662 0.757815 11
1.34363 -1.39962 0.166685 27
3.39724 -2.47962 0.511428 11
1.27559 -1.3291 0.0315452 36
1.61474 -1.18341 0.103102 45
1.24596 -1.29909 -0.0928119 50
2.05846 -1.50807 -0.0439364 39
1.25356 -1.30793 -0.217836 35
2.07319 -1.51883 -0.221369 41
1.61762 -1.18469 -0.312431 29
1.61524 -1.18041 -0.453153 24
3.34236 -3.4992 1.10733 11
3.37874 -2.45904 1.10889 11
3.34388 -3.49959 0.759376 11
1.34807 -1.40916 0.167557 27
3.3909 -2.48408 0.511124 11
1.27821 -1.33697 0.0316761 33
1.60864 -1.18328 0.10284 47
1.24542 -1.30307 -0.0929431 50
2.06188 -1.51609 -0.0440673 39
1.24956 -1.30832 -0.217532 32
2.07053 -1.52245 -0.221369 38
1.60758 -1.18168 -0.310865 26
1.60924 -1.18036 -0.452029 27
3.33341 -3.52786 1.1107 11
3.37317 -2.483 1.11147 11
3.34186 -3.53559 0.763279 11
1.34214 -1.41825 0.167775 27
3.38938 -2.51124 0.512949 11
1.27806 -1.35091 0.0318506 35
1.60222 -1.19196 0.10284 47
1.24029 -1.31139 -0.0930744 50
2.05565 -1.52871 -0.044111 39
1.24927 -1.32228 -0.218749 29
2.06854 -1.53771 -0.222021 38
1.60137 -1.19008 -0.310865 23
1.59695 -1.18471 -0.450345 29
3.33454 -3.54019 1.11295 11
3.37855 -2.49605 1.1147 11
3.34815 -3.55342 0.76601 11
1.34478 -1.42603 0.168428 30
3.3974 -2.52543 0.514775 9
1.27741 -1.35496 0.0318943 36
1.59834 -1.19299 0.102709 45
2.06301 -1.53976 -0.0443291 39
1.24379 -1.32062 -0.21814 30
2.07584 -1.54875 -0.223109 41
1.59334 -1.18846 -0.30969 20
1.59705 -1.18867 -0.450906 29
3.32758 -3.57008 1.11688 11
3.37362 -2.51889 1.11729 11
3.34128 -3.58354 0.768742 11
1.34264 -1.43828 0.169082 29
1.58808 -1.19834 0.102448 45
2.05719 -1.55168 -0.0443727 39
1.24024 -1.33075 -0.218749 30
2.07594 -1.56522 -0.223978 41
1.58512 -1.1953 -0.309299 18
1.5869 -1.19409 -0.449783 29
3.33523 -3.58958 1.12137 11
3.37696 -2.53056 1.11987 11
3.34342 -3.59842 0.770693 11
1.34182 -1.44245 0.1693 26
1.58399 -1.19961 0.102317 44
2.06446 -1.56279 -0.0445909 41
1.24129 -1.33655 -0.219357 32
1.57909 -1.1951 -0.308515 17
1.58287 -1.1954 -0.449222 30
3.32895 -3.62193 1.12586 11
3.37137 -2.55403 1.12246 11
3.33957 -3.63224 0.774205 11
1.67302 -1.27504 0.401769 9
1.58883 -1.21465 0.240958 14
1.57967 -1.2094 0.102448 44
2.06221 -1.57813 -0.0447218 39
1.24434 -1.354 -0.221183 27
1.56691 -1.19886 -0.307341 15
1.57659 -1.20367 -0.449222 30
3.33477 -3.63973 1.12979 11
3.37268 -2.56429 1.1244 11
3.34323 -3.64899 0.776546 11
1.66493 -1.2735 0.400339 8
1.58276 -1.21441 0.24035 30
1.58351 -1.2167 0.10284 42
2.06144 -1.58324 -0.0447654 39
1.24198 -1.35617 -0.221183 29
1.56482 -1.20159 -0.307341 15
1.57061 -1.20346 -0.448099 30
3.32584 -3.67094 1.13372 11
3.37217 -2.59279 1.12892 11
3.3367 -3.68167 0.779668 11
1.65413 -1.27949 0.399386 4
1.57224 -1.21992 0.239741 30
1.57493 -1.22373 0.102709 41
2.06075 -1.60049 -0.0449399 39
1.24295 -1.37207 -0.222704 26
1.5585 -1.20977 -0.307341 15
1.56986 -1.21641 -0.449783 30
3.33639 -3.69424 1.13934 11
3.37338 -2.60309 1.13086 11
3.33919 -3.69607 0.781619 11
1.65383 -1.28388 0.399862 8
1.56248 -1.21631 0.238524 42
1.57103 -1.22467 0.102578 38
2.05598 -1.60255 -0.0448963 38
1.24744 -1.3814 -0.223921 26
1.55639 -1.21249 -0.307341 15
1.56602 -1.21738 -0.449222 30
3.33161 -3.72801 1.14439 11
3.3716 -2.62903 1.13474 11
3.33131 -3.72639 0.784351 11
1.64925 -1.29374 0.400339 4
1.55609 -1.22447 0.238524 47
1.57049 -1.2375 0.102971 36
2.06161 -1.62374 -0.0452017 39
1.24184 -1.38976 -0.224225 29
1.54808 -1.2191 -0.306949 15
1.55963 -1.22556 -0.449222 30
3.33319 -3.74292 1.1472 11
3.37462 -2.64085 1.13732 11
3.34286 -3.75248 0.788643 11
1.64869 -1.29842 0.400816 8
1.54614 -1.22105 0.237307 45
1.57225 -1.24333 0.103233 35
2.0627 -1.63043 -0.045289 39
1.2493 -1.40305 -0.226051 23
1.2191 -1.37004 -0.34903 11
1.54401 -1.22027 -0.306558 15
1.56324 -1.2328 -0.450906 30
3.32094 -3.77004 1.15001 11
3.37355 -2.66955 1.14184 11
3.33394 -3.78349 0.791375 11
1.64764 -1.31161 0.402245 11
1.54729 -1.23558 0.238524 50
1.56941 -1.25492 0.103494 35
2.06362 -1.64935 -0.0455071 39
1.23678 -1.4042 -0.225138 20
1.20033 -1.36371 -0.345696 49
1.53566 -1.2268 -0.306166 15
1.56036 -1.24426 -0.452029 30
3.33591 -3.79906 1.15731 9
3.37078 -2.67693 1.14249 11
3.33939 -3.80171 0.794106 11
1.64151 -1.31143 0.401292 9
1.53564 -1.23027 0.237003 49
1.56548 -1.25583 0.103364 32
2.06465 -1.65607 -0.0455944 41
1.24438 -1.41734 -0.226963 18
1.52966 -1.2264 -0.305383 15
3.32236 -3.82383 1.15955 9
3.3685 -2.70301 1.14637 11
3.32916 -3.83033 0.796448 11
1.63867 -1.32279 0.402245 8
1.53304 -1.24141 0.237612 50
1.56472 -1.26871 0.103756 27
2.06791 -1.67592 -0.0458562 41
1.23857 -1.42571 -0.227267 18
1.41929 -1.15178 -0.156567 9
3.33388 -3.8493 1.16573 11
3.36378 -2.70889 1.14637 11
3.33378 -3.8492 0.799179 11
1.62872 -1.31949 0.400339 4
1.52701 -1.24096 0.237003 52
1.00713 -1.16136 0.0262222 12
1.54892 -1.26044 0.10284 26
2.06498 -1.67953 -0.0458562 41
1.2442 -1.43725 -0.228789 15
1.44824 -1.17934 -0.160047 12
3.32568 -3.88209 1.17022 11
3.36454 -2.73864 1.15154 11
3.32964 -3.88536 0.803081 11
1.62179 -1.328 0.400339 3
1.51665 -1.2458 0.236395 49
1.00103 -1.16662 0.0262222 14
1.54036 -1.26696 0.102709 30
0.989684 -1.15419 -0.078109 12
1.23665 -1.44375 -0.228789 17
1.4534 -1.19663 -0.161351 15
3.33313 -3.90457 1.17528 9
3.36538 -2.74909 1.15348 11
3.33568 -3.90619 0.806203 11
1.62304 -1.33422 0.401292 3
1.51256 -1.24687 0.23609 44
1.00041 -1.17044 0.0262659 12
1.52465 -1.25855 0.101793 29
0.990908 -1.15971 -0.0783715 11
1.24379 -1.45724 -0.230614 20
1.44553 -1.19442 -0.160699 21
3.31824 -3.92999 1.17752 9
3.36723 -2.78108 1.15929 11
3.33361 -3.94683 0.810886 11
1.61792 -1.34426 0.401769 3
0.992534 -1.17319 0.131387 4
1.50197 -1.25187 0.235482 44
0.992657 -1.17375 0.0262222 11
1.51205 -1.262 0.101401 35
0.984822 -1.16488 -0.0783715 4
1.24388 -1.47343 -0.232135 15
1.43543 -1.19879 -0.160264 24
2.29572 -1.90752 -0.68001 30
3.33089 -3.95757 1.18426 9
3.37167 -2.79465 1.16252 11
3.33854 -3.96528 0.813618 9
0.990485 -1.17492 0.131387 8
1.49809 -1.25264 0.235178 47
0.993825 -1.17931 0.0263095 8
1.50432 -1.25957 0.101008 38
0.984394 -1.16851 -0.0785028 3
1.25115 -1.48678 -0.233961 14
1.42951 -1.1981 -0.159829 23
1.57175 -1.87293 -0.645333 3
2.28522 -1.9049 -0.677763 30
3.32258 -3.98993 1.18875 9
3.3649 -2.81787 1.16511 11
3.33511 -4.00358 0.81791 9
0.982932 -1.178 0.131169 14
1.48962 -1.25887 0.234873 49
0.986244 -1.1824 0.0262659 8
1.49579 -1.26583 0.100878 38
0.979859 -1.17557 -0.0786341 4
1.25445 -1.50667 -0.23609 9
1.4175 -1.20076 -0.159177 20
1.56071 -1.879 -0.644686 3
2.26776 -1.91057 -0.675517 30
3.33117 -4.01448 1.19437 9
3.336 -4.0189 0.819861 9
0.984055 -1.18355 0.131605 12
1.48742 -1.26147 0.234873 47
0.99195 -1.19391 0.026484 4
