# .PCD v0.7 - Point Cloud Data file format
VERSION 0.7
FIELDS x y z intensity
SIZE 4 4 4 4
TYPE F F F F
COUNT 1 1 1 1
WIDTH 1547
HEIGHT 1
VIEWPOINT 0 0 0 1 0 0 0
POINTS 1547
DATA ascii
-7.13801 0.626846 1.64359 36
-7.17431 -0.663153 1.91858 29
-7.2424 0.634773 1.14336 38
-6.9465 -0.629767 1.34781 1
-7.25209 0.63436 0.63384 33
-7.27873 -0.649911 0.891728 33
-3.06124 -0.268406 0.159232 12
-0.783878 0.0680107 -0.0921848 89
-0.660076 -0.0539855 -0.0547986 52
-0.802541 0.0699393 -0.149516 58
-0.794862 -0.06638 -0.120979 50
-0.802226 0.0704574 -0.206274 53
-0.79433 -0.0671279 -0.175758 50
-7.12003 0.636535 1.63966 26
-7.17786 -0.65085 1.91923 32
-7.23883 0.647192 1.14297 35
-6.94025 -0.616985 1.34638 1
-7.24353 0.646351 0.633186 33
-7.27738 -0.636988 0.891424 35
-3.04678 -0.261757 0.158447 12
-0.659061 0.0577764 -0.0329502 115
-0.793644 0.0702714 -0.0934018 90
-0.66265 -0.05305 -0.055016 53
-0.802418 0.0713399 -0.149516 58
-0.799896 -0.0654247 -0.121762 50
-0.797292 0.071418 -0.20498 53
-0.794446 -0.0657415 -0.175758 52
-7.17636 -0.612844 1.91794 30
-6.94339 -0.580638 1.34638 1
-7.2732 -0.59826 0.890511 35
-3.05558 -0.246414 0.15884 12
-0.653768 0.060868 -0.0326876 122
-0.793265 0.0744259 -0.0934018 90
-0.662928 -0.0494639 -0.055016 53
-0.802033 0.0755403 -0.149516 58
-0.797767 -0.0610324 -0.12137 52
-0.794504 0.0753593 -0.204334 55
-0.794779 -0.0615809 -0.175758 50
-7.1726 -0.599912 1.91664 30
-6.93715 -0.566702 1.34495 1
-7.2767 -0.585766 0.890815 33
-3.05351 -0.240881 0.158709 12
-0.65863 0.062491 -0.0329502 126
-0.793134 0.0758103 -0.0934018 90
-0.660531 -0.048108 -0.0547986 53
-0.799458 0.0767014 -0.14904 58
-0.79295 -0.0592422 -0.120587 50
-0.796761 0.0771214 -0.20498 53
-0.792457 -0.0599949 -0.175197 52
-2.85342 0.290435 0.653056 45
-7.16371 -0.560146 1.91341 29
-6.93513 -0.529994 1.344 1
-7.27977 -0.546386 0.890815 33
-3.05477 -0.224356 0.158709 12
-0.658294 0.0659387 -0.0329502 131
-0.795181 0.0803542 -0.093706 90
-0.663257 -0.0448347 -0.055016 53
-0.803913 0.0815294 -0.149992 58
-0.795711 -0.0552755 -0.120979 52
-0.796346 0.0812922 -0.20498 53
-0.795199 -0.055892 -0.175758 50
-2.86023 0.295672 0.654741 47
-7.15986 -0.547271 1.91212 29
-6.93115 -0.517521 1.34304 1
-7.27072 -0.534217 0.889599 33
-3.05014 -0.219192 0.158447 12
-0.655695 0.0668292 -0.0328189 134
-0.792586 0.0813455 -0.0934018 90
-0.663334 -0.043677 -0.055016 55
-0.798888 0.0824202 -0.14904 58
-0.793344 -0.053705 -0.120587 52
-0.801006 0.0831893 -0.206274 53
-0.795286 -0.0546429 -0.175758 50
-2.8538 0.310115 0.653618 47
-7.16254 -0.511025 1.91212 29
-6.93368 -0.482432 1.34304 1
-7.27094 -0.49597 0.889294 33
-3.05374 -0.203388 0.158578 12
-0.660299 0.0708042 -0.0330815 135
-0.789682 0.0852238 -0.0930975 90
-0.663554 -0.0402032 -0.055016 55
-0.8009 0.0867311 -0.149516 58
-0.796078 -0.0497191 -0.120979 52
-0.795774 0.0867108 -0.20498 53
-0.795561 -0.050478 -0.175758 50
-2.84599 0.31429 0.651933 47
-7.16342 -0.498523 1.91212 27
-6.93704 -0.469287 1.34352 1
-7.26932 -0.483113 0.88899 33
-0.638596 0.0694462 0.0106023 3
-3.05409 -0.198058 0.158578 12
-0.657694 0.0716808 -0.0329502 140
-0.789532 0.0866019 -0.0930975 90
-0.661138 -0.0388808 -0.0547986 55
-0.800748 0.0881288 -0.149516 58
-0.7937 -0.0481651 -0.120587 52
-0.793207 0.087968 -0.204334 53
-0.795648 -0.0490894 -0.175758 50
-2.8515 0.330528 0.653618 49
-7.15878 -0.459289 1.91018 27
-2.85565 0.330518 0.448758 52
-6.93451 -0.43265 1.34257 1
-2.87242 0.331972 0.249919 74
-7.26935 -0.443622 0.888686 33
-0.638224 0.0727889 0.0106023 3
-3.05262 -0.181379 0.158447 14
-0.662269 0.0757008 -0.0332127 146
-0.735983 -0.0398415 -0.0122603 8
-0.791517 0.0911606 -0.0934018 90
-0.661332 -0.0354186 -0.0547986 55
-0.795384 0.0918881 -0.148564 58
-0.793949 -0.0438701 -0.120587 52
-0.790337 0.091837 -0.203687 53
-0.791039 -0.0444805 -0.174635 50
-2.84614 0.334436 0.652495 50
-7.15475 -0.44649 1.90889 26
-2.86243 0.33637 0.449929 55
-6.9328 -0.420396 1.34209 1
-2.87431 0.337276 0.250137 90
-7.26764 -0.430786 0.888382 33
-0.640579 0.0741956 0.010646 3
-3.05293 -0.176051 0.158447 14
-0.657177 0.0762706 -0.0329502 148
-0.741042 -0.0388508 -0.0123476 8
-0.788892 0.0922494 -0.0930975 90
-0.658907 -0.0341175 -0.0545811 55
-0.795223 0.0932762 -0.148564 58
-0.794024 -0.0424843 -0.120587 50
-0.794971 0.0937906 -0.20498 53
-0.793548 -0.0432472 -0.175197 50
-2.84435 0.349334 0.652495 49
-6.97609 -0.399782 1.86042 1
-2.85824 0.350552 0.449538 55
-6.93484 -0.3853 1.34209 1
-2.87504 0.352124 0.250355 97
-7.26972 -0.393995 0.888382 32
-3.05628 -0.160732 0.158578 14
-0.654291 0.0794045 -0.0328189 146
-0.738733 -0.0349653 -0.0123039 8
-0.788415 0.0962412 -0.0930975 90
-0.661563 -0.0308008 -0.0547986 56
-0.792305 0.0969975 -0.148088 58
-0.789298 -0.0381961 -0.119804 50
-0.79209 0.0975138 -0.204334 53
-0.796189 -0.0393653 -0.175758 50
-2.84616 0.3546 0.653056 50
-7.14798 -0.397237 1.9063 26
-2.85762 0.35554 0.449538 55
-6.92822 -0.371586 1.34066 1
-2.86948 0.356525 0.249919 94
-7.26792 -0.381175 0.888077 33
-3.05406 -0.155266 0.158447 14
-0.656629 0.0808567 -0.0329502 142
-0.731304 -0.033286 -0.0121731 9
-0.788246 0.0976171 -0.0930975 90
-0.659129 -0.0295166 -0.0545811 55
-0.797004 0.0989937 -0.14904 58
-0.794295 -0.0370787 -0.120587 50
-0.794297 0.0993382 -0.20498 52
-0.793823 -0.0378448 -0.175197 50
-2.84178 0.369679 0.652495 50
-6.97636 -0.349729 1.85978 1
-2.84586 0.369718 0.447977 53
-6.93007 -0.335305 1.34066 1
-2.86257 0.371401 0.249483 76
-7.26492 -0.34161 0.887469 33
-3.05236 -0.138623 0.158316 14
-0.656196 0.0842936 -0.0329502 134
-0.736468 -0.0295617 -0.0122603 11
-0.787706 0.10188 -0.0930975 90
-0.659275 -0.026065 -0.0545811 56
-0.794024 0.102984 -0.148564 58
-0.792012 -0.0328021 -0.120196 50
-0.793766 0.103496 -0.20498 52
-0.791583 -0.0334315 -0.174635 50
-2.83878 0.373823 0.651933 50
-6.97455 -0.337434 1.85913 1
-2.85507 0.375481 0.449538 55
-6.92329 -0.322861 1.33923 1
-2.85698 0.375745 0.249048 56
-7.26793 -0.330312 0.887773 33
-3.05008 -0.133715 0.158185 14
-0.653573 0.0851112 -0.0328189 124
-0.72653 -0.027828 -0.0120858 11
-0.780166 0.102138 -0.0921848 88
-0.656831 -0.0248022 -0.0543637 56
-0.798708 0.105018 -0.149516 56
-0.794534 -0.0315326 -0.120587 50
-0.79119 0.10456 -0.204334 52
-0.798935 -0.0325298 -0.17632 50
-2.8392 0.389013 0.652495 50
-6.97134 -0.301916 1.85784 1
-2.85306 0.390425 0.449538 53
-6.92728 -0.287919 1.33971 1
-2.86244 0.391216 0.249701 55
-7.27204 -0.292355 0.888077 33
-3.05324 -0.117843 0.158316 15
-0.655592 0.0888727 -0.0329502 124
-0.726661 -0.0241503 -0.0120858 11
-0.784537 0.1069 -0.0927933 88
-0.661929 -0.0215609 -0.0547986 56
-0.795735 0.108723 -0.14904 58
-0.789754 -0.0271721 -0.119804 50
-0.793043 0.108896 -0.20498 53
-0.794227 -0.0281438 -0.175197 52
-2.8361 0.393632 0.651933 50
-6.97186 -0.289749 1.85784 1
-2.84993 0.395063 0.449148 52
-7.17549 -0.28461 1.38784 35
-2.85682 0.395526 0.249265 53
-7.2651 -0.279371 0.887165 33
-3.05344 -0.112514 0.158316 15
-0.652963 0.0896719 -0.0328189 111
-0.786806 0.108613 -0.0930975 86
-0.659477 -0.0203109 -0.0545811 56
-0.795544 0.110112 -0.14904 56
-0.789801 -0.0257937 -0.119804 52
-0.795224 0.110756 -0.205627 53
-0.79184 -0.0266607 -0.174635 50
-2.83152 0.408622 0.651372 50
-6.97574 -0.252112 1.85848 1
-2.84531 0.410124 0.448758 50
-7.16217 -0.246519 1.38498 35
-2.84724 0.409909 0.248612 50
-7.27146 -0.240226 0.887773 33
-3.054 -0.0959918 0.158316 15
-0.657426 0.0938052 -0.0330815 107
-0.783752 0.112512 -0.0927933 83
-0.659574 -0.0168576 -0.0545811 56
-0.792508 0.114061 -0.148564 55
-0.789925 -0.0216579 -0.119804 50
-0.792243 0.114568 -0.20498 52
-0.784669 -0.0221248 -0.17295 50
-2.83329 0.413422 0.651933 49
-6.981 -0.240106 1.85978 1
-2.83733 0.413521 0.447587 49
-7.16504 -0.2341 1.38546 35
-2.84899 0.415238 0.24883 50
-7.27183 -0.228804 0.887773 33
-3.05165 -0.0911161 0.158185 17
-0.647381 0.093504 -0.0325564 103
-0.783574 0.113743 -0.0927933 82
-0.657113 -0.015629 -0.0543637 56
-0.794736 0.115802 -0.14904 56
-0.785026 -0.0201224 -0.119021 50
-0.789653 0.115597 -0.204334 52
-0.789572 -0.0210521 -0.174073 50
-2.82386 0.427155 0.650249 49
-6.97247 -0.204479 1.85719 1
-2.83513 0.428371 0.447587 49
-7.17104 -0.19797 1.38641 35
-2.84439 0.42928 0.248612 50
-7.27045 -0.190659 0.887469 33
-3.05209 -0.0751365 0.158185 17
-0.649351 0.0972674 -0.0326876 101
-0.780514 0.11747 -0.092489 80
-0.654696 -0.0121239 -0.0541462 56
-0.796566 0.120193 -0.149516 58
-0.790057 -0.0161427 -0.119804 52
-0.789058 0.119592 -0.204334 52
-0.787237 -0.0168504 -0.173512 50
-2.8207 0.431713 0.649687 49
-6.9704 -0.192241 1.85655 1
-2.83437 0.433319 0.447587 49
-7.17877 -0.184397 1.38784 35
-2.83871 0.433489 0.248176 50
-7.27821 -0.178157 0.888382 32
-3.04972 -0.0697485 0.158055 15
-0.64918 0.0984006 -0.0326876 98
-0.782761 0.11921 -0.0927933 79
-0.657206 -0.0110412 -0.0543637 56
-0.789079 0.120459 -0.148088 55
-0.795021 -0.0148862 -0.120587 52
-0.7936 0.121848 -0.205627 52
-0.7897 -0.0155393 -0.174073 52
-2.81832 0.446968 0.649687 47
-6.96651 -0.154415 1.85525 1
-2.82711 0.447873 0.446807 49
-7.17473 -0.146703 1.38689 35
-2.8314 0.448061 0.24774 52
-7.27163 -0.138629 0.887469 32
-3.05005 -0.053247 0.158055 17
-0.64619 0.101406 -0.0325564 97
-0.779654 0.123052 -0.092489 79
-0.654765 -0.00755298 -0.0541462 58
-0.788415 0.124727 -0.148088 56
-0.792619 -0.010675 -0.120196 52
-0.792951 0.126002 -0.205627 50
-0.784901 -0.0111669 -0.17295 50
-2.81281 0.450621 0.648564 49
-6.97401 -0.142409 1.85719 1
-2.82884 0.452704 0.447197 50
-7.17742 -0.134228 1.38737 33
-2.83062 0.453002 0.24774 55
-7.25199 -0.126846 0.885035 29
-3.04764 -0.0484123 0.157924 20
-0.646012 0.102534 -0.0325564 95
-0.77946 0.124277 -0.092489 77
-0.657268 -0.00645278 -0.0543637 58
-0.790619 0.126495 -0.148564 55
-0.790168 -0.00924766 -0.119804 52
-0.797497 0.12816 -0.20692 52
-0.780047 -0.00984218 -0.171827 52
-2.81041 0.465343 0.648564 50
-7.00603 -0.107613 1.86559 1
-2.81912 0.466297 0.446026 50
-2.83074 0.46773 0.247958 56
-0.693106 0.113587 0.0116495 4
-3.04785 -0.0324543 0.157924 21
-0.645467 0.105915 -0.0325564 91
-0.781246 0.128764 -0.0927933 76
-0.657292 -0.00301126 -0.0543637 58
-0.792389 0.130899 -0.14904 55
-0.792674 -0.00514128 -0.120196 53
-0.796838 0.132195 -0.20692 50
-0.782523 -0.00579091 -0.172389 52
-2.80959 0.470247 0.648564 50
-2.82318 0.472034 0.446807 53
-2.83729 0.473904 0.248612 86
-0.687957 0.11409 0.0115622 4
-3.0479 -0.0271348 0.157924 23
-0.645281 0.107041 -0.0325564 90
-0.785914 0.130952 -0.0934018 71
-0.662277 -0.00191449 -0.0547986 56
-0.78974 0.131873 -0.148564 55
-0.792682 -0.00375779 -0.120196 52
-0.794202 0.133321 -0.206274 50
-0.782532 -0.00442514 -0.172389 52
-2.80701 0.485441 0.648564 52
-2.81815 0.48688 0.446416 55
-3.11701 -0.0174671 0.598602 9
-2.83223 0.488824 0.248394 96
-3.08181 -0.0129483 0.373607 8
-0.697202 0.119397 0.0117367 4
-3.0505 -0.0106564 0.158055 23
-0.639792 0.109565 -0.0322938 90
-0.780304 0.134351 -0.0927933 71
-0.657297 0.00157754 -0.0543637 58
-0.796268 0.137409 -0.149992 58
-0.792691 0.000392713 -0.120196 53
-0.786357 0.136228 -0.204334 52
-0.782545 -0.000191193 -0.172389 52
-2.80624 0.48985 0.648564 50
-2.81981 0.491731 0.446807 55
-3.09741 -0.0119206 0.59479 2
-2.83138 0.493766 0.248394 111
-3.05453 -0.00799305 0.37026 3
-0.69453 0.120183 0.0116931 8
-3.05051 -0.00586469 0.158055 17
-0.644518 0.111543 -0.0325564 90
-0.782536 0.136006 -0.0930975 70
-0.654803 0.00273256 -0.0541462 58
-0.79361 0.138373 -0.149516 55
-0.787751 0.00179518 -0.119413 53
-0.788496 0.138021 -0.20498 52
-0.78498 0.00102612 -0.17295 52
-2.80124 0.504104 0.648003 52
-2.81477 0.506051 0.446416 56
-3.07288 0.00376541 0.590024 8
-2.83374 0.508974 0.24883 107
-3.04212 0.00798747 0.368739 11
-0.701293 0.125027 0.011824 8
-3.04551 0.010099 0.157793 18
-0.646382 0.11536 -0.0326876 90
-0.784255 0.140544 -0.0934018 70
-0.65478 0.00616105 -0.0541462 58
-0.790485 0.14195 -0.14904 55
-0.7902 0.00592324 -0.119804 53
-0.792539 0.142875 -0.206274 52
-0.7874 0.00513708 -0.173512 52
-2.79796 0.508556 0.647441 52
-2.81145 0.510521 0.446026 56
-3.05569 0.00963792 0.586687 4
-2.83285 0.513919 0.24883 90
-3.03714 0.0132831 0.368131 11
-0.696133 0.125477 0.0117367 8
-3.05048 0.0154319 0.158055 24
-0.641267 0.115592 -0.0324251 90
-0.78645 0.142358 -0.093706 68
-0.652277 0.00729428 -0.0539288 56
-0.79265 0.143771 -0.149516 55
-0.790188 0.00730239 -0.119804 53
-0.789888 0.143959 -0.205627 52
-0.782518 0.00650114 -0.172389 50
-2.79517 0.523686 0.647441 52
-2.80865 0.525724 0.446026 52
-3.06296 0.0256874 0.588117 4
-2.82024 0.527402 0.247958 76
-3.04447 0.0297764 0.369043 11
-0.697923 0.129581 0.0117804 9
-3.04536 0.0318918 0.157793 26
-0.645561 0.11987 -0.0326876 90
-0.78323 0.146152 -0.0934018 67
-0.654721 0.0107321 -0.0541462 58
-0.787037 0.147147 -0.148564 55
-0.790139 0.0114397 -0.119804 53
-0.791496 0.148543 -0.206274 52
-0.782471 0.0107349 -0.172389 52
-2.79913 0.528983 0.648564 52
-2.81025 0.530595 0.446416 45
-3.06782 0.0310752 0.58907 3
-2.81931 0.532324 0.247958 61
-3.04442 0.0345586 0.369043 11
-0.690329 0.129403 0.0116495 11
-3.0478 0.0367015 0.157924 23
-0.642897 0.120531 -0.0325564 90
-0.780561 0.146919 -0.0930975 67
-0.657191 0.0119017 -0.0543637 58
-0.78919 0.14898 -0.14904 55
-0.787649 0.0127937 -0.119413 55
-0.788864 0.14947 -0.205627 50
-0.775145 0.0118976 -0.170704 52
-2.79393 0.543166 0.648003 52
-2.80501 0.54483 0.446026 39
-3.08726 0.0468697 0.592883 3
-2.80925 0.54516 0.247304 56
-3.08637 0.0511317 0.374216 2
-0.692118 0.133373 0.0116931 12
-3.04756 0.0526592 0.157924 23
-0.647158 0.124852 -0.0328189 90
-0.784652 0.151956 -0.093706 61
-0.65463 0.0153026 -0.0541462 58
-0.790834 0.153445 -0.149516 53
-0.79004 0.0169556 -0.119804 55
-0.790467 0.153927 -0.206274 52
-0.779944 0.0160258 -0.171827 52
-2.79058 0.547571 0.647441 50
-2.80163 0.549249 0.445636 50
-2.81074 0.550542 0.247522 56
-0.691861 0.134702 0.0116931 12
-3.04747 0.0579781 0.157924 23
-0.64449 0.125499 -0.0326876 90
-0.784386 0.153325 -0.093706 61
-0.654602 0.0164451 -0.0541462 58
-0.78575 0.153873 -0.148564 55
-0.799884 0.0185033 -0.12137 55
-0.79017 0.155444 -0.206274 52
-0.782351 0.0174262 -0.172389 52
-2.78997 0.563145 0.648003 49
-2.79861 0.564399 0.445636 52
-2.80772 0.565741 0.247522 58
-0.693596 0.138818 0.0117367 11
-3.04711 0.0744656 0.157924 23
-0.646271 0.129367 -0.0328189 88
-0.781113 0.157073 -0.0934018 59
-0.656997 0.0199297 -0.0543637 59
-0.787311 0.158611 -0.14904 55
-0.799772 0.0228308 -0.12137 56
-0.789345 0.159579 -0.206274 52
-0.777374 0.0215542 -0.171266 52
-2.78431 0.566553 0.646879 49
-2.79521 0.568789 0.445246 52
-7.15957 0.166063 1.38403 32
-2.80672 0.570641 0.247522 65
-7.25339 0.178272 0.885339 29
-0.688455 0.139029 0.0116495 9
-3.04448 0.0797222 0.157793 24
-0.785699 0.159432 -0.0940102 61
-0.654471 0.0210147 -0.0541462 59
-0.787033 0.159985 -0.14904 55
-0.799731 0.0242267 -0.12137 56
-0.789065 0.160957 -0.206274 50
-0.779771 0.0229675 -0.171827 52
-2.78846 0.582622 0.648564 50
-6.89092 0.182932 1.83522 1
-2.79229 0.582929 0.445246 50
-7.15374 0.202163 1.38308 30
-2.8038 0.58484 0.247522 88
-7.24991 0.21491 0.885035 30
-0.690189 0.143024 0.0116931 8
-3.04903 0.0952788 0.158055 23
-0.780025 0.162386 -0.0934018 61
-0.651867 0.0242526 -0.0539288 59
-0.786213 0.163966 -0.14904 53
-0.799598 0.0282741 -0.12137 58
-0.788241 0.164949 -0.206274 52
-0.779644 0.026914 -0.171827 52
-2.78277 0.585995 0.647441 52
-6.92439 0.195891 1.84427 1
-2.79368 0.588312 0.445636 55
-7.15583 0.21472 1.38355 30
-2.8174 0.592816 0.24883 99
-7.26689 0.228097 0.887165 32
-0.675264 0.141131 0.0114313 4
-3.04636 0.100522 0.157924 23
-0.637813 0.133341 -0.0324251 73
-0.784596 0.164776 -0.0940102 59
-0.656802 0.0255477 -0.0543637 62
-0.793128 0.166866 -0.150468 53
-0.79708 0.029593 -0.120979 58
-0.78559 0.165821 -0.205627 53
-0.779596 0.0282747 -0.171827 52
-2.77718 0.600527 0.646879 52
-6.92327 0.232144 1.84427 1
-2.79298 0.603454 0.446026 56
-7.16687 0.252609 1.38594 33
-2.80208 0.604926 0.24774 100
-7.26559 0.266143 0.887165 33
-0.674515 0.144664 0.0114313 3
-3.0433 0.11638 0.157793 24
-0.637082 0.13679 -0.0324251 70
-0.786147 0.169409 -0.0943145 59
-0.654166 0.0290088 -0.0541462 65
-0.787447 0.169973 -0.149516 55
-0.799381 0.0338557 -0.12137 56
-0.789429 0.170963 -0.20692 52
-0.774568 0.0321845 -0.170704 53
-2.77612 0.605373 0.646879 52
-6.92527 0.244311 1.84491 1
-2.78468 0.606747 0.444856 38
-7.16146 0.266189 1.38498 30
-2.81076 0.61194 0.248612 91
-7.2552 0.278449 0.885948 33
-0.671794 0.145425 0.0113877 4
-3.04559 0.121787 0.157924 23
-0.629526 0.136301 -0.0320313 62
-0.78585 0.170781 -0.0943145 59
-0.654114 0.0301505 -0.0541462 65
-0.791944 0.172399 -0.150468 56
-0.799321 0.0352508 -0.12137 56
-0.789099 0.172478 -0.20692 52
-0.776945 0.0336264 -0.171266 52
-2.77043 0.619851 0.646318 50
-6.92626 0.281873 1.84556 1
-2.78377 0.622345 0.445246 53
-7.15997 0.303682 1.38498 33
-2.79768 0.624962 0.24774 65
-7.25607 0.317806 0.886252 33
-0.671024 0.148941 0.0113877 3
-3.04239 0.138154 0.157793 23
-0.63124 0.140142 -0.0321625 61
-0.784915 0.17503 -0.0943145 59
-0.648971 0.033356 -0.0537113 67
-0.788605 0.176142 -0.149992 53
-0.796659 0.0393287 -0.120979 58
-0.783474 0.175543 -0.205627 52
-0.776752 0.0378296 -0.171266 52
-2.76945 0.624202 0.646318 49
-6.92576 0.293961 1.84556 1
-2.77797 0.625629 0.444465 52
-7.16679 0.316498 1.38641 30
-2.78687 0.62765 0.246869 56
-7.25556 0.329204 0.886252 33
-0.668325 0.149561 0.0113441 3
-3.03967 0.142819 0.157662 24
-0.633429 0.141794 -0.0322938 61
-0.633673 0.03389 -0.0104714 8
-0.789479 0.177359 -0.094923 59
-0.656376 0.0348301 -0.0543637 73
-0.79069 0.178062 -0.150468 53
-0.796589 0.0407191 -0.120979 58
-0.783167 0.17691 -0.205627 52
-2.76378 0.638145 0.645756 50
-6.92418 0.329012 1.84556 1
-2.77706 0.640722 0.444856 52
-7.15038 0.352054 1.38355 30
-2.79336 0.64399 0.24774 56
-7.2463 0.366818 0.885339 33
-0.662688 0.151815 0.0112568 3
-0.632678 0.145108 -0.0322938 61
-0.633493 0.0370969 -0.0104714 8
-0.786122 0.180929 -0.0946187 58
-0.65121 0.0380127 -0.0539288 73
-0.784997 0.180951 -0.149516 53
-0.796365 0.0448894 -0.120979 58
-0.789317 0.182516 -0.207567 52
-2.76503 0.643521 0.646318 50
-6.92118 0.340979 1.84491 1
-2.77594 0.645568 0.444856 55
-7.15705 0.366152 1.38498 35
-2.78496 0.64717 0.247087 64
-7.2506 0.379721 0.885948 33
-0.627562 0.145077 -0.0320313 61
-0.625939 0.0378074 -0.0103405 8
-0.788222 0.182866 -0.094923 58
-0.651142 0.0391492 -0.0539288 79
-0.78707 0.18288 -0.149992 53
-0.796285 0.0462793 -0.120979 58
-0.788965 0.184031 -0.207567 52
-2.75677 0.657339 0.645195 52
-6.92165 0.378551 1.84556 1
-2.77001 0.660004 0.444465 47
-7.15258 0.403485 1.38451 35
-2.78868 0.663963 0.24774 90
-7.25588 0.419369 0.88686 33
-0.63165 0.149522 -0.0322938 61
-0.630716 0.0414839 -0.0104278 8
-0.789634 0.187706 -0.0952272 58
-0.648442 0.0424138 -0.0537113 79
-0.778909 0.185418 -0.148564 53
-0.793567 0.0503067 -0.120587 58
-0.783295 0.18703 -0.206274 50
-0.768851 0.0482593 -0.169581 53
-2.7581 0.662239 0.645756 52
-6.92098 0.390631 1.84556 1
-2.76657 0.663778 0.444075 42
-7.15677 0.416249 1.38546 35
-2.78994 0.669411 0.247958 106
-7.2453 0.430184 0.885643 33
-0.631388 0.150624 -0.0322938 61
-0.630643 0.0425846 -0.0104278 8
-0.789338 0.188946 -0.0952272 58
-0.648367 0.0435454 -0.0537113 85
-0.783355 0.187931 -0.149516 53
-0.793478 0.0516916 -0.120587 58
-0.790008 0.190104 -0.208214 50
-0.773639 0.0497491 -0.170704 53
-2.75223 0.676089 0.645195 42
-6.91168 0.425216 1.84362 1
-2.76065 0.677664 0.443685 53
-7.14967 0.452161 1.38451 35
-2.77926 0.68174 0.247304 118
-7.24295 0.468115 0.885643 33
-0.628193 0.153221 -0.0321625 61
-0.625431 0.0454517 -0.0103405 8
-0.790747 0.193671 -0.0955314 56
-0.648139 0.0468266 -0.0537113 86
-0.784777 0.192482 -0.149992 53
-0.790732 0.0556871 -0.120196 58
-0.784348 0.192938 -0.20692 52
-0.770936 0.0536453 -0.170143 53
-2.75589 0.681583 0.646318 42
-6.91093 0.437279 1.84362 1
-2.76426 0.683669 0.444465 56
-7.15132 0.464797 1.38498 35
-2.78049 0.687188 0.247522 150
-7.2446 0.480918 0.885948 33
-3.03851 0.206612 0.157793 18
-0.627925 0.154317 -0.0321625 59
-0.627845 0.0467097 -0.0103842 4
-0.785592 0.193854 -0.094923 58
-0.650541 0.0481232 -0.0539288 90
-0.786821 0.194444 -0.150468 53
-0.800489 0.0577182 -0.121762 58
-0.786353 0.194892 -0.207567 50
-0.773272 0.0551488 -0.170704 53
-2.74744 0.695286 0.645195 39
-6.90854 0.473458 1.84362 1
-2.76304 0.69874 0.444856 56
-7.14634 0.502064 1.38451 35
-2.77685 0.701738 0.247522 134
-7.24445 0.519019 0.886252 35
-3.03987 0.222697 0.157924 20
-0.627108 0.157603 -0.0321625 59
-0.789376 0.199187 -0.0955314 56
-0.645312 0.0511717 -0.0534938 90
-0.783414 0.197956 -0.149992 53
-0.797713 0.061733 -0.12137 58
-0.787662 0.199604 -0.208214 50
-0.770543 0.0590261 -0.170143 53
-2.74871 0.700204 0.645756 52
-6.91493 0.486018 1.84556 1
-2.76181 0.703562 0.444856 56
-7.14545 0.514536 1.38451 35
-2.78045 0.707814 0.247958 104
-7.23859 0.531303 0.885643 35
-3.04197 0.228185 0.158055 18
-0.624413 0.158079 -0.0320313 59
-0.789027 0.200564 -0.0955314 56
-0.647705 0.0524808 -0.0537113 90
-0.78069 0.198714 -0.149516 53
-0.795141 0.0629453 -0.120979 58
-0.784973 0.200377 -0.207567 50
-0.772869 0.0605459 -0.170704 52
-2.74724 0.715681 0.646318 52
-6.90989 0.522038 1.84491 1
-2.75092 0.716143 0.443685 53
-7.14511 0.55213 1.38498 35
-2.78393 0.724247 0.248612 99
-7.23818 0.569389 0.885948 35
-3.03576 0.243718 0.157793 20
-0.62838 0.162717 -0.0322938 59
-0.787966 0.204693 -0.0955314 55
-0.642446 0.0555919 -0.0532764 90
-0.782013 0.203421 -0.149992 52
-0.789878 0.066722 -0.120196 58
-0.781578 0.203871 -0.20692 50
-0.772541 0.0645918 -0.170704 53
-2.73892 0.718616 0.644633 33
-6.91137 0.534281 1.84556 1
-2.75683 0.722825 0.444856 56
-7.13914 0.565462 1.38403 35
-2.77303 0.726575 0.24774 113
-7.23718 0.582021 0.885948 33
-3.03533 0.249016 0.157793 20
-0.628095 0.163814 -0.0322938 59
-0.787608 0.206068 -0.0955314 55
-0.639866 0.0565125 -0.0530589 90
-0.781657 0.204785 -0.149992 52
-0.797144 0.068692 -0.12137 58
-0.790523 0.207843 -0.209507 50
-0.769999 0.0657481 -0.170143 53
-2.74204 0.735321 0.646318 45
-6.90597 0.57147 1.84491 1
-2.7505 0.73709 0.444465 55
-7.13853 0.603039 1.38451 35
-2.76906 0.741568 0.24774 131
-7.23392 0.62117 0.885948 33
-3.03891 0.265862 0.158055 18
-0.627228 0.1671 -0.0322938 59
-0.786481 0.210326 -0.0955314 55
-0.642042 0.0600756 -0.0532764 90
-0.782907 0.20965 -0.150468 52
-0.7943 0.0727934 -0.120979 59
-0.78243 0.210088 -0.207567 50
-0.767204 0.069708 -0.169581 52
-2.73618 0.738356 0.645195 47
-6.90978 0.583925 1.84621 1
-2.74206 0.739956 0.443295 53
-7.13991 0.615707 1.38498 33
-2.77016 0.74705 0.247958 91
-7.2353 0.634009 0.886252 32
-2.7873 0.752203 0.049783 11
-3.03595 0.270947 0.157924 17
-0.626936 0.168195 -0.0322938 59
-0.786113 0.211698 -0.0955314 52
-0.641937 0.0611961 -0.0532764 90
-0.78254 0.211016 -0.150468 52
-0.799092 0.0746092 -0.121762 58
-0.784392 0.212088 -0.208214 50
-0.769508 0.0712563 -0.170143 53
-2.73215 0.753149 0.645195 49
-2.74767 0.756931 0.444856 56
-2.76141 0.76022 0.247522 64
-2.78092 0.766122 0.0497394 14
-2.99223 0.282912 0.155699 17
-0.62364 0.17081 -0.0321625 59
-0.782602 0.21515 -0.0952272 53
-0.649047 0.0652492 -0.0539288 90
-0.783789 0.215766 -0.150945 52
-0.796245 0.0784256 -0.12137 58
-0.783271 0.216192 -0.208214 49
-0.773977 0.0757286 -0.171266 52
-2.73096 0.75744 0.645195 50
-2.74885 0.761907 0.445246 56
-2.76488 0.766371 0.247958 56
-2.76994 0.768297 0.0495648 14
-3.0067 0.289022 0.156484 17
-0.630557 0.173905 -0.0325564 59
-0.784654 0.217044 -0.0955314 50
-0.648932 0.0663818 -0.0539288 90
-0.785775 0.217793 -0.151421 50
-0.791191 0.0793521 -0.120587 58
-0.785218 0.21821 -0.20886 49
-0.773857 0.0769442 -0.171266 53
-2.72696 0.771728 0.645195 49
-2.74007 0.774943 0.444465 55
-2.87222 0.285472 0.553802 45
-2.75857 0.779677 0.24774 58
-2.87126 0.28939 0.349572 47
-2.77083 0.78367 0.0496521 15
-2.8859 0.292859 0.150204 52
-0.629638 0.177204 -0.0325564 58
-0.783506 0.22115 -0.0955314 50
-0.641141 0.0690341 -0.0532764 90
-0.784663 0.221768 -0.151421 50
-0.798135 0.0842268 -0.121762 58
-0.784104 0.222181 -0.20886 47
-0.768595 0.0805179 -0.170143 52
-2.71858 0.774481 0.64351 50
-2.73397 0.77837 0.443685 53
-2.9083 0.294636 0.560951 45
-2.7596 0.785173 0.247958 90
-2.87075 0.294401 0.349572 49
-2.76692 0.788302 0.0496085 23
-2.88539 0.297895 0.150204 55
-0.629328 0.178303 -0.0325564 59
-0.780734 0.221835 -0.0952272 49
-0.643497 0.0704055 -0.0534938 90
-0.784275 0.223137 -0.151421 50
-0.793074 0.0851224 -0.120979 58
-0.781355 0.223019 -0.208214 47
-0.770877 0.0821021 -0.170704 53
-2.71435 0.789178 0.64351 50
-2.73209 0.793841 0.444075 52
-2.75053 0.798701 0.247522 172
-2.86664 0.309667 0.349268 49
-2.76515 0.803478 0.0496521 30
-2.88125 0.313236 0.150073 59
-0.628385 0.181596 -0.0325564 58
-0.784286 0.227446 -0.0958357 49
-0.64312 0.0737739 -0.0534938 90
-0.792602 0.089412 -0.120979 58
-0.772844 0.0865276 -0.171266 52
-2.71544 0.794126 0.644072 52
-2.7307 0.798608 0.444075 50
-2.75152 0.8042 0.24774 99
-2.86363 0.314403 0.348964 52
-2.76134 0.8076 0.0496085 42
-2.88566 0.318805 0.150335 70
-0.628067 0.182692 -0.0325564 58
-0.783888 0.228814 -0.0958357 47
-0.64299 0.0748962 -0.0534938 90
-0.78999 0.090529 -0.120587 58
-2.71358 0.80903 0.644633 50
-2.85214 0.318793 0.758644 47
-2.72425 0.811713 0.443685 52
-2.86064 0.324729 0.552373 49
-2.73787 0.815269 0.246869 58
-2.86447 0.329172 0.349268 53
-2.75243 0.820136 0.0495212 50
-2.88153 0.333123 0.150204 90
-0.629494 0.186693 -0.0326876 58
-0.627431 0.0765172 -0.0104278 3
-0.645064 0.0785446 -0.0537113 90
-0.791975 0.094805 -0.120979 58
-2.71217 0.813765 0.644633 49
-2.85158 0.323771 0.758644 47
-2.7252 0.817176 0.444075 56
-2.86245 0.330498 0.552849 50
-2.73644 0.820046 0.246869 55
-2.86389 0.334171 0.349268 59
-2.88342 0.338439 0.150335 96
-0.626777 0.187072 -0.0325564 59
-0.637228 0.0787649 -0.0106023 3
-0.642452 0.0793833 -0.0534938 90
-0.789355 0.0959042 -0.120587 58
-0.764814 0.0923039 -0.169581 53
-2.70773 0.828427 0.644633 49
-2.84499 0.338632 0.757352 47
-2.7231 0.832632 0.444465 55
-2.85824 0.345191 0.552373 52
-2.7272 0.833381 0.246433 53
-2.86204 0.349661 0.349268 65
-2.87659 0.353434 0.150073 90
-0.621015 0.188888 -0.0322938 58
-0.63183 0.0816082 -0.0105151 3
-0.642027 0.082746 -0.0534938 90
-0.786391 0.0997401 -0.120196 58
-0.764304 0.0964406 -0.169581 53
-2.71108 0.834115 0.645756 49
-2.84679 0.343882 0.757998 49
-2.71471 0.834728 0.443295 50
-2.86251 0.350768 0.553326 52
-2.72812 0.838873 0.246651 56
-2.86395 0.354457 0.349572 62
-2.87851 0.358257 0.150204 80
-0.625455 0.191443 -0.0325564 58
-0.634167 0.0830168 -0.0105587 3
-0.646825 0.0844752 -0.0539288 90
-0.793568 0.102013 -0.12137 58
-0.771407 0.0985216 -0.171266 52
-2.71132 0.849758 0.646879 49
-2.84022 0.357691 0.756706 49
-2.71266 0.84967 0.443685 49
-2.86313 0.365558 0.553802 52
-2.72147 0.851925 0.246433 97
-2.85959 0.369134 0.349268 58
-2.87412 0.373006 0.150073 59
-0.629242 0.196102 -0.0328189 58
-0.646135 0.0878179 -0.0107769 3
-0.64639 0.087748 -0.0539288 90
-0.788125 0.105541 -0.120587 58
-0.77088 0.102559 -0.171266 52
-2.71463 0.855482 0.648003 52
-2.83959 0.362648 0.756706 49
-2.71588 0.85589 0.444465 49
-2.85518 0.369622 0.552373 52
-2.72235 0.857423 0.246651 101
-2.85402 0.373489 0.348659 53
-2.86604 0.377057 0.149681 53
-0.621757 0.194944 -0.0324251 56
-0.643766 0.0885548 -0.0537113 90
-0.790388 0.107233 -0.120979 58
-0.775533 0.104525 -0.172389 52
-2.70764 0.869412 0.647441 52
-2.83526 0.377196 0.756059 50
-2.71136 0.870098 0.444465 49
-2.85564 0.38489 0.552849 52
-2.71308 0.870142 0.246215 52
-2.84957 0.388096 0.348355 49
-2.85908 0.39139 0.149419 49
-0.62307 0.19907 -0.0325564 58
-0.648213 0.0927057 -0.0541462 90
-0.789816 0.11137 -0.120979 58
-0.767731 0.107615 -0.170704 52
-2.70148 0.872636 0.646318 52
-2.83699 0.382463 0.756706 50
-2.71454 0.876349 0.445246 47
-2.85733 0.3907 0.553326 50
-2.85381 0.393739 0.348964 49
-2.86086 0.396718 0.14955 49
-0.625097 0.200926 -0.0326876 58
-0.643116 0.0931592 -0.0537113 90
-0.78962 0.112748 -0.120979 58
-0.767542 0.108955 -0.170704 52
-2.69904 0.888002 0.646879 49
-2.83488 0.397807 0.756706 49
-2.71445 0.892568 0.446026 50
-2.85038 0.404974 0.552373 50
-2.84672 0.408477 0.348355 49
-2.8562 0.411839 0.149419 47
-0.619294 0.202634 -0.0324251 56
-0.642619 0.0965253 -0.0537113 90
-0.791464 0.117228 -0.12137 58
-0.764529 0.112766 -0.170143 52
-2.68839 0.889176 0.644633 49
-2.83418 0.402754 0.756706 49
-2.71773 0.898383 0.446807 56
-2.84481 0.409257 0.551419 49
-2.84853 0.413301 0.348659 49
-0.621309 0.2045 -0.0325564 58
-0.644914 0.0980028 -0.0539288 90
-0.78637 0.117907 -0.120587 58
-0.769174 0.114655 -0.171266 52
-2.68831 0.904797 0.645756 45
-2.82971 0.416746 0.756059 47
-2.71065 0.911812 0.446416 55
-2.84028 0.423293 0.550943 49
-2.84142 0.42748 0.348051 47
-2.62864 0.39769 0.137513 90
-0.624961 0.209346 -0.0328189 58
-0.641929 0.101009 -0.0537113 90
-0.788184 0.122387 -0.120979 58
-0.773383 0.119394 -0.172389 52
-2.67981 0.90714 0.644072 47
-2.82898 0.421684 0.756059 47
-2.70671 0.915749 0.446026 50
-2.83946 0.428745 0.550943 49
-2.83576 0.4317 0.347442 47
-2.62794 0.402277 0.137513 85
-0.629323 0.212041 -0.0330815 58
-0.644215 0.102503 -0.0539288 90
-0.768355 0.120022 -0.171266 52
-2.67026 0.920037 0.642949 49
-2.82188 0.436254 0.754767 47
-2.70405 0.931186 0.446416 47
-2.83233 0.442857 0.54999 50
-2.83584 0.447419 0.347747 49
-2.82058 0.447037 0.147849 42
-0.632924 0.216962 -0.033344 58
-0.685391 0.112533 -0.0115186 4
-0.636288 0.104716 -0.0532764 90
-0.772509 0.124925 -0.172389 52
-2.67111 0.925029 0.64351 49
-2.81873 0.44081 0.754121 47
-2.69092 0.931388 0.444465 47
-2.83397 0.448178 0.550466 50
-2.83023 0.4511 0.347138 49
-2.78535 0.445999 0.146017 42
-0.625469 0.215611 -0.0329502 58
-0.682725 0.113337 -0.011475 4
-0.638564 0.106217 -0.0534938 90
-0.77733 0.127719 -0.119413 55
-0.767498 0.125383 -0.171266 52
-2.65934 0.93657 0.641826 49
-2.81647 0.455071 0.754121 49
-2.67902 0.943002 0.443295 45
-2.83167 0.462517 0.550466 50
-2.82293 0.465114 0.34653 50
-2.84457 0.470664 0.149288 88
-0.626686 0.219713 -0.0330815 58
-0.687076 0.117601 -0.0115622 4
-0.637999 0.109559 -0.0534938 90
-0.779088 0.132185 -0.119804 55
-0.771641 0.130181 -0.172389 52
-2.6554 0.940396 0.641264 50
-2.81328 0.459601 0.753475 49
-2.67737 0.947676 0.443295 45
-2.82835 0.467556 0.54999 50
-2.82701 0.470847 0.347138 53
-1.4516 0.513424 0.0262659 4
-2.84128 0.47522 0.149157 108
-0.621596 0.219137 -0.0328189 58
-0.684404 0.118391 -0.0115186 4
-0.637807 0.110672 -0.0534938 90
-0.783728 0.134349 -0.120587 55
-0.771412 0.131527 -0.172389 52
-2.64569 0.953096 0.640141 49
-2.81314 0.475213 0.754121 49
-2.66756 0.960473 0.442514 45
-2.81861 0.481132 0.54856 50
-2.82687 0.486553 0.347442 58
-1.44889 0.521018 0.0262659 4
-2.84113 0.491007 0.149288 99
-0.622788 0.223236 -0.0329502 58
-0.639673 0.114431 -0.0537113 89
-0.775688 0.137341 -0.119413 55
-0.765886 0.134884 -0.171266 52
-2.64877 0.958911 0.641264 49
-2.80516 0.478915 0.752182 49
-2.66588 0.965127 0.442514 47
-2.82018 0.486464 0.549036 52
-2.82601 0.491486 0.347442 62
-1.44563 0.522694 0.0262222 4
-2.84273 0.49639 0.149419 104
-0.622397 0.224322 -0.0329502 56
-1.43032 0.518266 -0.18224 4
-0.639473 0.115547 -0.0537113 89
-0.77788 0.139115 -0.119804 55
-0.76805 0.136632 -0.171827 52
-2.64354 0.973228 0.641264 50
-2.80499 0.494011 0.752828 49
-2.65384 0.97651 0.441344 49
-2.81034 0.499946 0.547607 49
-2.82584 0.50671 0.347747 65
-1.44287 0.530256 0.0262222 4
-2.83763 0.51083 0.149288 101
-0.618872 0.226715 -0.0328189 56
-0.692727 0.128621 -0.0116931 9
-1.42293 0.524029 -0.181631 4
-0.641311 0.119331 -0.0539288 88
-0.779597 0.143482 -0.120196 55
-0.772122 0.141501 -0.17295 52
-2.64201 0.97738 0.641264 49
-2.79937 0.498068 0.751536 49
-2.65462 0.981535 0.441734 50
-2.81672 0.50614 0.549036 52
-2.8226 0.51071 0.347442 61
-1.44195 0.532773 0.0262222 4
-2.83437 0.514844 0.149157 67
-0.623157 0.22953 -0.0330815 58
-0.687581 0.128942 -0.0116058 8
-1.42444 0.527127 -0.181936 4
-0.63865 0.120008 -0.0537113 85
-0.776915 0.144406 -0.119804 55
-0.769501 0.142285 -0.172389 50
-2.63686 0.9912 0.641264 50
-2.79681 0.512231 0.751536 50
-2.64482 0.993682 0.440953 52
-2.81412 0.520391 0.549036 52
-2.81501 0.524581 0.346834 55
-1.44157 0.540945 0.0262659 4
-2.83163 0.529678 0.149157 59
-0.61961 0.23191 -0.0329502 58
-0.684462 0.131964 -0.0115622 8
-1.4263 0.536329 -0.182544 4
-0.640462 0.123805 -0.0539288 85
-1.30294 0.490325 -0.26332 4
-0.776148 0.148472 -0.119804 53
-1.00219 0.377581 -0.277403 4
-0.771141 0.146753 -0.17295 50
-2.63513 0.9958 0.641264 49
-2.79591 0.517111 0.751536 50
-2.64077 0.997423 0.440563 52
-2.80829 0.524899 0.548083 50
-1.48916 0.561521 0.136181 4
-2.81165 0.529039 0.34653 53
-1.44754 0.546366 0.0263968 4
-2.82825 0.53416 0.149027 58
-0.623874 0.234759 -0.0332127 55
-0.684231 0.133158 -0.0115622 8
-1.43 0.540576 -0.183153 4
-0.635349 0.124005 -0.0534938 79
-1.30437 0.49347 -0.263796 4
-0.773461 0.149373 -0.119413 53
-0.999204 0.378646 -0.276756 4
-0.766093 0.147209 -0.171827 50
-2.6297 1.01004 0.641264 50
-2.79308 0.532231 0.751536 50
-2.63533 1.0117 0.440563 52
-2.80791 0.540055 0.54856 50
-1.4954 0.573144 0.137052 4
-2.80875 0.544244 0.34653 50
-1.44933 0.555732 0.026484 4
-2.82042 0.548509 0.148765 58
-0.622636 0.238022 -0.0332127 56
-1.42474 0.547413 -0.182848 4
-0.637136 0.127802 -0.0537113 79
-1.30627 0.502286 -0.264748 3
-0.775066 0.154022 -0.119804 53
-1.00171 0.385613 -0.278049 4
-0.765286 0.151352 -0.171827 52
-2.63038 1.01505 0.641826 50
-2.7874 0.536201 0.750244 50
-2.63356 1.01629 0.440563 52
-2.80697 0.544955 0.54856 50
-1.48975 0.573958 0.136617 4
-2.80536 0.548673 0.346225 50
-1.44136 0.555557 0.0263531 8
-2.82191 0.553908 0.148896 61
-0.62222 0.239108 -0.0332127 58
-1.42147 0.549003 -0.182544 4
-0.639357 0.12939 -0.0539288 79
-1.3031 0.503678 -0.264272 3
-0.774796 0.155375 -0.119804 53
-0.994285 0.384738 -0.276109 3
-0.767412 0.153149 -0.172389 50
-2.62276 1.02792 0.641264 50
-2.78939 0.55123 0.751536 50
-2.62839 1.02961 0.440563 53
-2.80176 0.55868 0.548083 50
-1.48682 0.581491 0.136617 4
-2.80254 0.562865 0.346225 50
-1.45017 0.56741 0.0265713 4
-2.82152 0.568673 0.149027 68
-0.630255 0.246013 -0.0337378 58
-1.4256 0.558914 -0.183457 4
-0.638671 0.132736 -0.0539288 76
-1.3051 0.512064 -0.265224 4
-0.771578 0.158811 -0.119413 52
-0.992325 0.389765 -0.276109 4
-0.766627 0.157031 -0.172389 50
-2.62096 1.0325 0.641264 50
-2.78605 0.55563 0.75089 49
-2.62659 1.0342 0.440563 52
-2.79828 0.563577 0.547607 50
-1.47422 0.579519 0.135527 4
-2.80642 0.568733 0.346834 55
-1.44675 0.569276 0.0265277 4
-2.82786 0.575077 0.149419 90
-0.627502 0.246196 -0.0336066 58
-1.42462 0.561402 -0.183457 4
-0.633556 0.132864 -0.0534938 73
-1.29964 0.512536 -0.264272 4
-0.7713 0.160158 -0.119413 53
-0.998309 0.39434 -0.278049 3
-0.761575 0.157413 -0.171266 50
-2.6176 1.04757 0.641826 50
-2.78301 0.570695 0.75089 49
-2.61866 1.04747 0.440173 52
-2.79769 0.578714 0.548083 50
-1.48262 0.592115 0.136617 4
-2.8033 0.583909 0.346834 58
-1.44375 0.576843 0.0265277 4
-2.81982 0.589355 0.149157 97
-0.623887 0.24855 -0.0334753 58
-1.42617 0.57095 -0.184065 4
-0.63529 0.136685 -0.0537113 73
-1.29685 0.51956 -0.264272 4
-0.772869 0.164694 -0.119804 52
-0.993991 0.39866 -0.277403 4
-0.765484 0.162513 -0.172389 52
-2.61595 1.05168 0.641826 50
-2.77964 0.575067 0.750244 50
-2.6193 1.05251 0.440563 52
-2.79668 0.583596 0.548083 52
-1.47235 0.590983 0.135745 4
-2.80238 0.588311 0.346834 59
-1.44738 0.581229 0.0266149 4
-2.82133 0.594294 0.149288 98
-0.623452 0.249638 -0.0334753 58
-1.42987 0.575045 -0.184674 4
-0.637488 0.138304 -0.0539288 70
-1.30504 0.525499 -0.266177 3
-0.77258 0.166043 -0.119804 52
-0.99777 0.402206 -0.278696 4
-0.765228 0.163715 -0.172389 52
-2.61267 1.06628 0.642387 49
-2.77669 0.589128 0.750244 49
-2.61604 1.06714 0.440953 52
-2.79369 0.597744 0.548083 52
-1.47164 0.599369 0.135963 4
-2.79926 0.602977 0.346834 61
-1.44442 0.588547 0.0266149 4
-2.81818 0.609058 0.149288 100
-0.622137 0.252899 -0.0334753 58
-1.42914 0.583464 -0.184978 4
-0.63432 0.141117 -0.0537113 70
-1.29555 0.529306 -0.264748 4
-0.774115 0.170602 -0.120196 52
-0.984552 0.402665 -0.275463 4
-0.769125 0.168735 -0.173512 52
-2.60855 1.06991 0.641826 49
-2.7733 0.593472 0.749597 50
-2.61418 1.07171 0.440953 52
-2.78774 0.602078 0.54713 50
-1.46599 0.600046 0.135527 4
-2.79821 0.607861 0.346834 58
-1.44097 0.59037 0.0265713 4
-2.81468 0.613449 0.149157 90
-0.621694 0.253985 -0.0334753 58
-1.42353 0.58407 -0.18437 4
-0.636507 0.142751 -0.0539288 67
-1.30597 0.536238 -0.267129 3
-0.771402 0.171432 -0.119804 52
-0.979313 0.402712 -0.274169 3
-0.764066 0.169054 -0.172389 50
-2.60497 1.08495 0.642387 49
-2.77241 0.608983 0.750244 49
-2.60606 1.08488 0.440563 52
-2.78215 0.61614 0.546653 50
-1.46042 0.607011 0.135309 4
-2.79245 0.622456 0.34653 53
-1.43555 0.596945 0.0265277 4
-2.80644 0.627587 0.148896 59
-0.618052 0.256275 -0.033344 58
-1.41806 0.590807 -0.184065 4
-0.640614 0.147162 -0.0543637 67
-1.30305 0.543297 -0.267129 3
-0.772905 0.176002 -0.120196 52
-0.981645 0.4097 -0.275463 3
-0.767898 0.174234 -0.173512 50
-2.60326 1.08904 0.642387 49
-2.76898 0.613302 0.749597 49
-2.60663 1.08993 0.440953 52
-2.78826 0.622587 0.548083 50
-1.46395 0.611483 0.135745 4
-2.78421 0.625223 0.345617 49
-1.43682 0.600415 0.0265713 4
-2.79814 0.63036 0.148503 55
-0.617604 0.257354 -0.033344 58
-1.42628 0.596873 -0.185282 4
-0.642786 0.148824 -0.0545811 67
-1.29531 0.542718 -0.265701 3
-0.767777 0.176276 -0.119413 50
-0.974252 0.408602 -0.273523 4
-0.765245 0.174912 -0.17295 52
-2.59976 1.10361 0.642949 49
-2.7682 0.627839 0.750244 49
-2.60089 1.10356 0.440953 52
-2.77789 0.635063 0.546653 49
-1.46772 0.621805 0.136399 4
-2.77848 0.63924 0.345313 49
-1.43146 0.606702 0.0265277 4
-2.79724 0.64556 0.148634 59
-0.62314 0.263515 -0.0337378 58
-1.42085 0.603361 -0.184978 4
-0.634716 0.150517 -0.0539288 65
-1.29481 0.550229 -0.266177 3
-0.76925 0.180844 -0.119804 52
-0.974392 0.414476 -0.274169 4
-0.766695 0.179457 -0.173512 50
-2.59783 1.10815 0.642949 49
-2.76474 0.632136 0.749597 49
-2.59669 1.10713 0.440563 52
-2.77667 0.640395 0.546653 50
-1.45976 0.621433 0.135745 4
-2.78461 0.645758 0.346225 55
-1.43259 0.610431 0.0265713 8
-2.79611 0.650441 0.148634 62
-0.624975 0.265583 -0.0338691 58
-1.41524 0.603888 -0.18437 4
-0.639305 0.152746 -0.0543637 64
-1.28708 0.54959 -0.264748 3
-0.77134 0.18274 -0.120196 50
-0.971375 0.415393 -0.273523 4
-0.761631 0.179705 -0.172389 50
-2.62309 1.13575 0.65081 41
-2.75658 0.645991 0.748305 49
-2.77089 0.654365 0.546177 50
-1.45866 0.630312 0.135963 4
-2.78349 0.661384 0.34653 61
-1.42937 0.617924 0.0265713 4
-2.79255 0.66556 0.148634 90
-0.618995 0.266866 -0.0336066 58
-1.4165 0.613513 -0.184978 4
-0.638496 0.156092 -0.0543637 64
-1.29534 0.561437 -0.267129 3
-0.765566 0.185642 -0.119413 50
-0.971401 0.421438 -0.274169 4
-0.763019 0.184381 -0.17295 50
-2.8804 1.25269 0.715947 27
-2.7578 0.651352 0.748951 49
-2.76974 0.6592 0.546177 52
-1.46212 0.634845 0.136399 4
-2.78245 0.665756 0.34653 61
-1.42829 0.620418 0.0265713 4
-2.79393 0.670524 0.148765 119
-0.623105 0.26994 -0.0338691 58
-1.40871 0.612762 -0.184065 4
-0.6358 0.156628 -0.0541462 64
-1.29211 0.562715 -0.266653 3
-0.762839 0.186407 -0.119021 50
-0.977302 0.426036 -0.276109 3
-0.76747 0.186702 -0.174073 50
-2.84483 1.25496 0.708647 27
-2.75446 0.665302 0.748951 45
-2.71851 1.19861 0.463977 15
-2.76875 0.673786 0.546653 52
-1.468 0.646259 0.13727 4
-2.77893 0.680316 0.34653 61
-1.43199 0.630667 0.0267022 4
-2.78552 0.683961 0.148503 117
-0.623967 0.274208 -0.0340004 58
-1.40548 0.620129 -0.184065 4
-0.64223 0.161727 -0.0547986 62
-1.29373 0.571235 -0.267605 3
-0.764251 0.190982 -0.119413 50
-0.970718 0.429019 -0.274816 4
-0.768849 0.191291 -0.174635 50
-2.82259 1.25103 0.703594 29
-2.75095 0.669542 0.748305 33
-2.72544 1.20736 0.465537 11
-2.76746 0.679101 0.546653 52
-1.46687 0.64882 0.13727 4
-2.78014 0.685755 0.346834 65
-1.4285 0.632402 0.0266585 4
-2.78433 0.688822 0.148503 121
-0.625769 0.27631 -0.0341317 58
-1.40667 0.623589 -0.18437 4
-0.641947 0.162847 -0.0547986 62
-1.28152 0.568505 -0.265224 3
-0.773509 0.194669 -0.120979 50
-0.974303 0.432849 -0.276109 3
-0.763781 0.191477 -0.173512 50
-2.76469 1.24328 0.690679 24
-2.74729 0.684416 0.748305 49
-2.72562 1.22513 0.466708 12
-2.76386 0.693582 0.546653 52
-1.46561 0.657769 0.137488 4
-2.77639 0.700787 0.346834 64
-1.43428 0.643976 0.0268331 4
-2.78298 0.704485 0.148634 104
-0.62659 0.280607 -0.0342629 56
-1.40553 0.632211 -0.184674 4
-0.636255 0.164991 -0.0543637 62
-1.28514 0.578459 -0.266653 3
-0.767689 0.197515 -0.120196 50
-0.969823 0.436949 -0.275463 4
-0.767461 0.196788 -0.174635 50
-2.7472 1.24059 0.686748 55
-2.74843 0.689794 0.748951 47
-2.7282 1.23144 0.467489 18
-2.76265 0.698405 0.546653 52
-1.45992 0.658274 0.137052 4
-2.77288 0.70454 0.34653 59
-1.42405 0.642359 0.0266585 8
-2.78671 0.710081 0.148896 101
-0.6261 0.281701 -0.0342629 56
-1.4068 0.635441 -0.184978 4
-0.635966 0.166101 -0.0543637 59
-1.27742 0.57766 -0.265224 3
-0.767343 0.198854 -0.120196 50
-0.971258 0.43964 -0.276109 4
-0.764788 0.197399 -0.174073 49
-2.73845 1.25394 0.686186 47
-2.74491 0.703696 0.748951 45
-2.71498 1.24262 0.466318 52
-2.76145 0.712988 0.54713 52
-1.45657 0.665655 0.137052 4
-2.76916 0.719049 0.34653 62
-1.42759 0.652682 0.0267894 4
-2.78537 0.725287 0.149027 90
-0.622347 0.283934 -0.0341317 59
-1.40796 0.644869 -0.185587 4
-0.639909 0.170678 -0.0547986 59
-1.27671 0.585143 -0.265701 4
-0.76151 0.201634 -0.119413 50
-0.966826 0.443541 -0.275463 3
-0.768463 0.202614 -0.175197 49
-2.70528 1.24445 0.678325 29
-2.74601 0.709085 0.749597 42
-2.68813 1.236 0.462025 30
-2.76008 0.718288 0.54713 52
-1.45315 0.667155 0.136835 4
-2.7727 0.725129 0.347138 67
-1.41953 0.652285 0.0266585 4
-2.77202 0.727001 0.148372 108
-0.626385 0.287109 -0.0343942 58
-1.40909 0.648365 -0.185891 4
-0.639611 0.171794 -0.0547986 58
-1.26677 0.583256 -0.263796 4
-0.770716 0.205449 -0.120979 50
-0.970357 0.447424 -0.276756 3
-0.768108 0.203955 -0.175197 49
-2.67423 1.24773 0.672148 29
-2.73513 0.722095 0.747659 45
-2.68588 1.25262 0.462806 30
-2.75628 0.73273 0.54713 52
-1.45403 0.677114 0.13727 4
-2.76634 0.739483 0.346834 61
-1.42062 0.661824 0.0267458 4
-2.77287 0.743273 0.148634 135
-0.62035 0.288272 -0.0341317 58
-1.40781 0.657031 -0.186195 4
-0.633889 0.173859 -0.0543637 58
-1.26805 0.592183 -0.264748 3
-0.767243 0.208848 -0.120587 50
-0.959255 0.448397 -0.274169 4
-0.764639 0.207484 -0.174635 50
-2.65683 1.24469 0.668217 53
-2.7362 0.727484 0.748305 49
-2.6459 1.23901 0.456172 33
-2.75263 0.736909 0.546653 52
-1.4551 0.680708 0.137488 4
-2.75798 0.741906 0.345921 53
-1.4172 0.663241 0.0267022 4
-2.76929 0.746982 0.148503 129
-0.622105 0.290415 -0.0342629 58
-1.40902 0.660296 -0.186499 4
-0.638396 0.176256 -0.0547986 56
-1.26479 0.59335 -0.264272 4
-0.764492 0.209549 -0.120196 49
-0.958471 0.45007 -0.274169 4
-0.76902 0.20994 -0.175758 50
-2.65687 1.26172 0.669902 59
-2.72782 0.740067 0.747013 44
-2.64607 1.25603 0.457343 58
-2.74649 0.750189 0.546177 50
-1.44714 0.685927 0.137052 4
-2.76363 0.758949 0.347138 50
-1.40931 0.668259 0.0266149 4
-2.77738 0.764765 0.149157 89
-0.620576 0.293668 -0.0342629 56
-1.40778 0.668731 -0.186804 4
-0.635062 0.178938 -0.0545811 56
-1.25734 0.597633 -0.26332 3
-0.954002 0.453875 -0.273523 3
-0.763209 0.212684 -0.174635 49
-2.66126 1.26951 0.671587 59
-2.73118 0.746092 0.748305 47
-2.65055 1.26384 0.458513 58
-2.74742 0.756108 0.546653 52
-1.44594 0.688452 0.137052 4
-2.75752 0.762456 0.34653 55
-1.41705 0.675273 0.0267894 4
-2.77123 0.768286 0.148896 70
-0.620063 0.294751 -0.0342629 56
-1.40438 0.670117 -0.186499 4
-0.63715 0.180708 -0.0547986 56
-1.26072 0.601946 -0.264272 3
-0.957483 0.457795 -0.274816 4
-0.762836 0.214016 -0.174635 49
-2.65655 1.28495 0.672148 61
-2.72245 0.759568 0.747013 49
-2.6459 1.27923 0.458904 59
-2.74342 0.770483 0.546653 49
-1.43995 0.69518 0.136835 4
-2.74858 0.776024 0.345921 67
-1.40449 0.678327 0.0266149 4
-2.77424 0.785296 0.149288 61
-0.618511 0.297993 -0.0342629 58
-1.40073 0.677705 -0.186499 4
-0.636195 0.184042 -0.0547986 56
-1.25965 0.60983 -0.264748 3
-0.955073 0.462802 -0.274816 4
-0.764013 0.218796 -0.175197 49
-2.65672 1.29018 0.67271 62
-2.72112 0.764318 0.747013 49
-2.64811 1.28601 0.459684 61
-2.74443 0.775934 0.54713 50
-1.44321 0.69987 0.13727 4
-2.75438 0.782844 0.346834 64
-1.41005 0.684056 0.0267458 4
-2.76326 0.787416 0.148765 67
-0.62248 0.301257 -0.0345255 56
-1.39955 0.680149 -0.186499 4
-0.638269 0.185831 -0.055016 55
-1.25197 0.608801 -0.26332 3
-0.947754 0.461289 -0.272876 4
-2.65648 1.30731 0.674394 71
-2.7149 0.777421 0.746366 49
-2.65042 1.30376 0.461245 67
-2.73575 0.788463 0.546177 50
-1.43519 0.704966 0.136835 4
-2.74323 0.794715 0.345921 53
-1.40209 0.688976 0.0266585 4
-2.76403 0.802777 0.149027 93
-0.620894 0.304512 -0.0345255 56
-1.39831 0.688322 -0.186804 4
-0.634894 0.188479 -0.0547986 55
-1.25547 0.61839 -0.264748 3
-0.945407 0.46608 -0.272876 4
-2.65856 1.3141 0.675517 82
-2.71586 0.782823 0.747013 49
-2.65257 1.31058 0.462025 77
-2.73423 0.793714 0.546177 50
-1.43842 0.709677 0.13727 4
-2.73707 0.79812 0.345313 50
-1.41644 0.699427 0.026964 4
-2.76023 0.806903 0.148896 107
-0.618124 0.304487 -0.0343942 58
-1.38821 0.686354 -0.185587 4
-0.634564 0.189586 -0.0547986 55
-1.25219 0.619489 -0.264272 3
-0.955323 0.473269 -0.276109 4
-2.65141 1.32847 0.675517 86
-2.71622 0.79886 0.748305 47
-2.65206 1.32823 0.463196 89
-2.72768 0.807327 0.5457 52
-1.43678 0.718565 0.137488 4
-2.73271 0.812918 0.345313 49
-1.41053 0.705713 0.0269203 4
-2.75583 0.821825 0.148896 90
-0.616522 0.30772 -0.0343942 58
-1.39335 0.69831 -0.186804 4
-0.631175 0.192198 -0.0545811 55
-1.24225 0.622948 -0.262844 3
-0.952832 0.478264 -0.276109 4
-2.62757 1.32167 0.669902 36
-2.7125 0.802918 0.747659 45
-2.62792 1.32129 0.459294 44
-2.72392 0.81139 0.545224 52
-1.43108 0.718832 0.137052 4
-2.72906 0.816502 0.345008 49
-1.40483 0.705925 0.0268331 4
-2.74735 0.824013 0.148503 55
-0.622672 0.312165 -0.034788 56
-1.38339 0.696029 -0.185587 4
-0.630839 0.1933 -0.0545811 55
-1.23897 0.624009 -0.262367 4
-0.96277 0.485376 -0.279342 4
-2.59457 1.32213 0.663164 33
-2.71072 0.81733 0.748305 45
-2.59896 1.32381 0.455392 35
-2.71978 0.825166 0.545224 49
-1.43852 0.731721 0.138142 4
-2.73187 0.832939 0.345921 56
-1.40346 0.714163 0.0268767 4
-0.618806 0.314286 -0.0346568 56
-1.38193 0.704392 -0.185891 4
-0.629818 0.1966 -0.0545811 53
-1.23798 0.63139 -0.262844 4
-0.958152 0.489142 -0.278696 4
-2.57708 1.31888 0.659233 33
-2.7116 0.822757 0.748951 47
-2.57907 1.31934 0.45227 33
-2.72288 0.831812 0.546177 49
-1.4328 0.731961 0.137706 4
-2.73041 0.837706 0.345921 82
-1.39987 0.715716 0.0268331 8
-0.620478 0.316504 -0.034788 58
-1.3807 0.706803 -0.185891 4
-0.631855 0.198428 -0.0547986 53
-1.23906 0.63467 -0.26332 3
-0.963653 0.494296 -0.280636 4
-2.55045 1.3227 0.654179 33
-2.71403 0.839545 0.75089 49
-2.54997 1.3219 0.448368 33
-2.71849 0.846058 0.546177 45
-1.4244 0.737409 0.13727 4
-2.71873 0.850256 0.345008 50
-1.39832 0.724187 0.0268767 4
-0.623244 0.32205 -0.0350506 56
-1.37466 0.713118 -0.185587 4
-0.630808 0.201733 -0.0547986 53
-1.23125 0.639099 -0.262367 3
-0.952486 0.49487 -0.278049 4
-2.52893 1.31657 0.649126 33
-2.71256 0.844281 0.75089 50
-2.53037 1.31678 0.445246 32
-2.71935 0.851531 0.546653 45
-1.43415 0.745647 0.13836 4
-2.72213 0.856007 0.345617 49
-1.39483 0.725471 0.0268331 8
-0.618253 0.320828 -0.034788 58
-1.37353 0.715276 -0.185587 4
-0.630455 0.202834 -0.0547986 53
-1.23013 0.641247 -0.262367 3
-1.98274 0.625644 -0.324176 14
-0.958039 0.499891 -0.279989 4
-2.50045 1.31842 0.64351 33
-2.70595 0.857274 0.750244 49
-2.50379 1.31964 0.441734 33
-2.72437 0.868249 0.54856 49
-1.42375 0.749411 0.137706 4
-2.71524 0.869495 0.345313 47
-1.39557 0.734855 0.0269203 4
-0.62098 0.326393 -0.0350506 56
-1.37635 0.725937 -0.186499 4
-0.631756 0.20689 -0.055016 49
-1.22036 0.644022 -0.260939 3
-1.97944 0.636017 -0.324176 12
-0.953363 0.503603 -0.279342 4
-2.48308 1.31479 0.63958 35
-2.70445 0.861996 0.750244 49
