# .PCD v0.7 - Point Cloud Data file format
VERSION 0.7
FIELDS x y z intensity
SIZE 4 4 4 4
TYPE F F F F
COUNT 1 1 1 1
WIDTH 1533
HEIGHT 1
VIEWPOINT 0 0 0 1 0 0 0
POINTS 1533
DATA ascii
-2.61724 -2.17284 -0.058771 32
-0.844932 -0.48237 -0.115003 41
-2.61932 -2.17455 -0.294216 29
-0.844699 -0.481854 -0.181895 41
-1.59617 -1.32455 -0.323393 12
-0.853054 -0.485639 -0.253477 42
-1.30654 -1.08532 -0.383523 14
-7.27843 -4.09611 1.91705 23
-6.61403 -5.48667 2.29015 9
-7.28407 -4.10094 1.31545 33
-6.71334 -5.54945 1.68476 14
-7.391 -4.16281 0.739081 32
-6.6978 -5.52091 1.05997 14
-3.16224 -1.78124 0.0627414 33
-0.702132 -0.396575 -0.0405642 44
-2.64247 -2.16977 -0.0590764 30
-0.84104 -0.474145 -0.11409 41
-2.64797 -2.17506 -0.296173 33
-0.845153 -0.476075 -0.181419 41
-1.59166 -1.30675 -0.321044 12
-0.849265 -0.477624 -0.251538 42
-1.32553 -1.0891 -0.387454 12
-7.26786 -4.07515 1.91256 21
-6.64779 -5.49513 2.29855 9
-7.28404 -4.08588 1.31428 33
-6.66621 -5.49088 1.67046 12
-7.38305 -4.14138 0.737555 33
-6.6758 -5.48516 1.05511 14
-3.16316 -1.7745 0.0626978 33
-0.698467 -0.392909 -0.0403016 47
-2.65205 -2.16991 -0.0592073 27
-0.843949 -0.474035 -0.114394 41
-2.65753 -2.17517 -0.296826 33
-0.845983 -0.474599 -0.181419 41
-1.59203 -1.3024 -0.320653 12
-0.854315 -0.478495 -0.252831 44
-1.331 -1.09012 -0.388577 12
-7.26565 -4.02406 1.90639 18
-6.6942 -5.47672 2.30501 9
-7.28806 -4.03811 1.31115 33
-6.65779 -5.42759 1.66141 11
-7.38431 -4.09309 0.735594 33
-6.66594 -5.4188 1.04902 12
-3.15461 -1.74877 0.0623487 33
-0.698331 -0.388037 -0.0401703 47
-2.67658 -2.16749 -0.0595127 26
-0.844248 -0.468409 -0.11409 42
-2.68049 -2.17065 -0.29813 32
-0.846226 -0.469124 -0.180943 44
-1.59691 -1.29249 -0.320261 12
-0.852496 -0.471832 -0.251538 44
-1.34236 -1.08775 -0.390261 12
-7.25133 -3.99961 1.90077 17
-6.73181 -5.48793 2.31471 8
-7.28644 -4.02061 1.30959 33
-6.63583 -5.38848 1.65331 11
-7.37836 -4.07298 0.734287 32
-6.6484 -5.38528 1.04476 12
-3.16015 -1.74392 0.0623923 33
-0.70338 -0.389228 -0.0404329 47
-2.68618 -2.16753 -0.0596436 24
-0.849411 -0.469329 -0.114699 42
-2.69395 -2.1738 -0.299218 33
-0.847044 -0.467647 -0.180943 42
-1.59341 -1.28503 -0.319086 12
-0.855517 -0.471357 -0.252184 44
-1.35371 -1.09308 -0.393069 12
-7.24077 -3.94285 1.89235 15
-6.78583 -5.47115 2.32311 8
-7.28641 -3.96932 1.30569 33
-6.65822 -5.34905 1.65188 12
-7.3828 -4.02347 0.732544 32
-6.65808 -5.3337 1.04172 14
-3.16265 -1.72377 0.0622615 33
-0.692252 -0.378379 -0.0396452 45
-2.71544 -2.16702 -0.0600363 21
-0.845398 -0.461171 -0.113786 42
-2.71696 -2.169 -0.300522 32
-0.845248 -0.460714 -0.179991 42
-1.59819 -1.27513 -0.318695 12
-0.853728 -0.464569 -0.250891 44
-1.3672 -1.09184 -0.395315 12
-7.22125 -3.91753 1.88561 14
-6.82548 -5.48351 2.33345 8
-7.28612 -3.95434 1.30452 33
-6.66946 -5.33895 1.65235 11
-7.38543 -4.0082 0.732108 33
-6.66451 -5.32169 1.04141 12
-3.16346 -1.71705 0.0622178 33
-2.74018 -2.18133 0.181737 3
-0.6973 -0.379549 -0.0399078 47
-2.72899 -2.17007 -0.0602544 18
-0.846121 -0.459842 -0.113786 44
-2.72853 -2.17047 -0.301392 20
-0.852527 -0.462741 -0.181419 44
-0.854537 -0.463078 -0.250891 44
-1.36892 -1.0897 -0.395315 12
-7.2116 -3.86357 1.87775 14
-6.87205 -5.46394 2.33991 8
-7.28713 -3.90564 1.30101 33
-6.73293 -5.3341 1.66141 9
-7.38147 -3.95783 0.729711 32
-6.72732 -5.31442 1.04689 12
-3.16109 -1.69512 0.0619997 35
-2.78095 -2.19017 0.183699 4
-0.697077 -0.374715 -0.0397765 47
-2.75563 -2.16862 -0.0606035 15
-0.844141 -0.453065 -0.113177 44
-2.75159 -2.16541 -0.302697 14
-0.844036 -0.452637 -0.179038 42
-0.848348 -0.4542 -0.248304 42
-1.37842 -1.08554 -0.396438 12
-7.20114 -3.8418 1.87326 14
-6.91752 -5.48045 2.35218 9
-7.28305 -3.8871 1.29906 33
-6.77011 -5.34247 1.66808 11
-7.37958 -3.94025 0.72884 32
-6.75413 -5.3165 1.04963 11
-3.16214 -1.68787 0.061956 35
-2.79261 -2.19148 0.184223 4
-0.69773 -0.373498 -0.0397765 49
-2.76138 -2.16535 -0.0606471 14
-0.847121 -0.452758 -0.113482 44
-2.75341 -2.15907 -0.302479 11
-0.849157 -0.453469 -0.179991 42
-0.853484 -0.454836 -0.249598 44
-7.18733 -3.78463 1.86427 14
-6.96797 -5.45934 2.35929 8
-7.28212 -3.83613 1.29515 33
-7.38978 -3.89446 0.72775 32
-3.16209 -1.66663 0.0617815 35
-2.87536 -2.23154 0.188933 4
-0.697467 -0.368676 -0.0396452 47
-2.79279 -2.16573 -0.0610834 14
-0.838576 -0.442395 -0.11196 44
-0.84508 -0.445444 -0.178562 42
-0.847299 -0.445875 -0.247011 44
-7.16737 -3.75976 1.85753 15
-7.2772 -3.81896 1.2932 35
-7.38333 -3.87461 0.726443 33
-3.15835 -1.65763 0.0616506 35
-2.86505 -2.21631 0.188017 8
-0.691476 -0.363982 -0.0392514 49
-2.80644 -2.1685 -0.0613016 12
-0.845865 -0.44453 -0.112873 44
-0.852381 -0.447381 -0.179991 42
-0.848076 -0.444395 -0.247011 44
-7.16965 -3.71322 1.85304 17
-7.28175 -3.77285 1.29047 33
-7.38294 -3.82688 0.724482 33
-3.16226 -1.63932 0.0615634 35
-2.87464 -2.19976 0.187886 9
-0.693372 -0.360356 -0.0392514 47
-2.84714 -2.17708 -0.061956 12
-0.848181 -0.440095 -0.112873 44
-0.843732 -0.437429 -0.17761 42
-0.858812 -0.653389 -0.165612 26
-0.85246 -0.441204 -0.247658 44
-7.14797 -3.68619 1.84574 20
-7.26857 -3.74995 1.28696 33
-2.85905 -2.18852 0.692491 3
-7.37855 -3.80828 0.723393 33
-2.84588 -2.17294 0.434759 9
-3.15651 -1.62866 0.0613888 35
-2.87451 -2.1917 0.187624 11
-0.689561 -0.356858 -0.0389889 49
-0.848947 -0.438614 -0.112873 44
-0.848859 -0.438201 -0.178562 44
-0.865834 -0.65639 -0.166786 33
-0.849009 -0.437361 -0.246365 44
-7.15696 -3.64194 1.84293 21
-2.86952 -2.18063 0.95509 8
-7.27995 -3.70609 1.2854 33
-2.88024 -2.18094 0.694874 3
-7.38351 -3.76039 0.721868 33
-2.84968 -2.15152 0.433542 14
-3.16054 -1.60985 0.0613016 35
-2.88433 -2.17461 0.187494 14
-0.69142 -0.353243 -0.0389889 49
-0.85352 -0.435139 -0.113177 44
-0.849029 -0.432491 -0.178086 44
-0.846979 -0.430727 -0.245071 44
-7.14528 -3.62189 1.83844 23
-2.86178 -2.16686 0.951213 9
-7.2754 -3.6878 1.28345 33
-2.86643 -2.16259 0.690585 9
-7.37451 -3.73962 0.720342 33
-2.85937 -2.15103 0.434455 27
-3.1522 -1.59868 0.0610834 36
-2.88214 -2.16507 0.187101 12
-0.689809 -0.350908 -0.0388576 49
-0.843207 -0.428048 -0.111656 44
-0.849782 -0.431008 -0.178086 44
-0.849885 -0.430336 -0.245718 44
-7.1489 -3.5768 1.83451 23
-2.87658 -2.15525 0.952506 4
-7.27409 -3.64098 1.27994 33
-2.88127 -2.15099 0.691538 8
-7.37998 -3.69556 0.719035 33
-2.88613 -2.1484 0.436889 1
-3.15578 -1.58047 0.0609962 36
-2.89706 -2.15344 0.187363 12
-0.689343 -0.346295 -0.0387263 49
-0.845363 -0.423775 -0.111656 44
-0.875421 -0.646308 -0.0919833 47
-0.849757 -0.425606 -0.17761 44
-0.861913 -0.636906 -0.164437 45
-0.845568 -0.422798 -0.243778 44
-0.861862 -0.638216 -0.239211 41
-7.1436 -3.56013 1.8317 23
-2.8726 -2.14443 0.949921 3
-7.2716 -3.62388 1.27837 35
-2.86732 -2.13275 0.687249 2
-7.37304 -3.67601 0.717728 33
-2.87594 -2.13299 0.434759 1
-3.15406 -1.57273 0.0609089 36
-2.89681 -2.1454 0.187101 3
-0.689946 -0.345091 -0.0387263 52
-0.841657 -0.420089 -0.111048 44
-0.874548 -0.643295 -0.0917659 47
-0.848301 -0.42303 -0.177134 44
-0.855097 -0.629509 -0.162871 45
-0.848468 -0.422395 -0.244425 44
-0.857114 -0.632345 -0.237526 41
-7.1562 -3.51821 1.83002 26
-2.89932 -2.14086 0.95509 2
-7.27717 -3.57922 1.27603 35
-2.89227 -2.12791 0.690585 2
-7.37208 -3.62746 0.715766 32
-2.89107 -2.12085 0.435368 1
-2.91404 -2.13464 0.187494 1
-0.687322 -0.339152 -0.0384638 49
-0.846073 -0.41677 -0.111352 44
-0.871993 -0.634133 -0.0911135 49
-0.850504 -0.418582 -0.177134 44
-0.856392 -0.62356 -0.16248 45
-0.839823 -0.412638 -0.241192 42
-0.85649 -0.624958 -0.236403 41
-7.14264 -3.49607 1.82496 24
-2.87973 -2.11859 0.947336 2
-7.2701 -3.56 1.27369 35
-7.37392 -3.61239 0.715331 33
-2.95604 -2.15757 0.18998 3
-0.690155 -0.339049 -0.038595 50
-0.68046 -0.491738 -0.0140492 14
-0.849029 -0.416382 -0.111656 45
-0.869078 -0.629669 -0.0906786 49
-0.844617 -0.413867 -0.175705 44
-0.857479 -0.622065 -0.16248 47
-0.838443 -0.409967 -0.240545 42
-0.855616 -0.622021 -0.235841 39
-7.15487 -3.4542 1.82328 26
-7.27369 -3.51309 1.27096 35
-7.37542 -3.56378 0.713588 35
-2.98992 -2.15764 0.191419 4
-0.691921 -0.33543 -0.038595 49
-0.681086 -0.486585 -0.0140056 14
-0.849034 -0.410705 -0.111352 44
-0.872363 -0.62511 -0.0906786 49
-0.842421 -0.407162 -0.174753 42
-0.854725 -0.613221 -0.161305 45
-0.847107 -0.40871 -0.242485 45
-0.853054 -0.61309 -0.234157 41
-7.1537 -3.43979 1.82159 26
-7.2614 -3.4931 1.26784 33
-7.36816 -3.54443 0.71228 35
-3.00545 -2.1617 0.192204 4
-0.685754 -0.330979 -0.0382012 50
-0.681934 -0.485395 -0.0140056 14
-0.847441 -0.408297 -0.111048 44
-0.873453 -0.623587 -0.0906786 47
-0.84313 -0.405691 -0.174753 42
-0.855794 -0.611728 -0.161305 47
-0.841284 -0.404104 -0.240545 44
-0.857964 -0.614605 -0.23528 39
-7.1518 -3.3929 1.81654 26
-7.26843 -3.44974 1.26589 33
-7.37251 -3.50068 0.710973 35
-3.05128 -2.17058 0.194428 8
-0.685222 -0.326315 -0.0380699 49
-0.67624 -0.476134 -0.013831 14
-0.845082 -0.40173 -0.110439 44
-0.87265 -0.616114 -0.0902437 49
-0.845173 -0.401419 -0.174753 44
-0.856976 -0.605804 -0.160914 47
-0.836768 -0.396747 -0.238605 42
-0.849282 -0.601599 -0.231911 41
-7.1489 -3.37625 1.81429 26
-7.26104 -3.43073 1.26355 33
-7.3696 -3.48355 0.710101 35
-3.08171 -2.1874 0.459099 4
-3.06524 -2.17248 0.195082 11
-0.685791 -0.325118 -0.0380699 50
-0.675032 -0.473506 -0.0137874 14
-0.843537 -0.399196 -0.110135 44
-0.871693 -0.613148 -0.0900262 49
-0.843652 -0.398897 -0.174277 44
-0.856019 -0.602877 -0.160522 47
-0.841899 -0.397194 -0.239898 44
-0.850331 -0.600116 -0.231911 41
-7.1516 -3.33032 1.81036 26
-3.07592 -2.17268 0.998386 2
-7.26831 -3.38618 1.26159 33
-3.09496 -2.17815 0.728236 3
-7.37705 -3.43837 0.709012 35
-3.09147 -2.16927 0.458794 9
-3.07082 -2.15156 0.19469 11
-0.680693 -0.318362 -0.0376761 50
-0.675538 -0.46841 -0.0137438 14
-0.847935 -0.395673 -0.110439 44
-0.870815 -0.605712 -0.0895913 49
-0.841346 -0.392259 -0.173324 44
-0.857145 -0.596966 -0.160131 49
-0.835203 -0.388718 -0.237312 42
-0.849582 -0.5927 -0.230788 42
-7.13472 -3.30884 1.80475 24
-3.09944 -2.18124 1.00485 3
-7.25794 -3.36748 1.25886 33
-3.08872 -2.16568 0.725853 9
-7.36045 -3.41501 0.706833 32
-3.07253 -2.14874 0.455448 11
-3.07624 -2.14817 0.194821 11
-0.683513 -0.318223 -0.0378074 50
-0.674306 -0.465798 -0.0137001 14
-0.846303 -0.393298 -0.110135 44
-0.86983 -0.602764 -0.0893739 50
-0.842029 -0.39079 -0.173324 44
-0.858185 -0.595469 -0.160131 47
-0.83588 -0.38726 -0.237312 42
-0.846525 -0.588565 -0.229665 42
-7.15638 -3.27346 1.80587 23
-3.09658 -2.15584 1.00032 9
-7.262 -3.32327 1.25652 33
-3.10166 -2.15142 0.72633 9
-7.36179 -3.37046 0.705308 32
-3.09801 -2.14252 0.457577 9
-3.0854 -2.13061 0.19469 11
-0.680629 -0.312565 -0.0375448 49
-0.672544 -0.459535 -0.0136129 14
-0.846094 -0.38783 -0.109831 44
-0.872975 -0.598201 -0.0893739 50
-0.843997 -0.386523 -0.173324 44
-0.859262 -0.589561 -0.159739 47
-0.842226 -0.385025 -0.238605 42
-0.851596 -0.585514 -0.230226 42
-7.22195 -3.28821 1.82103 20
-3.1043 -2.15319 1.00162 8
-7.25879 -3.3065 1.25496 35
-3.10982 -2.14826 0.727283 4
-7.35859 -3.35347 0.704436 32
-3.0997 -2.1357 0.457273 2
-3.08911 -2.12522 0.19469 1
-0.676628 -0.309309 -0.0372823 49
-0.669229 -0.455523 -0.0135256 14
-0.839992 -0.383273 -0.108918 44
-0.869916 -0.593849 -0.088939 50
-0.8402 -0.383021 -0.172372 44
-0.856226 -0.585255 -0.158956 49
-0.836364 -0.380418 -0.236665 42
-0.84861 -0.581255 -0.229103 41
-7.2463 -3.25208 1.82272 14
-3.12187 -2.14047 1.00356 4
-7.26531 -3.26212 1.25301 35
-3.12305 -2.13333 0.727759 2
-7.363 -3.30749 0.703129 32
-3.11941 -2.1245 0.45849 2
-3.11294 -2.11692 0.195475 3
-0.682794 -0.307806 -0.0375448 47
-0.669618 -0.450488 -0.013482 14
-0.844318 -0.379737 -0.109222 45
-0.873014 -0.589287 -0.088939 50
-0.84002 -0.377466 -0.171896 44
-0.8552 -0.577979 -0.158173 49
-0.838344 -0.376034 -0.236665 42
-0.847721 -0.573904 -0.22798 42
-7.30923 -3.26653 1.83732 12
-3.1276 -2.13638 1.0042 2
-7.25916 -3.24567 1.25106 35
-3.13285 -2.13203 0.729189 2
-7.35739 -3.28955 0.702039 32
-3.1289 -2.12378 0.459403 3
-3.11626 -2.11202 0.195475 3
-0.681051 -0.305596 -0.0374136 47
-0.664199 -0.445107 -0.0133511 14
-0.844914 -0.378411 -0.109222 44
-0.86992 -0.584964 -0.088504 50
-0.838436 -0.375001 -0.17142 44
-0.854165 -0.575097 -0.157781 49
-0.834586 -0.372608 -0.235372 42
-0.844595 -0.569828 -0.226857 42
-7.26381 -3.20072 1.82159 30
-3.14837 -2.1273 1.00743 2
-7.26023 -3.20064 1.24833 35
-3.1497 -2.12026 0.730619 2
-7.36711 -3.24926 0.701386 33
-3.14821 -2.11291 0.46062 4
-2.11068 -0.931553 0.0396606 4
-3.13349 -2.09986 0.195867 11
-0.687211 -0.304037 -0.0376761 47
-0.666443 -0.441739 -0.0133511 14
-0.844612 -0.372982 -0.108918 44
-0.866768 -0.576236 -0.0878517 50
-0.84257 -0.37174 -0.171896 44
-0.857165 -0.570617 -0.157781 49
-0.83425 -0.367409 -0.234725 42
-0.853628 -0.569482 -0.228542 44
-7.25823 -3.18315 1.81879 33
-3.15007 -2.12045 1.00679 2
-7.25902 -3.18499 1.24716 35
-3.16803 -2.1238 0.733955 3
-7.35452 -3.22839 0.699643 35
-3.1622 -2.11432 0.462141 4
-2.10788 -0.925492 0.0395733 4
-3.13093 -2.09022 0.195475 1
-0.680881 -0.299832 -0.0372823 47
-0.667213 -0.440575 -0.0133511 12
-0.842988 -0.370513 -0.108614 45
-0.863632 -0.571953 -0.0874168 52
-0.838721 -0.368302 -0.170944 44
-0.856108 -0.567746 -0.15739 49
-0.837167 -0.366772 -0.235372 44
-0.848553 -0.563917 -0.226857 44
-7.25969 -3.13707 1.81486 33
-3.19364 -2.12482 1.01713 3
-7.25575 -3.13686 1.24364 33
-3.19545 -2.11805 0.737768 3
-7.35588 -3.18164 0.698118 33
-3.1798 -2.1013 0.463054 3
-2.12647 -0.920392 0.0398351 4
-3.16926 -2.09116 0.197176 9
-0.680149 -0.295273 -0.037151 49
-0.665417 -0.434202 -0.0132638 12
-0.838145 -0.362998 -0.107701 45
-0.87077 -0.570171 -0.0878517 52
-0.833939 -0.360845 -0.169515 44
-0.861226 -0.564469 -0.157781 47
-0.834639 -0.360476 -0.234079 42
-0.853621 -0.560665 -0.227419 44
-7.25566 -3.12181 1.81261 33
-3.19131 -2.11523 1.01519 2
-7.25668 -3.12224 1.24286 33
-3.19301 -2.1084 0.736338 3
-7.35456 -3.16584 0.697464 33
-3.15032 -2.07387 0.458186 2
-2.13266 -0.918654 0.0399224 4
-3.16665 -2.0815 0.196783 2
-0.685251 -0.296057 -0.0374136 47
-0.655736 -0.426165 -0.0130457 12
-0.847898 -0.36545 -0.108918 45
-0.867604 -0.565909 -0.0874168 52
-0.836823 -0.360357 -0.169991 44
-0.853966 -0.557526 -0.156215 49
-0.830827 -0.357118 -0.232785 42
-0.844438 -0.552457 -0.224611 44
-7.25674 -3.07586 1.80868 35
-7.25474 -3.07649 1.23974 35
-7.35498 -3.12048 0.695939 33
-3.19215 -2.07443 0.197699 2
-0.682194 -0.290517 -0.037151 47
-0.657959 -0.422726 -0.0130457 12
-0.842944 -0.358105 -0.108005 45
-0.866382 -0.55864 -0.0869819 52
-0.838699 -0.35597 -0.169991 45
-0.860913 -0.555895 -0.156998 47
-0.832685 -0.352763 -0.232785 42
-0.853436 -0.552026 -0.226295 44
-7.25258 -3.06067 1.80643 35
-7.25273 -3.06221 1.23857 33
-7.35812 -3.10667 0.695721 35
-3.17237 -2.05446 0.19626 1
-0.6827 -0.289326 -0.037151 50
-0.660793 -0.422937 -0.0130893 12
-0.848079 -0.358707 -0.108614 45
-0.867355 -0.557127 -0.0869819 52
-0.839319 -0.354506 -0.169991 45
-0.85153 -0.547664 -0.155041 47
-0.835526 -0.352244 -0.233432 42
-0.844096 -0.544037 -0.223488 44
-7.25276 -3.01611 1.8025 33
-7.24359 -3.01376 1.23428 35
-7.35766 -3.06269 0.694195 33
-3.18098 -2.03647 0.196129 3
-0.6819 -0.28479 -0.0370197 49
-0.662925 -0.419587 -0.0130893 12
-0.840778 -0.350456 -0.107397 45
-0.872357 -0.553923 -0.0871993 52
-0.834301 -0.347433 -0.168563 44
-0.85854 -0.545868 -0.155824 47
-0.832835 -0.346164 -0.232139 44
-0.85103 -0.542248 -0.224611 44
-7.25576 -3.00251 1.80194 33
-7.24427 -2.99923 1.2335 35
-7.35379 -3.04603 0.693324 33
-3.16771 -2.02015 0.195082 9
-0.680089 -0.282645 -0.0368885 49
-0.841389 -0.348988 -0.107397 45
-0.862829 -0.545694 -0.086112 52
-0.839444 -0.347849 -0.169515 44
-0.853253 -0.540375 -0.154649 47
-0.829032 -0.342726 -0.230846 42
-0.845823 -0.536815 -0.222926 44
-7.25611 -2.95678 1.79801 33
-7.24667 -2.9544 1.23116 35
-7.3471 -2.9968 0.691145 33
-0.676936 -0.277197 -0.0366259 49
-0.843265 -0.344431 -0.107397 45
-0.863569 -0.539839 -0.0858946 53
-0.83904 -0.342378 -0.169039 44
-0.85199 -0.533111 -0.153866 47
-0.835291 -0.340195 -0.232139 42
-0.850773 -0.533536 -0.223488 42
-7.25849 -2.94446 1.79745 35
-7.24495 -2.93896 1.22999 35
-7.34309 -2.98023 0.690273 33
-0.682046 -0.277891 -0.0368885 49
-0.846165 -0.343889 -0.107701 45
-0.86451 -0.538331 -0.0858946 53
-0.839636 -0.340913 -0.169039 45
-0.85083 -0.530307 -0.153475 45
-0.833644 -0.337833 -0.231492 44
-0.839344 -0.524246 -0.220119 42
-7.25395 -2.89702 1.7924 32
-7.24648 -2.89549 1.22765 35
-7.34703 -2.93712 0.689184 32
-7.26666 -4.5157 0.446557 1
-0.681173 -0.27339 -0.0367572 49
-0.647562 -0.396976 -0.012653 12
-0.845649 -0.338536 -0.107397 45
-0.867317 -0.533797 -0.0858946 52
-0.836849 -0.334696 -0.168087 45
-0.853504 -0.525994 -0.153475 45
-0.830913 -0.33168 -0.230199 42
-0.844144 -0.521134 -0.22068 42
-7.24944 -2.88202 1.79015 32
-7.24643 -2.88228 1.22686 35
-7.30886 -4.54543 1.66474 39
-7.34289 -2.92061 0.688312 33
-7.41428 -4.59856 1.06545 41
-7.25889 -4.49507 0.445641 1
-0.679329 -0.271279 -0.0366259 49
-0.650379 -0.397161 -0.0126966 12
-0.841566 -0.335377 -0.106788 45
-0.841995 -0.335043 -0.169039 45
-0.850224 -0.5219 -0.152692 45
-0.838228 -0.332893 -0.232139 42
-0.844961 -0.519807 -0.22068 42
-7.25535 -2.84047 1.7879 32
-7.3248 -4.52167 2.29403 36
-7.24533 -2.838 1.22413 29
-7.31923 -4.50066 1.66188 39
-7.35294 -2.88159 0.687877 32
-7.42345 -4.55059 1.06332 39
-7.31426 -4.47657 0.447603 1
-0.68074 -0.267719 -0.0366259 50
-0.641722 -0.387338 -0.0124785 12
-0.841 -0.330063 -0.106484 47
-0.841394 -0.329885 -0.168563 45
-0.848735 -0.514859 -0.151909 44
-0.837652 -0.32777 -0.231492 42
-0.83937 -0.510273 -0.218434 41
-7.31828 -4.50002 2.2895 36
-7.31321 -4.47762 1.65855 39
-7.39539 -4.51562 1.05815 36
-7.30288 -4.45209 0.446426 1
-0.681206 -0.26653 -0.0366259 50
-0.642397 -0.386217 -0.0124785 12
-0.839262 -0.327695 -0.10618 47
-0.857058 -0.51713 -0.0843724 52
-0.839681 -0.327527 -0.168087 45
-0.849633 -0.513377 -0.151909 45
-0.833776 -0.324417 -0.230199 42
-0.842337 -0.510079 -0.218996 44
-7.32602 -4.45031 2.28433 36
-7.31137 -4.42401 1.65283 36
-7.40697 -4.46785 1.05632 35
-7.30976 -4.4022 0.445379 1
-0.677929 -0.261174 -0.0363633 49
-0.644477 -0.382736 -0.0124785 12
-0.841022 -0.32315 -0.10618 45
-0.853355 -0.508778 -0.0837201 52
-0.84144 -0.322979 -0.168087 45
-0.845968 -0.505093 -0.150734 44
-0.833207 -0.319186 -0.229552 42
-0.843 -0.504253 -0.218434 42
-7.31932 -4.42876 2.27981 35
-7.29176 -4.39476 1.64663 32
-3.09674 -1.18277 0.28696 11
-7.40122 -4.44853 1.0545 35
-7.30596 -4.38428 0.444725 1
-0.680717 -0.260879 -0.0364946 50
-0.630142 -0.372606 -0.0121731 12
-0.841529 -0.321828 -0.10618 45
-0.858512 -0.509852 -0.084155 52
-0.839709 -0.320638 -0.16761 44
-0.844732 -0.502343 -0.150343 45
-0.829246 -0.316019 -0.228259 42
-0.839618 -0.500413 -0.217311 42
-7.32299 -4.38049 2.27399 36
-7.21064 -4.29618 1.62328 24
-3.09336 -1.16358 0.286089 12
-7.39668 -4.39323 1.05054 33
-7.3095 -4.3345 0.443547 1
-0.682074 -0.257311 -0.0364946 50
-0.636319 -0.371963 -0.0122603 11
-0.838555 -0.315676 -0.105571 45
-0.856886 -0.502808 -0.0837201 52
-0.836724 -0.314664 -0.166658 45
-0.845228 -0.496652 -0.149951 44
-0.83536 -0.313507 -0.229552 42
-0.838041 -0.493517 -0.216188 41
-7.30781 -4.35409 2.26689 33
-7.21255 -4.27857 1.62185 21
-3.10238 -1.16079 0.286742 2
-7.3894 -4.37146 1.04841 35
-7.31061 -4.31792 0.443155 1
-0.636967 -0.370852 -0.0122603 12
-0.834454 -0.312479 -0.104963 45
-0.855618 -0.500045 -0.0835026 52
-0.839572 -0.314059 -0.167134 45
-0.843969 -0.493919 -0.14956 45
-0.829168 -0.309381 -0.227612 42
-0.840996 -0.493296 -0.21675 42
-7.30837 -4.301 2.25978 30
-7.23485 -4.24075 1.62185 20
-3.11797 -1.14743 0.287614 2
-7.40437 -4.3264 1.04719 35
-7.31661 -4.26823 0.442108 1
-0.630329 -0.36236 -0.0120858 11
-0.843122 -0.310522 -0.105876 45
-0.847471 -0.489279 -0.0824153 50
-0.843563 -0.310356 -0.16761 45
-0.848675 -0.490739 -0.149951 44
-0.830777 -0.305036 -0.227612 44
-0.837347 -0.485044 -0.215065 41
-7.23589 -4.2244 1.62042 15
-3.11529 -1.14028 0.287178 2
-7.39186 -4.30352 1.04446 35
-7.30821 -4.24794 0.441192 1
-0.677258 -0.24878 -0.0361008 50
-0.843609 -0.309197 -0.105876 45
-0.850477 -0.489051 -0.0826328 52
-0.834879 -0.305524 -0.165706 45
-0.847396 -0.488014 -0.14956 47
-0.833578 -0.30441 -0.228259 42
-0.836004 -0.4825 -0.214503 41
-7.25717 -4.18772 1.62042 15
-3.11164 -1.12112 0.286307 2
-7.39709 -4.25485 1.04202 35
-1.70244 -0.613717 0.030978 50
-7.33251 -4.21086 0.441323 1
-0.683207 -0.247038 -0.0363633 50
-0.83821 -0.302261 -0.104963 47
-0.850782 -0.483499 -0.0824153 53
-0.836415 -0.301294 -0.165706 45
-0.84994 -0.483571 -0.14956 47
-0.828286 -0.297747 -0.226319 42
-0.84063 -0.479333 -0.215065 42
-5.80168 -3.34665 1.78288 8
-7.24108 -4.16159 1.61518 14
-3.11594 -1.11653 0.286525 2
-7.38729 -4.23206 1.03959 35
-1.70116 -0.609903 0.0309344 52
-7.32468 -4.18937 0.440407 1
-0.681287 -0.245005 -0.0362321 50
-0.836399 -0.299964 -0.104659 45
-0.851624 -0.482014 -0.0824153 52
-0.83694 -0.299834 -0.165706 45
-0.844356 -0.478403 -0.148385 45
-0.835631 -0.298729 -0.228259 44
-0.835128 -0.474224 -0.21338 42
-5.82332 -3.31863 1.78417 9
-7.2457 -4.11391 1.61136 12
-3.11 -1.09606 0.285435 3
-7.39423 -4.18476 1.03746 35
-1.70433 -0.600988 0.0309344 50
-7.35738 -4.15711 0.441061 1
-0.682602 -0.241315 -0.0362321 50
-0.830934 -0.293115 -0.103746 45
-0.852052 -0.476173 -0.0821979 52
-0.836182 -0.294636 -0.16523 45
-0.851146 -0.476409 -0.149168 47
-0.830345 -0.291957 -0.226319 44
-0.839718 -0.471048 -0.213942 42
-5.8354 -3.31204 1.78611 9
-7.2365 -4.09032 1.60755 12
-3.11896 -1.0931 0.286089 3
-7.38424 -4.16209 1.03503 35
-1.70076 -0.596065 0.0308471 50
-7.3494 -4.13569 0.440145 1
-0.683022 -0.240123 -0.0362321 50
-0.831444 -0.291664 -0.103746 45
-0.850712 -0.473464 -0.0819804 52
-0.836695 -0.293176 -0.16523 45
-0.849826 -0.47371 -0.148777 49
-0.826342 -0.288777 -0.225026 44
-0.840539 -0.469581 -0.213942 44
-7.2471 -4.04639 1.60517 12
-7.39581 -4.11603 1.0335 36
-1.70149 -0.586339 0.0308035 50
-7.36731 -4.09343 0.439884 17
-0.681909 -0.235733 -0.0361008 50
-0.83301 -0.287162 -0.103746 45
-0.851002 -0.467792 -0.081763 52
-0.831304 -0.286258 -0.163801 45
-0.852295 -0.469254 -0.148777 47
-0.832413 -0.286008 -0.226319 44
-0.838813 -0.462652 -0.212819 42
-7.23915 -4.02537 1.60183 12
-7.38925 -4.09718 1.03168 36
-1.70251 -0.583368 0.0308035 50
-7.38246 -4.0867 0.440407 17
-0.679957 -0.233735 -0.0359695 52
-3.20575 -1.76932 -0.0633086 12
-0.828763 -0.28425 -0.103137 45
-0.851817 -0.466306 -0.081763 52
-0.834125 -0.285598 -0.164277 45
-0.848794 -0.46537 -0.147993 47
-0.823765 -0.281447 -0.223733 44
-0.83741 -0.46015 -0.212257 42
-7.30018 -4.02765 2.22165 35
-7.25298 -3.98513 1.6004 12
-7.38885 -4.04651 1.02864 35
-1.7007 -0.573151 0.0307162 50
-7.39281 -4.04199 0.439753 15
-0.678805 -0.229377 -0.0358382 50
-3.19931 -1.74468 -0.0630032 14
-0.832593 -0.280696 -0.103442 47
-0.854247 -0.46184 -0.081763 55
-0.828579 -0.279034 -0.162849 45
-0.840392 -0.454986 -0.146036 45
-0.822888 -0.276508 -0.223086 42
-0.839808 -0.455759 -0.212257 42
-7.29027 -4.00559 2.21648 35
-7.2477 -3.96413 1.59754 12
-7.38065 -4.02528 1.02651 35
-1.7018 -0.569885 0.0307162 50
-7.39328 -4.0255 0.43936 14
-0.681572 -0.228983 -0.0359695 50
-3.1826 -1.72833 -0.0626105 20
-0.830727 -0.278457 -0.103137 47
-0.850678 -0.457965 -0.081328 53
-0.829064 -0.277588 -0.162849 45
-0.841185 -0.453519 -0.146036 47
-0.830293 -0.277211 -0.225026 44
-0.836327 -0.451954 -0.211134 42
-7.30335 -3.96148 2.2139 35
-7.25756 -3.92029 1.59516 12
-7.38922 -3.97822 1.02468 35
-1.70001 -0.559407 0.030629 52
-7.40176 -3.97834 0.438575 14
-0.68039 -0.224633 -0.0358382 52
-3.17209 -1.70043 -0.0622178 27
-0.827505 -0.272414 -0.102529 47
-0.848678 -0.451145 -0.0808931 53
-0.837552 -0.275387 -0.164277 47
-0.839201 -0.446766 -0.145253 45
-0.829438 -0.272111 -0.224379 45
-0.840904 -0.44858 -0.211696 44
-7.29114 -3.93839 2.20808 35
-7.24279 -3.89598 1.59039 12
-7.38671 -3.96191 1.02346 35
-1.69861 -0.555664 0.0305853 52
-7.3992 -3.96199 0.438052 12
-0.678407 -0.222671 -0.035707 52
-3.15522 -1.68427 -0.0618251 32
-0.827932 -0.271114 -0.102529 47
-0.851659 -0.450839 -0.0811106 53
-0.826362 -0.27013 -0.161896 47
-0.839979 -0.4453 -0.145253 45
-0.832208 -0.271408 -0.225026 44
-0.837317 -0.44495 -0.210573 42
-7.30033 -3.89574 2.20485 35
-7.25158 -3.8535 1.58801 12
-7.32728 -2.35258 0.670228 15
-7.38763 -3.91272 1.02073 35
-1.69426 -0.54477 0.0304544 53
-7.40219 -3.91385 0.437005 9
-0.677186 -0.218354 -0.0355757 52
-3.15266 -1.66243 -0.061607 33
-0.836431 -0.269044 -0.103442 47
-0.849605 -0.444045 -0.0806757 53
-0.834732 -0.268185 -0.163325 47
-0.835754 -0.437428 -0.144078 45
-0.835872 -0.267926 -0.225673 45
-0.835332 -0.438274 -0.20945 42
-7.29432 -3.87619 2.20097 33
-6.94988 -2.21678 1.14726 1
-7.24812 -3.83383 1.58563 12
-7.31714 -2.33524 0.66892 15
-7.38347 -3.89402 1.0192 35
-1.69292 -0.540757 0.0304108 52
-7.40239 -3.89743 0.436613 8
-0.675187 -0.216415 -0.0354444 52
-3.15334 -1.65576 -0.0615634 33
-0.825075 -0.263824 -0.10192 49
-0.850379 -0.442561 -0.0806757 53
-0.835198 -0.266728 -0.163325 45
-0.840884 -0.438273 -0.144861 45
-0.827176 -0.263404 -0.223086 45
-0.842556 -0.440233 -0.211134 42
-7.29808 -3.82768 2.1958 35
-7.23752 -2.2654 1.19292 30
-7.24853 -3.78559 1.58134 12
-7.32729 -2.29488 0.668702 21
-7.38463 -3.8437 1.01647 35
-1.7005 -0.533378 0.0304981 53
-7.40343 -3.84695 0.435435 11
-0.676311 -0.212876 -0.0354444 52
-3.15117 -1.63291 -0.0613452 33
-0.831228 -0.260834 -0.102529 49
-0.850475 -0.436953 -0.0804582 53
-0.8296 -0.260015 -0.161896 47
-0.834483 -0.429155 -0.143295 44
-0.833156 -0.260504 -0.224379 45
-0.838447 -0.432286 -0.20945 42
-7.23748 -2.25154 1.73905 38
-7.28549 -3.80486 2.18999 35
-7.16364 -2.22858 1.18004 30
-7.25294 -3.7718 1.58086 14
-7.29799 -2.27173 0.665652 15
-7.37591 -3.8228 1.01434 33
-1.69188 -0.527441 0.0303236 53
-7.3924 -3.82483 0.434388 11
-0.674298 -0.210955 -0.0353131 52
-3.14957 -1.62511 -0.0612579 35
-0.822202 -0.256443 -0.101312 49
-0.855659 -0.437759 -0.0808931 53
-0.830053 -0.258566 -0.161896 49
-0.841806 -0.431108 -0.14447 45
-0.828995 -0.257623 -0.223086 45
-0.841362 -0.431945 -0.210011 42
-7.23092 -2.20667 1.73456 32
-7.29459 -3.76112 2.18676 33
-7.23662 -2.20978 1.19018 26
-7.25732 -3.72592 1.57753 12
-7.31455 -2.23494 0.666088 15
-7.37595 -3.77394 1.0116 35
-1.6994 -0.520034 0.0304108 53
-7.39677 -3.77812 0.433473 9
-0.682557 -0.209606 -0.035707 50
-3.14468 -1.60177 -0.0609962 35
-0.830655 -0.254302 -0.102225 49
-0.851287 -0.429871 -0.0802408 53
-0.831395 -0.254217 -0.161896 45
-0.832989 -0.421214 -0.142512 45
-0.82571 -0.251877 -0.221793 45
-0.839277 -0.425309 -0.208888 42
-7.22272 -2.19177 1.73175 32
-7.28611 -3.74066 2.18223 35
-7.23299 -2.19625 1.18901 26
-7.26162 -3.71213 1.57705 12
-7.31129 -2.22 0.665434 17
-7.37082 -3.75671 1.01008 35
-1.69074 -0.514166 0.0302363 53
-7.3938 -3.76196 0.432949 9
-0.680532 -0.20769 -0.0355757 50
-3.1497 -1.59742 -0.0610398 35
-0.826303 -0.251559 -0.101616 47
-0.854256 -0.429515 -0.0804582 53
-0.827139 -0.251346 -0.160944 47
-0.835923 -0.420881 -0.142904 45
-0.823836 -0.249739 -0.221146 45
-0.835606 -0.421772 -0.207765 42
-7.23643 -2.15462 1.73231 33
-7.28987 -3.69608 2.17771 33
-7.24913 -2.15976 1.18979 26
-7.26499 -3.66757 1.57371 11
-7.32004 -2.18225 0.665216 15
-7.37488 -3.71025 1.00795 35
-1.69092 -0.504889 0.0301927 53
-7.40001 -3.71646 0.432164 9
-0.679182 -0.203531 -0.0354444 50
-0.829988 -0.247936 -0.10192 50
-0.849743 -0.42183 -0.0798059 52
-0.833106 -0.248552 -0.161896 49
-0.833704 -0.414278 -0.142121 45
-0.832037 -0.247621 -0.223086 45
-0.835628 -0.416294 -0.207204 42
-7.22579 -2.1391 1.72894 32
-7.28769 -3.67899 2.17512 33
-7.23868 -2.1429 1.18745 26
-7.26699 -3.65268 1.57276 11
-7.30235 -2.16311 0.663255 14
-7.37025 -3.69181 1.00643 35
-1.6918 -0.501937 0.0301927 53
-7.39532 -3.69795 0.43151 8
-0.672354 -0.200222 -0.0350506 50
-0.820899 -0.243678 -0.100704 49
-0.852705 -0.421461 -0.0800233 53
-0.824122 -0.244322 -0.159992 49
-0.836633 -0.413929 -0.142512 45
-0.820883 -0.242764 -0.219853 45
-0.840707 -0.417022 -0.208327 42
-7.23258 -2.09862 1.72782 33
-7.28524 -3.63 2.16866 33
-7.24269 -2.10291 1.18628 26
-7.27723 -3.61021 1.57085 11
-7.31597 -2.12554 0.663473 14
-7.37614 -3.64657 1.0046 35
-1.6896 -0.491679 0.0301054 55
-7.39668 -3.65033 0.430463 8
-0.678223 -0.197971 -0.0353131 50
-0.829315 -0.241445 -0.101616 49
-0.848274 -0.413533 -0.079371 53
-0.832463 -0.242048 -0.16142 49
-0.83215 -0.406258 -0.141338 47
-0.826784 -0.2398 -0.221146 47
-0.834149 -0.408285 -0.206081 42
-7.21984 -2.08127 1.72389 33
-7.28508 -3.61405 2.16672 35
-7.25109 -2.09163 1.18706 26
-7.27535 -3.59188 1.56895 11
-7.31727 -2.11208 0.663255 12
-7.37136 -3.6282 1.00308 35
-1.68814 -0.487742 0.0300618 55
-7.39184 -3.6319 0.429809 8
-0.676168 -0.196096 -0.0351819 50
-0.820196 -0.237255 -0.100399 49
-0.855699 -0.415348 -0.0800233 52
-0.830526 -0.239917 -0.160944 49
-0.835072 -0.405896 -0.141729 45
-0.822599 -0.236883 -0.219853 47
-0.832676 -0.40575 -0.205519 42
-7.22865 -2.04152 1.72333 33
-7.28718 -3.56608 2.16155 35
-7.25755 -2.05103 1.18628 27
-7.27641 -3.54513 1.56514 9
-7.33578 -2.07449 0.663909 11
-7.3708 -3.5785 1.00034 35
-1.68827 -0.478217 0.0300181 55
-7.39566 -3.58423 0.428893 4
-0.674783 -0.191875 -0.0350506 49
-0.826244 -0.234159 -0.101008 49
-0.844418 -0.404339 -0.0787186 52
-0.829449 -0.234756 -0.160468 49
-0.830524 -0.39828 -0.140555 47
-0.826154 -0.233225 -0.2205 47
-0.834859 -0.401239 -0.205519 41
-7.22716 -2.02885 1.7222 33
-7.28037 -3.547 2.15768 36
-7.24887 -2.03629 1.18433 26
-7.27596 -3.52921 1.56371 9
-7.36748 -3.56259 0.999125 33
-1.6891 -0.475269 0.0300181 53
-7.38779 -3.56609 0.428108 4
-0.677521 -0.191371 -0.0351819 50
-0.826611 -0.232861 -0.101008 50
-0.845122 -0.402865 -0.0787186 52
-0.829858 -0.233308 -0.160468 50
-0.835663 -0.398981 -0.141338 47
-0.82656 -0.231783 -0.2205 47
-0.835489 -0.399927 -0.205519 42
-7.22829 -1.98839 1.71996 33
-7.283 -3.50277 2.15315 35
-7.26658 -2.00027 1.1855 27
-7.29373 -3.49234 1.56371 9
-7.36588 -3.51434 0.996387 36
-1.68666 -0.465388 0.0299309 55
-0.676106 -0.18716 -0.0350506 50
-0.823033 -0.227217 -0.100399 49
-0.851717 -0.400577 -0.0791535 52
-0.831028 -0.229104 -0.160468 50
-0.828828 -0.390345 -0.139772 45
-0.825392 -0.22696 -0.219853 47
-0.830979 -0.392391 -0.203834 42
-7.22 -1.97257 1.71715 33
-7.27604 -3.48379 2.14928 35
-7.25815 -1.98433 1.18355 27
-7.28492 -3.47093 1.56037 9
-7.36752 -3.49934 0.995778 35
-1.68755 -0.462149 0.0299309 53
-0.674023 -0.185322 -0.0349193 50
-0.821034 -0.225128 -0.100095 50
-0.845664 -0.395888 -0.0785011 52
-0.821954 -0.225077 -0.158563 49
-0.827278 -0.387838 -0.13938 47
-0.828157 -0.226007 -0.2205 47
-0.831663 -0.39094 -0.203834 42
-7.21644 -1.9297 1.71378 32
-7.2795 -3.43714 2.14475 35
-7.27355 -1.94631 1.18433 29
-7.29189 -3.42751 1.55799 11
-7.36163 -3.44784 0.992432 33
-1.68512 -0.452016 0.0298436 55
-0.677396 -0.182435 -0.0350506 52
-0.82224 -0.220683 -0.100095 50
-0.847725 -0.391454 -0.0785011 52
-0.827903 -0.221889 -0.159516 50
-0.827128 -0.382308 -0.138989 47
-0.82933 -0.221668 -0.2205 47
-0.831561 -0.385399 -0.203273 42
-7.21476 -1.91711 1.71266 33
-7.27674 -3.42032 2.14217 33
-7.26739 -1.93107 1.18277 29
-7.29342 -3.4127 1.55703 11
-7.36314 -3.43289 0.991823 33
-1.68591 -0.449074 0.0298436 55
-0.675301 -0.180612 -0.0349193 52
-0.827422 -0.220517 -0.100704 50
-0.843892 -0.387871 -0.0780662 53
-0.828289 -0.220444 -0.159516 50
-0.823319 -0.378776 -0.138206 45
-0.825045 -0.218989 -0.219206 47
-0.830026 -0.382915 -0.202711 42
-7.22031 -1.87682 1.71154 33
-7.27703 -3.37403 2.137 33
-7.27501 -1.89238 1.18238 30
-7.29114 -3.36519 1.55274 11
-7.36299 -3.38598 0.989389 35
-1.68582 -0.439611 0.0298 55
-0.673821 -0.176446 -0.034788 53
-0.828565 -0.216182 -0.100704 50
-0.843648 -0.382407 -0.0778488 53
-0.829432 -0.216104 -0.159516 50
-0.827468 -0.375637 -0.138597 47
-0.828518 -0.215269 -0.219853 47
-0.823171 -0.374481 -0.200465 44
-7.21145 -1.86244 1.70873 33
-7.26756 -3.35423 2.13248 35
-7.27797 -1.88095 1.18238 30
-7.29031 -3.34939 1.55131 12
-7.35476 -3.3682 0.987564 35
-1.68174 -0.435419 0.0297127 55
-0.674128 -0.17527 -0.034788 53
-0.824098 -0.213643 -0.100095 50
-0.844315 -0.380934 -0.0778488 53
-0.825053 -0.213434 -0.158563 50
-0.832612 -0.376249 -0.13938 47
-0.826554 -0.213223 -0.219206 47
-0.830399 -0.376239 -0.20215 42
-7.21638 -1.82346 1.7076 33
-7.27785 -3.3144 2.13054 36
-7.28293 -1.8416 1.1816 29
-7.28929 -3.30433 1.5475 14
-7.36326 -3.32556 0.986347 33
-1.68635 -0.427514 0.0297564 55
-0.675036 -0.171738 -0.034788 53
-2.06371 -0.925694 -0.0388752 4
-0.825205 -0.209325 -0.100095 50
-0.846298 -0.376508 -0.0778488 53
-0.828503 -0.209854 -0.159039 50
-0.830071 -0.369851 -0.138597 49
-0.82528 -0.20845 -0.21856 47
-0.830139 -0.37088 -0.201588 42
-7.20774 -1.8079 1.7048 33
-7.26823 -3.2947 2.12601 35
-7.28135 -1.82769 1.18082 30
-7.2755 -3.28123 1.54321 14
-7.32131 -1.83906 0.657372 11
-7.35095 -3.30455 0.983913 33
-1.68959 -0.424883 0.0298 56
-0.677757 -0.171166 -0.0349193 53
-2.06989 -0.924138 -0.0389625 4
-0.825569 -0.207884 -0.100095 50
-0.842409 -0.37299 -0.0774139 53
-0.828868 -0.208408 -0.159039 50
-0.828463 -0.367389 -0.138206 47
-0.828022 -0.207448 -0.219206 47
-0.828564 -0.368429 -0.201027 42
-7.21741 -1.76888 1.7048 33
-7.27714 -3.25139 2.12343 36
-7.28633 -1.78709 1.18004 32
-7.27464 -3.2351 1.5394 21
-7.29245 -1.78992 0.653886 14
-7.35738 -3.2597 0.982392 35
-1.68451 -0.414246 0.0296691 56
-0.673794 -0.166427 -0.0346568 55
-2.08628 -0.917983 -0.0391806 4
-0.821861 -0.202237 -0.0994866 50
-0.844351 -0.368574 -0.0774139 53
-0.825215 -0.202757 -0.158087 50
-0.828118 -0.362045 -0.137814 49
-0.82675 -0.202539 -0.21856 47
-0.826093 -0.361961 -0.199904 44
-7.21308 -1.75581 1.70311 33
-7.26956 -3.23278 2.11955 35
-7.29153 -1.77623 1.18043 32
-7.2713 -3.21842 1.53749 35
-7.29556 -1.77719 0.653886 18
-7.35341 -3.24412 0.981175 33
-1.68766 -0.411896 0.0297127 56
-0.674083 -0.165251 -0.0346568 53
-2.08788 -0.914341 -0.0391806 4
-0.824589 -0.20153 -0.0997908 50
-0.842714 -0.366096 -0.0771964 53
-0.827953 -0.201894 -0.158563 50
-0.828749 -0.360599 -0.137814 49
-0.824755 -0.200529 -0.217913 47
-0.824434 -0.359677 -0.199342 42
-7.21981 -1.71746 1.70255 35
-7.27699 -3.19206 2.11697 35
-7.29352 -1.73631 1.17926 32
-7.26502 -3.17175 1.53273 35
-7.30931 -1.7414 0.654322 20
-7.35665 -3.19963 0.979349 33
-1.68486 -0.402192 0.0296255 55
-0.672482 -0.16126 -0.0345255 53
-2.10166 -0.907745 -0.0393552 4
-0.820804 -0.196065 -0.0991823 50
-0.844556 -0.361826 -0.0771964 53
-0.826576 -0.197135 -0.158087 50
-0.830626 -0.356254 -0.137814 49
-0.82811 -0.196907 -0.21856 47
-0.828538 -0.35633 -0.199904 44
-7.21301 -1.70387 1.7003 35
-7.26264 -3.17065 2.11115 35
-7.29654 -1.72358 1.17926 33
-7.26379 -3.15612 1.5313 35
-7.29295 -1.72406 0.652579 21
-7.35084 -3.18185 0.977828 33
-1.68556 -0.399251 0.0296255 58
-3.14521 -1.35584 0.177681 3
-0.672763 -0.160086 -0.0345255 53
-2.10094 -0.903084 -0.0393115 4
-0.821145 -0.194632 -0.0991823 50
-0.845186 -0.360351 -0.0771964 53
-0.831697 -0.196815 -0.159039 50
-0.831246 -0.354804 -0.137814 47
-0.826101 -0.19491 -0.217913 47
-0.829159 -0.354883 -0.199904 42
-7.21263 -1.66264 1.69806 35
-7.27027 -3.12875 2.10857 33
-7.30065 -1.68424 1.17848 32
-7.26894 -3.11321 1.52891 35
-7.3043 -1.68641 0.652797 17
-7.34686 -3.13454 0.97509 32
-1.68762 -0.39042 0.0296255 56
-0.678485 -0.157563 -0.034788 53
-0.819734 -0.189774 -0.0988781 53
-0.842541 -0.35382 -0.0767615 53
-0.82554 -0.190811 -0.157611 50
-0.828551 -0.348508 -0.137031 49
-0.822402 -0.189506 -0.21662 47
-0.824287 -0.34766 -0.198219 44
-7.21315 -1.6495 1.6975 33
-7.2624 -3.11035 2.10469 33
-7.30118 -1.67094 1.17809 32
-7.25684 -3.09154 1.5251 33
-7.29024 -1.66977 0.651271 17
-7.34318 -3.11783 0.973873 32
-1.68837 -0.387179 0.0296255 56
-0.671457 -0.154712 -0.0343942 53
-0.822483 -0.188895 -0.0991823 50
-0.843157 -0.352349 -0.0767615 53
-0.825872 -0.18937 -0.157611 50
-0.829158 -0.347061 -0.137031 47
-0.822764 -0.187926 -0.21662 47
-0.827134 -0.347176 -0.198781 44
-7.21483 -1.60886 1.69581 33
-7.268 -3.06631 2.10146 33
-7.30288 -1.6298 1.17692 33
-7.2571 -3.04684 1.52177 33
-7.29674 -1.62976 0.651053 15
-7.35079 -3.07422 0.972656 33
-1.68305 -0.376702 0.0294946 58
-0.672258 -0.151194 -0.0343942 55
-0.818649 -0.183365 -0.0985738 50
-0.842693 -0.346969 -0.076544 53
-0.826884 -0.184899 -0.157611 50
-0.828746 -0.341617 -0.136639 47
-0.821379 -0.183094 -0.215973 49
-0.822261 -0.339867 -0.197096 44
-7.21021 -1.59595 1.69413 35
-7.25998 -3.048 2.09758 33
-7.06219 -1.5632 1.1375 1
-7.24882 -3.02849 1.51891 33
-7.28741 -1.61433 0.649964 15
-7.3424 -3.05566 0.970831 33
-1.68127 -0.373224 0.0294509 56
-0.670083 -0.149482 -0.0342629 55
-0.826237 -0.183539 -0.0994866 52
-0.845596 -0.346454 -0.0767615 53
-0.824809 -0.182928 -0.157135 50
-0.824782 -0.338271 -0.135856 47
-0.824056 -0.182178 -0.21662 47
-0.820605 -0.337493 -0.196535 44
-7.20656 -1.55561 1.69132 33
-7.26193 -3.00566 2.0937 33
-7.30415 -1.57797 1.17536 33
-7.25044 -2.98614 1.51605 33
-7.30279 -1.579 0.650618 15
-7.3463 -3.01374 0.969309 33
-1.68802 -0.365764 0.0295382 56
-0.670856 -0.145971 -0.0342629 53
-0.822304 -0.178311 -0.0988781 50
-0.845094 -0.341078 -0.076544 53
-0.823325 -0.178236 -0.156659 50
-0.828768 -0.33503 -0.136248 47
-0.827329 -0.17851 -0.217266 50
-0.822303 -0.333335 -0.196535 42
-7.19974 -1.54099 1.68907 35
-7.256 -2.98838 2.09047 35
-7.29965 -1.56367 1.17418 35
-7.24935 -2.96942 1.51462 33
-7.29579 -1.56417 0.649746 15
-7.34466 -2.9981 0.968397 32
-1.68383 -0.361477 0.0294509 58
-0.67111 -0.1448 -0.0342629 55
-0.820187 -0.176358 -0.0985738 50
-0.843382 -0.338662 -0.0763266 53
-0.821234 -0.176287 -0.156182 50
-0.824779 -0.331716 -0.135465 47
-0.820583 -0.175419 -0.215327 47
-0.818375 -0.330052 -0.195412 42
-7.2032 -1.50102 1.68795 33
-7.26535 -2.94635 2.08853 33
-7.30317 -1.52315 1.1734 35
-7.2648 -2.93143 1.51462 35
-7.30659 -1.52518 0.649964 17
-7.34466 -2.95183 0.966267 32
-1.68326 -0.352146 0.0294073 58
-0.674303 -0.141793 -0.0343942 55
-0.825988 -0.172926 -0.0991823 53
-0.83821 -0.331457 -0.0756742 55
-0.829385 -0.173336 -0.157611 50
-0.828796 -0.328314 -0.135856 47
-0.828585 -0.172585 -0.217266 50
-0.81789 -0.324708 -0.19485 41
-7.19601 -1.48773 1.6857 33
-7.26153 -2.93005 2.08595 35
-7.04196 -1.45718 1.13087 1
-7.2608 -2.91508 1.51271 36
-7.29217 -1.5089 0.648439 20
-7.34698 -2.93936 0.965963 32
-1.67408 -0.347185 0.0292328 55
-0.66966 -0.139607 -0.0341317 53
-0.826259 -0.171629 -0.0991823 52
-0.8411 -0.330918 -0.0758917 55
-0.820071 -0.169912 -0.155706 50
-0.83166 -0.327785 -0.136248 49
-0.826519 -0.170654 -0.21662 47
-0.82292 -0.325238 -0.195973 39
-7.20131 -1.44955 1.68514 35
-7.26954 -2.89057 2.08401 33
-7.05434 -1.42127 1.13165 1
-7.25949 -2.87196 1.50937 35
-7.29971 -1.47197 0.648439 26
-7.34381 -2.89356 0.963529 29
-1.68071 -0.339694 0.02932 55
-0.670358 -0.136216 -0.0341317 53
-0.827146 -0.1673 -0.0991823 53
-0.840447 -0.325744 -0.0756742 53
-0.823327 -0.166241 -0.156182 52
-0.828771 -0.321615 -0.135465 47
-0.822636 -0.165524 -0.215327 50
-0.820081 -0.319133 -0.19485 39
-7.19163 -1.43586 1.68234 35
-7.26559 -2.87432 2.08143 33
-7.03986 -1.40557 1.12892 1
-7.29738 -1.45825 0.648003 33
-1.67885 -0.336271 0.0292764 58
-0.665698 -0.13407 -0.0338691 53
-0.827437 -0.165856 -0.0991823 53
-0.845652 -0.326093 -0.0761091 53
-0.821208 -0.164326 -0.155706 50
-0.829331 -0.320168 -0.135465 47
-0.820554 -0.16362 -0.21468 47
-0.820637 -0.317701 -0.19485 41
-7.1993 -1.39693 1.68234 35
-7.04227 -1.36775 1.12814 1
-7.03599 -1.36779 0.624035 1
-1.67814 -0.327 0.0292328 56
-1.70175 -0.651523 0.0936814 27
-0.668864 -0.130941 -0.0340004 53
-0.828294 -0.161521 -0.0991823 53
-0.842757 -0.319722 -0.0756742 52
-0.824467 -0.160489 -0.156182 52
-0.826389 -0.314041 -0.134682 47
-0.823771 -0.159777 -0.215327 50
-0.817746 -0.31164 -0.193727 42
-7.20172 -1.38436 1.68234 36
-7.03495 -1.35359 1.12658 1
-3.15688 -1.21358 0.650074 9
-7.02858 -1.35363 0.623164 1
-3.08653 -1.18214 0.400989 11
-1.67385 -0.322835 0.0291455 59
-1.71221 -0.65213 0.0942047 47
-0.661736 -0.128362 -0.0336066 53
-1.70281 -0.647849 -0.0311962 39
-0.828575 -0.160076 -0.0991823 53
-0.840988 -0.317358 -0.0754568 53
-0.819925 -0.158129 -0.15523 50
-0.829241 -0.313484 -0.135073 47
-0.814587 -0.15639 -0.21274 47
-0.818288 -0.310212 -0.193727 42
-7.20432 -1.34448 1.68121 36
-7.03246 -1.3137 1.12502 1
-3.14713 -1.19094 0.646738 2
-7.03091 -1.31467 0.622728 1
-3.12073 -1.17596 0.40464 11
-1.67798 -0.314525 0.0291891 59
-0.667308 -0.125811 -0.0338691 55
-1.70629 -0.638626 -0.0311962 53
-0.826989 -0.155137 -0.0988781 53
-0.842638 -0.312951 -0.0754568 53
-0.825594 -0.154585 -0.156182 50
-0.826305 -0.307247 -0.13429 47
-0.820144 -0.153001 -0.214033 50
-0.815399 -0.304052 -0.192604 42
-7.20163 -1.33228 1.68009 36
-7.0226 -1.29918 1.12307 1
-3.16298 -1.19065 0.649598 2
-7.28543 -1.34905 0.64517 35
-3.12742 -1.17226 0.405248 2
-1.67606 -0.311141 0.0291455 58
-0.665071 -0.124192 -0.0337378 53
-0.824818 -0.153244 -0.0985738 53
-0.845515 -0.312355 -0.0756742 53
-0.818621 -0.151814 -0.154754 50
-0.831463 -0.307542 -0.135073 49
-0.813284 -0.150265 -0.212093 47
-0.822767 -0.305209 -0.194288 42
-7.20394 -1.29243 1.67897 35
-7.03417 -1.26326 1.12385 1
-3.15307 -1.16808 0.646262 2
-7.02766 -1.26335 0.621638 1
-3.13119 -1.15501 0.404944 3
-1.67521 -0.30192 0.0291019 59
-1.70142 -0.623937 0.093158 47
-0.66817 -0.121149 -0.0338691 53
-0.825609 -0.148923 -0.0985738 53
-0.842466 -0.306197 -0.0752393 53
-0.826653 -0.148818 -0.156182 50
-0.828378 -0.301615 -0.13429 47
-0.818815 -0.146849 -0.213387 47
-0.817502 -0.298353 -0.192604 42
-7.19157 -1.27856 1.6756 35
-7.02399 -1.25005 1.12189 1
-3.14359 -1.15832 0.643879 2
-7.01514 -1.24847 0.620331 1
-3.12136 -1.14579 0.403423 11
-1.67327 -0.298559 0.0290583 62
-1.70943 -0.62385 0.0935505 45
-0.665922 -0.119546 -0.0337378 55
-1.70476 -0.621126 -0.0310653 50
-0.816068 -0.145896 -0.0973569 50
-0.842999 -0.304726 -0.0752393 53
-0.826586 -0.299316 -0.133899 47
-0.816691 -0.145002 -0.21274 47
-0.82254 -0.298757 -0.193727 44
-7.20056 -1.2413 1.67616 35
-7.03287 -1.21368 1.12228 1
-3.1425 -1.13987 0.642449 2
-7.02628 -1.21379 0.620767 1
-3.12498 -1.12859 0.403118 2
-1.67969 -0.290935 0.0291455 44
-1.70093 -0.610642 0.0928963 47
-0.668999 -0.116481 -0.0338691 55
-1.69848 -0.60909 -0.0308908 50
-0.819267 -0.142041 -0.0976611 50
-0.839899 -0.298614 -0.0748044 53
-0.828142 -0.294983 -0.133899 47
-0.819795 -0.141272 -0.213387 47
-0.817224 -0.291949 -0.192042 45
-7.19792 -1.22791 1.67504 35
-7.03011 -1.20057 1.1215 1
-3.13314 -1.12966 0.640066 2
-7.04066 -1.20362 0.621856 1
-3.12695 -1.12313 0.403118 2
-1.68024 -0.28771 0.0291455 14
-1.7067 -0.609364 0.093158 47
-0.664279 -0.114476 -0.0336066 53
-1.70424 -0.607816 -0.030978 52
-0.819513 -0.14061 -0.0976611 50
-0.840419 -0.297148 -0.0748044 53
-0.820637 -0.140513 -0.154754 50
-0.830978 -0.294375 -0.13429 47
-0.815302 -0.138895 -0.212093 47
-0.817733 -0.290522 -0.192042 45
-7.19484 -1.18737 1.67279 35
-7.02432 -1.16051 1.11955 1
-3.13208 -1.11076 0.638636 2
-7.0569 -1.16714 0.622728 1
-3.09322 -1.09209 0.397946 2
-1.69899 -0.281757 0.0294509 12
-1.70291 -0.597622 0.0927655 49
-0.667333 -0.111402 -0.0337378 53
-1.69572 -0.594421 -0.0307599 52
-0.820262 -0.136174 -0.0976611 53
-0.839615 -0.291913 -0.074587 53
-0.821385 -0.136071 -0.154754 52
-0.823199 -0.28672 -0.132724 49
-0.820785 -0.135402 -0.213387 47
-0.814702 -0.284461 -0.190919 45
-7.2015 -1.17685 1.67391 35
-7.0237 -1.14907 1.11916 1
-7.28997 -1.19257 0.643209 32
-3.09961 -1.08889 0.398555 2
-1.70149 -0.594117 0.0926346 50
-0.665062 -0.109835 -0.0336066 55
-1.69676 -0.59146 -0.0307599 52
-0.820475 -0.134886 -0.0976611 53
-0.837774 -0.289621 -0.0743695 53
-0.816776 -0.133851 -0.153802 50
-0.828356 -0.286924 -0.133507 47
-0.825788 -0.134739 -0.21468 50
-0.815148 -0.283181 -0.190919 45
-7.20035 -1.13799 1.67223 36
-7.0223 -1.11113 1.11799 1
-7.28115 -1.15332 0.641902 36
-3.09355 -1.06857 0.397034 2
-1.69986 -0.583566 0.092373 49
-0.663162 -0.105963 -0.0334753 55
-1.69973 -0.582865 -0.0307599 52
-0.826073 -0.131359 -0.0982696 53
-0.839279 -0.28523 -0.0743695 53
-0.819868 -0.130096 -0.154278 52
-0.825181 -0.280966 -0.132724 47
-0.816916 -0.129067 -0.212093 49
-0.812017 -0.277309 -0.189796 42
-7.19029 -1.12354 1.66942 35
-7.3048 -1.1427 1.16287 41
-7.29053 -1.14177 0.642556 32
-3.10948 -1.06803 0.398859 3
-1.69615 -0.578973 0.0921113 49
-0.665813 -0.10519 -0.0336066 58
-1.69602 -0.578271 -0.0306726 53
-0.823849 -0.129536 -0.0979654 53
-0.830355 -0.280525 -0.0734997 53
-0.820093 -0.128665 -0.154278 52
-0.821001 -0.277916 -0.131941 47
-0.819549 -0.127866 -0.21274 50
-0.817105 -0.277484 -0.190919 45
-7.22035 -1.08825 1.67504 29
-7.30111 -1.10169 1.16131 41
-7.28429 -1.10045 0.641466 29
-3.14107 -1.05996 0.402206 3
-1.69926 -0.569788 0.0921113 47
-0.661417 -0.100959 -0.033344 56
-1.69675 -0.568286 -0.030629 53
-0.824538 -0.125077 -0.0979654 53
-0.836531 -0.277769 -0.0739346 53
-0.825632 -0.124952 -0.15523 52
-0.822493 -0.27347 -0.131941 49
-0.822596 -0.123929 -0.213387 50
-0.813981 -0.271491 -0.189796 44
-7.1329 -1.06363 1.65426 14
-7.30302 -1.08895 1.16131 41
-7.01771 -1.0477 0.617716 1
-1.69789 -0.566025 0.0919804 49
-0.661592 -0.0998042 -0.033344 56
-1.69537 -0.564528 -0.0305853 53
-0.824755 -0.123637 -0.0979654 53
-0.837015 -0.276308 -0.0739346 53
-0.818565 -0.122434 -0.153802 52
-0.822969 -0.272034 -0.131941 47
-0.820422 -0.122142 -0.21274 50
-0.812146 -0.26929 -0.189235 45
-7.07103 -1.01534 1.63854 24
-7.02508 -1.00999 1.11604 1
-7.01324 -1.00952 0.616845 1
-1.69609 -0.55556 0.0917188 49
-0.664577 -0.0966932 -0.0334753 56
-1.69118 -0.553293 -0.0304544 52
-0.822934 -0.118966 -0.0976611 53
-0.831355 -0.269578 -0.0732822 53
-0.819195 -0.118146 -0.153802 50
-0.826679 -0.268641 -0.132333 47
-0.818659 -0.117505 -0.212093 49
-0.815857 -0.265802 -0.189796 45
-7.06538 -1.0032 1.63685 26
-7.02177 -0.998257 1.11526 1
-7.00512 -0.995881 0.615973 1
-1.69458 -0.552116 0.0915879 49
-0.662273 -0.0951831 -0.033344 55
-1.6969 -0.551899 -0.0305417 53
-0.82312 -0.117673 -0.0976611 53
-0.831825 -0.268127 -0.0732822 55
-0.824261 -0.1174 -0.154754 52
-0.820111 -0.264882 -0.131158 49
-0.821254 -0.116411 -0.21274 49
-0.81396 -0.263756 -0.189235 45
-7.07536 -0.966853 1.63798 26
-7.30092 -0.998917 1.15897 41
-7.00267 -0.9594 0.61532 1
-7.05774 -2.27998 0.905115 1
-1.69983 -0.544003 0.0917188 49
-0.667693 -0.0925048 -0.0336066 55
-1.69491 -0.541768 -0.0304544 53
-0.821266 -0.113028 -0.0973569 53
-0.830801 -0.263148 -0.0730648 53
-0.822412 -0.112897 -0.154278 52
-0.821486 -0.260584 -0.131158 47
-0.821833 -0.112253 -0.21274 50
-0.810695 -0.257986 -0.188112 44
-7.06963 -0.954761 1.63629 26
-7.01878 -0.947892 1.1137 1
-6.94633 -2.2412 1.41072 1
-7.00434 -0.947177 0.61532 1
-7.3428 -2.35813 0.941319 36
-3.11113 -0.420934 0.0541897 35
-1.6984 -0.540272 0.0915879 50
-0.66538 -0.0910061 -0.0334753 55
-1.69347 -0.538046 -0.0304108 52
-0.819003 -0.111264 -0.0970526 53
-0.831259 -0.261698 -0.0730648 53
-0.817743 -0.110811 -0.153325 52
-0.819589 -0.258394 -0.130767 49
-0.822028 -0.110818 -0.21274 50
-0.811144 -0.256571 -0.188112 44
-7.07727 -0.915574 1.63685 26
-6.97306 -2.22159 1.94895 1
-7.02136 -0.909586 1.11331 1
-7.23671 -2.29193 1.46743 44
-7.00936 -0.909266 0.61532 1
-7.33888 -2.31313 0.93919 41
-3.11336 -0.404095 0.0541897 30
-1.7013 -0.531075 0.0915879 50
-0.668338 -0.0877246 -0.0336066 55
-1.69636 -0.528876 -0.0304108 53
-0.819593 -0.106832 -0.0970526 53
-0.835038 -0.257945 -0.0732822 53
-0.815896 -0.106073 -0.152849 50
-0.820931 -0.254099 -0.130767 49
-0.825011 -0.106675 -0.213387 50
-0.812521 -0.252178 -0.188112 44
-7.07145 -0.903531 1.63517 26
-6.99073 -2.2138 1.95283 1
-7.01298 -0.897304 1.11175 1
-7.23836 -2.27856 1.46696 38
-7.00846 -0.896715 0.615102 1
-7.3212 -2.29491 0.936451 32
-3.11407 -0.398661 0.0541897 18
-1.69975 -0.527655 0.0914571 50
-0.663537 -0.085927 -0.033344 55
-1.69728 -0.525914 -0.0304108 55
-0.822221 -0.105857 -0.0973569 55
-0.828357 -0.254255 -0.0726299 53
-0.82095 -0.105264 -0.153802 52
-0.826085 -0.254144 -0.13155 49
-0.820403 -0.104632 -0.212093 50
-0.808269 -0.249438 -0.186989 44
-7.06641 -0.865311 1.63292 26
