# .PCD v0.7 - Point Cloud Data file format
VERSION 0.7
FIELDS x y z intensity
SIZE 4 4 4 4
TYPE F F F F
COUNT 1 1 1 1
WIDTH 1648
HEIGHT 1
VIEWPOINT 0 0 0 1 0 0 0
POINTS 1648
DATA ascii
3.45552 -1.6086 0.733478 52
3.42156 -2.40391 0.362786 21
3.45337 -1.6127 0.463054 59
1.62394 -1.1409 0.0340322 50
2.07705 -1.46025 -0.131669 45
2.21516 -1.03916 -0.0421039 45
2.07631 -1.4608 -0.306978 45
2.22525 -1.04388 -0.211583 45
2.98616 -2.10323 -0.701868 15
2.22726 -1.04296 -0.38447 45
2.22321 -1.03829 -0.557597 47
3.36965 -2.3965 0.94505 11
3.44564 -1.61873 1.00937 59
3.24663 -2.3081 0.623969 30
3.45149 -1.62876 0.734432 59
3.41662 -2.42816 0.363657 20
3.44684 -1.63242 0.463358 56
1.61591 -1.14794 0.0339886 50
2.07141 -1.47255 -0.131801 45
2.21628 -1.05434 -0.0422348 45
2.07242 -1.4749 -0.307587 47
2.21976 -1.05552 -0.211583 45
3.0087 -2.14358 -0.709963 15
2.22623 -1.05672 -0.385253 47
2.21977 -1.05134 -0.558158 45
3.37976 -2.4117 0.948981 11
3.44281 -1.62474 1.00937 59
3.38369 -2.41362 0.651284 11
3.45752 -1.63897 0.736338 59
3.42049 -2.43991 0.364529 20
3.451 -1.64102 0.464271 52
1.61187 -1.14931 0.0339449 52
2.07087 -1.47762 -0.131932 45
2.2167 -1.05928 -0.0422784 45
2.07616 -1.48248 -0.3085 47
2.22466 -1.0626 -0.212236 45
2.22662 -1.06166 -0.385644 45
2.22472 -1.05795 -0.559843 47
3.37499 -2.43507 0.951227 11
3.44327 -1.6463 1.01196 58
3.38101 -2.43853 0.653235 11
3.45139 -1.65751 0.736815 50
3.41416 -2.46156 0.365183 21
3.45354 -1.66444 0.465792 59
1.60401 -1.15599 0.0339013 52
2.0712 -1.49429 -0.132457 44
2.21581 -1.07265 -0.0423657 45
2.07641 -1.49914 -0.309717 47
2.22131 -1.07532 -0.212453 45
2.66196 -1.9238 -0.630444 39
2.22548 -1.07544 -0.386427 47
2.22574 -1.07274 -0.561527 49
3.38257 -2.44953 0.954596 11
3.44474 -1.65439 1.01325 58
3.39075 -2.45457 0.655967 11
3.45705 -1.66839 0.738721 56
3.41994 -2.47482 0.366272 20
3.45286 -1.67154 0.466096 59
1.60381 -1.16053 0.0339449 52
2.07061 -1.49937 -0.132588 45
2.21618 -1.07761 -0.0424093 45
2.07982 -1.50714 -0.310629 45
2.22167 -1.08028 -0.212671 45
2.68839 -1.95007 -0.637586 39
2.22582 -1.0804 -0.386819 45
2.22167 -1.07557 -0.560966 47
3.36927 -2.4678 0.954596 11
3.44009 -1.67511 1.01454 58
3.38937 -2.48164 0.658308 11
3.45268 -1.68862 0.739674 59
3.41253 -2.4977 0.366926 15
3.44823 -1.69238 0.466705 58
1.59771 -1.16891 0.0339449 52
2.06877 -1.51462 -0.132982 44
2.21705 -1.09288 -0.0425402 45
2.06963 -1.5169 -0.310325 45
2.22269 -1.09518 -0.213323 45
2.62439 -1.92536 -0.62473 30
2.22679 -1.09529 -0.387993 45
2.218 -1.08864 -0.561527 45
3.3752 -2.4803 0.957404 11
3.44367 -1.68429 1.01648 56
3.38746 -2.48842 0.658698 11
3.45634 -1.69788 0.741104 59
3.43666 -1.69342 0.465488 58
1.59567 -1.1717 0.0339449 52
2.07216 -1.52266 -0.133376 44
2.21739 -1.09786 -0.0425839 44
2.07724 -1.52751 -0.311846 45
2.22525 -1.10126 -0.213758 45
2.60719 -1.91975 -0.621396 29
2.22709 -1.10027 -0.388385 45
2.22067 -1.09427 -0.56265 45
3.36412 -2.49939 0.957966 11
3.44376 -1.70598 1.01906 58
3.38033 -2.51054 0.659869 11
3.4521 -1.71753 0.742057 62
3.43885 -1.71691 0.467009 58
1.58771 -1.17827 0.0339013 52
2.06416 -1.53349 -0.133376 44
2.21851 -1.11241 -0.0427148 44
2.0712 -1.53984 -0.312151 44
2.22391 -1.11512 -0.214193 45
2.23235 -1.11742 -0.390343 45
2.22582 -1.1113 -0.565458 47
3.37537 -2.51692 0.962458 11
3.44511 -1.71413 1.02036 56
3.38584 -2.52382 0.66182 11
3.45318 -1.72635 0.74301 61
3.44029 -1.72513 0.467617 58
1.58945 -1.18431 0.0339886 47
3.45546 -1.73571 0.200839 53
2.07348 -1.54605 -0.134164 44
2.21657 -1.11629 -0.0427148 44
2.0705 -1.54494 -0.312455 45
2.22641 -1.12123 -0.214628 45
2.22818 -1.12021 -0.389951 45
2.22387 -1.11519 -0.565458 45
3.36365 -2.53661 0.963019 11
3.43794 -1.73383 1.021 58
3.37411 -2.54359 0.662211 11
3.44629 -1.74551 0.743487 61
3.43976 -1.74821 0.468834 58
1.59121 -1.19864 0.0341631 42
3.44824 -1.75551 0.20097 53
2.07333 -1.5629 -0.134689 44
2.20604 -1.126 -0.0426275 39
2.07399 -1.56509 -0.31428 45
2.22273 -1.134 -0.214845 45
1.72998 -1.30615 -0.413788 21
2.22449 -1.13298 -0.390343 45
1.74035 -1.31587 -0.574851 49
2.21998 -1.1283 -0.56602 47
3.36549 -2.5463 0.964704 11
3.44138 -1.74309 1.02294 58
3.37404 -2.55187 0.662991 11
3.4498 -1.75485 0.744917 59
3.43922 -1.75473 0.469139 58
1.5931 -1.20443 0.0342503 41
3.43658 -1.75639 0.200447 44
2.0706 -1.56652 -0.134689 44
2.20852 -1.13212 -0.0427148 23
2.22518 -1.14014 -0.21528 45
1.71792 -1.30175 -0.411407 21
2.22911 -1.14022 -0.391517 45
1.73421 -1.31599 -0.573557 50
2.22255 -1.13399 -0.567143 45
3.36372 -2.57277 0.968073 11
3.43896 -1.76379 1.02488 58
3.3724 -2.5785 0.665332 11
3.44524 -1.77453 0.74587 61
3.44322 -1.77954 0.470964 59
1.59294 -1.21703 0.0343812 41
3.4473 -1.78467 0.201624 50
2.0703 -1.58341 -0.135214 45
2.21164 -1.14787 -0.0428893 36
2.2214 -1.15292 -0.215498 45
1.70547 -1.30594 -0.409979 21
2.22531 -1.15301 -0.391909 47
1.72561 -1.32328 -0.572911 36
2.22525 -1.15007 -0.569389 47
3.37081 -2.58754 0.971442 11
3.44232 -1.77309 1.02682 58
3.37769 -2.5919 0.667283 11
3.44837 -1.78452 0.7473 59
1.57742 -1.20909 0.170825 41
3.44672 -1.78896 0.471877 59
1.59258 -1.22161 0.0344249 39
3.45083 -1.79413 0.202017 58
2.06555 -1.5855 -0.135083 44
2.21629 -1.15518 -0.0430202 47
2.22822 -1.16138 -0.216367 50
1.68957 -1.29844 -0.406646 33
2.22329 -1.15689 -0.391909 47
1.72306 -1.32659 -0.572911 36
2.22756 -1.15619 -0.570512 50
3.36253 -2.61023 0.973127 11
3.43911 -1.79504 1.02876 58
3.36557 -2.61166 0.667674 11
3.44551 -1.80596 0.748729 59
1.56495 -1.21302 0.170172 42
3.43919 -1.80874 0.472181 61
1.60196 -1.2422 0.0347739 38
3.44108 -1.81277 0.202017 56
2.21665 -1.17065 -0.0431511 53
2.22652 -1.17535 -0.216802 55
1.68639 -1.31058 -0.407598 30
2.22356 -1.17234 -0.393083 56
1.70848 -1.32965 -0.570324 38
2.22991 -1.17274 -0.572758 59
3.36804 -2.62299 0.975934 11
3.44453 -1.80551 1.03134 56
3.37464 -2.62815 0.670405 11
3.44235 -1.81197 0.748729 58
1.5589 -1.21269 0.169736 44
3.44481 -1.81936 0.473398 59
1.60768 -1.25114 0.0349484 38
2.22566 -1.18035 -0.0433692 74
2.22667 -1.1804 -0.21702 67
1.6783 -1.30899 -0.406169 23
2.23024 -1.18083 -0.394649 62
1.70615 -1.33263 -0.570324 38
2.22786 -1.17663 -0.572758 61
3.36336 -2.64872 0.978742 11
3.43503 -1.82352 1.03134 58
3.37053 -2.65343 0.672356 11
3.44365 -1.83573 0.751112 59
1.55253 -1.22084 0.169736 44
3.43742 -1.83854 0.473702 59
1.60699 -1.26418 0.0350793 42
2.21944 -1.19198 -0.0433692 86
2.22266 -1.19322 -0.217237 59
1.6695 -1.31624 -0.405693 35
2.2177 -1.18861 -0.393475 50
1.70294 -1.34454 -0.571617 38
2.21737 -1.18599 -0.571635 44
3.37067 -2.66306 0.982111 11
3.43824 -1.83291 1.03328 56
3.37411 -2.66484 0.673917 11
3.44477 -1.84405 0.752066 59
1.54649 -1.22045 0.1693 44
3.44547 -1.8498 0.475223 59
1.60871 -1.27008 0.0351666 42
2.21516 -1.19467 -0.0433256 49
2.2074 -1.19003 -0.215932 32
1.65566 -1.31 -0.402836 39
2.20257 -1.18548 -0.391126 24
1.6987 -1.34601 -0.570971 39
2.19831 -1.18029 -0.567143 23
3.35858 -2.68219 0.982673 11
3.4353 -1.85373 1.03522 56
3.36397 -2.68555 0.674698 11
3.44187 -1.86496 0.753495 59
1.53835 -1.22671 0.169082 44
3.4401 -1.87018 0.475832 59
1.61007 -1.28445 0.0353411 41
3.44647 -1.87672 0.203849 59
2.18492 -1.19274 -0.0428457 23
1.62092 -1.29496 -0.250086 15
2.18801 -1.19443 -0.214628 21
1.65284 -1.32143 -0.403789 38
2.17897 -1.18758 -0.387993 21
2.17282 -1.18135 -0.562089 21
3.36529 -2.6972 0.986042 11
3.44268 -1.86546 1.03845 56
3.37661 -2.70532 0.67821 11
3.44476 -1.87508 0.754925 59
1.53232 -1.22628 0.168646 44
3.44119 -1.87855 0.47644 58
1.6076 -1.28754 0.0353411 44
3.44757 -1.88513 0.20411 59
2.16748 -1.18817 -0.0425402 20
1.60898 -1.29002 -0.248564 15
2.16843 -1.18871 -0.212888 20
1.65053 -1.32432 -0.403789 35
2.16171 -1.18311 -0.385253 20
2.16005 -1.17932 -0.559281 21
3.35822 -2.7215 0.988288 11
3.43466 -1.88522 1.0391 56
3.36385 -2.72511 0.6786 11
3.44349 -1.89782 0.756832 59
1.52566 -1.23455 0.168646 44
3.43532 -1.89954 0.477049 58
1.60666 -1.30066 0.035472 47
3.44607 -1.90858 0.204634 59
2.14789 -1.19263 -0.0422784 20
1.59042 -1.28932 -0.246739 15
2.1491 -1.19282 -0.211583 20
1.64334 -1.33323 -0.403789 29
2.13819 -1.18488 -0.382121 20
2.14083 -1.18394 -0.555912 21
3.35961 -2.73139 0.989973 11
3.43771 -1.8947 1.04104 56
3.36148 -2.73195 0.67899 11
3.44447 -1.90619 0.757785 58
1.51577 -1.23093 0.167775 38
3.44102 -1.90974 0.478266 58
1.60633 -1.30504 0.0355156 47
3.44743 -1.91641 0.204895 59
1.4996 -1.21865 -0.0997695 9
2.13051 -1.18788 -0.041973 20
2.13177 -1.18811 -0.210061 20
1.63911 -1.33454 -0.403312 33
2.12532 -1.18262 -0.380163 20
2.12405 -1.17906 -0.551981 21
3.35843 -2.75977 0.993903 11
3.4323 -1.91442 1.04233 56
3.36048 -2.76048 0.681722 11
3.43693 -1.9248 0.758261 55
1.5076 -1.237 0.167557 38
3.43747 -1.93137 0.479178 58
1.6055 -1.31791 0.0356465 53
3.4417 -1.93688 0.205157 56
1.48549 -1.22014 -0.0992444 8
2.10921 -1.19008 -0.0416676 20
2.10598 -1.18828 -0.208104 20
1.62854 -1.3397 -0.40236 36
2.11048 -1.18891 -0.378597 20
2.10296 -1.18184 -0.548051 21
3.36301 -2.77338 0.996711 11
3.43949 -1.9263 1.04556 56
3.36709 -2.77577 0.684063 9
3.44607 -1.9386 0.761121 58
1.50352 -1.23805 0.167339 38
3.44058 -1.94101 0.480091 58
1.60296 -1.32099 0.0356465 53
3.44919 -1.94901 0.205811 58
2.09407 -1.1864 -0.0414058 20
2.09739 -1.18828 -0.207452 20
2.08904 -1.18169 -0.375073 20
2.0924 -1.18074 -0.545805 21
3.35544 -2.79778 0.998957 11
3.42902 -1.94488 1.04556 58
3.44014 -1.95904 0.762074 58
1.49297 -1.24298 0.166903 41
3.43649 -1.96328 0.481004 58
1.59986 -1.33257 0.0357338 39
3.44077 -1.96888 0.205942 58
2.07243 -1.18903 -0.0411004 20
2.076 -1.19061 -0.20593 21
2.06781 -1.18405 -0.372333 21
2.15177 -1.79923 -0.74168 9
2.0648 -1.18 -0.540189 21
3.36598 -2.81555 1.00345 9
3.43192 -1.95444 1.0475 58
3.44311 -1.96869 0.763504 58
1.4908 -1.24558 0.166903 41
3.43556 -1.96991 0.481308 58
3.442 -1.97677 0.206204 58
2.06817 -1.72991 -0.13994 39
2.05951 -1.18643 -0.0408823 21
2.06312 -1.18803 -0.204842 21
2.05502 -1.18152 -0.370375 21
2.14677 -1.80142 -0.741034 9
2.05025 -1.17599 -0.53682 21
3.42617 -1.97419 1.04879 56
3.43735 -1.98854 0.764457 58
1.47877 -1.24829 0.16625 38
3.43594 -1.99409 0.482829 58
2.06511 -1.74519 -0.140334 42
2.03834 -1.18806 -0.0405768 21
2.042 -1.18972 -0.20332 21
2.03813 -1.18608 -0.368418 21
2.14131 -1.81539 -0.742327 9
2.03352 -1.18062 -0.534012 21
3.43109 -1.98499 1.05138 58
3.44662 -2.00192 0.767317 58
1.47659 -1.25086 0.16625 35
3.43674 -2.00257 0.483438 58
3.19077 -1.86261 0.191811 36
2.06586 -1.75202 -0.140596 42
2.02978 -1.18784 -0.0404459 21
2.027 -1.18576 -0.202015 21
2.02111 -1.18095 -0.365677 21
2.14182 -1.82226 -0.74362 9
2.0146 -1.17438 -0.52952 21
2.48826 -2.1331 0.747393 2
3.42691 -2.00658 1.05331 56
3.4382 -2.02118 0.767793 58
1.46435 -1.25372 0.165596 35
3.43263 -2.02432 0.484351 58
3.42835 -2.025 0.206858 58
2.06045 -1.76607 -0.140859 42
2.00631 -1.1883 -0.0400969 21
2.01004 -1.19003 -0.200928 21
2.00426 -1.18525 -0.363719 21
2.12859 -1.8303 -0.742327 9
2.00002 -1.17998 -0.527274 23
2.4886 -2.14018 0.748516 2
3.43173 -2.01745 1.0559 56
3.44102 -2.03091 0.769223 58
1.45838 -1.25302 0.16516 32
3.4355 -2.03409 0.485263 58
3.37753 -2.00303 0.203979 58
1.99563 -1.1867 -0.0399224 21
1.99295 -1.18466 -0.199406 21
2.21844 -1.91171 -0.5614 35
1.98944 -1.18121 -0.36137 21
2.12539 -1.83401 -0.742327 9
1.98537 -1.17605 -0.523905 23
2.47147 -2.14882 0.746831 3
3.42735 -2.03908 1.05784 56
3.43034 -2.0489 0.769223 58
1.44804 -1.25737 0.164724 33
3.43332 -2.05714 0.48648 58
1.46435 -1.272 0.0332468 41
3.43769 -2.06299 0.208297 58
1.97652 -1.18943 -0.0396606 21
1.97604 -1.18869 -0.198319 23
2.201 -1.91684 -0.559495 36
1.97051 -1.18401 -0.359021 23
2.12303 -1.85147 -0.744913 9
1.96872 -1.18019 -0.521097 24
2.46809 -2.1527 0.746831 9
3.43001 -2.04877 1.05978 56
1.61776 -1.4104 0.333642 11
3.43518 -2.05992 0.771129 58
1.44772 -1.26153 0.164942 35
3.43611 -2.06696 0.487393 58
1.45648 -1.26962 0.0331159 35
3.44265 -2.07413 0.20882 58
1.96159 -1.18515 -0.0393988 23
1.96115 -1.18443 -0.197014 23
2.19026 -1.91422 -0.55759 36
1.95997 -1.18236 -0.357455 23
2.12162 -1.85676 -0.74556 11
1.95203 -1.17486 -0.517167 24
2.46371 -2.17247 0.749077 9
3.42338 -2.0692 1.06107 56
1.6011 -1.41069 0.331691 11
3.43275 -2.08296 0.773036 58
1.43549 -1.26416 0.164289 36
3.43372 -2.09007 0.48861 59
1.44044 -1.26896 0.0328978 32
3.43814 -2.09602 0.209213 61
1.94254 -1.18761 -0.039137 23
1.32699 -1.17051 -0.212664 8
1.94429 -1.18822 -0.195927 23
2.17285 -1.91916 -0.555686 36
1.93898 -1.18363 -0.354715 23
2.10644 -1.86304 -0.74362 11
1.93543 -1.17875 -0.514359 24
2.44935 -2.16665 0.745708 11
3.42803 -2.08017 1.06365 56
1.58754 -1.40366 0.329349 12
3.43749 -2.09405 0.774942 59
1.43142 -1.26501 0.164071 41
3.43219 -2.09735 0.488914 61
1.42699 -1.26153 0.032636 36
3.44513 -2.10852 0.209867 64
1.9298 -1.18448 -0.0389189 23
1.32866 -1.17612 -0.213272 8
1.93371 -1.18641 -0.195057 23
2.16032 -1.9148 -0.553305 36
1.92216 -1.17801 -0.351974 23
2.10499 -1.86832 -0.744267 11
1.91881 -1.17326 -0.510428 26
2.45756 -2.19774 0.751885 2
3.42944 -2.10566 1.06753 58
1.58201 -1.4136 0.329739 12
3.43275 -2.11587 0.776372 61
1.42292 -1.27083 0.163853 42
3.43172 -2.12181 0.490435 67
1.41105 -1.26065 0.0324178 35
3.44254 -2.13178 0.210391 77
1.23799 -1.1062 -0.0854604 20
1.91082 -1.18668 -0.0386571 23
1.32063 -1.18141 -0.212968 4
1.91476 -1.18867 -0.193752 24
2.14113 -1.9179 -0.550924 36
1.90546 -1.18158 -0.350016 23
2.09159 -1.87609 -0.742973 12
1.90434 -1.17818 -0.508182 26
3.42576 -2.11164 1.06753 59
1.57035 -1.40811 0.327788 14
3.4395 -2.12831 0.778755 71
1.41885 -1.27164 0.163635 44
3.43856 -2.13433 0.491957 76
1.40699 -1.26144 0.0323742 47
3.44094 -2.1391 0.210521 74
1.23977 -1.11169 -0.085723 11
1.89812 -1.18343 -0.0384389 23
1.31488 -1.18039 -0.21236 4
2.13048 -1.91507 -0.549019 36
2.09728 -1.88782 -0.746207 12
1.88985 -1.17382 -0.504813 27
3.42902 -2.13848 1.07205 67
1.56479 -1.41797 0.328179 15
3.43039 -2.14758 0.779231 71
1.41032 -1.27738 0.163417 47
3.41683 -2.14571 0.490435 44
1.39851 -1.26711 0.0323306 50
3.41277 -2.14647 0.209475 35
1.24133 -1.12488 -0.0862481 8
1.31786 -1.1956 -0.213881 4
2.11134 -1.91794 -0.546638 36
2.08022 -1.89227 -0.74362 12
3.35912 -3.0568 1.03883 12
3.43347 -2.14957 1.07464 61
1.54953 -1.40906 0.325447 24
3.41208 -2.14444 0.775895 32
1.40809 -1.27984 0.163417 42
3.39207 -2.13847 0.487393 23
1.39445 -1.26787 0.0322869 44
3.38578 -2.13779 0.208035 20
1.30111 -1.18453 -0.211447 4
2.09893 -1.91335 -0.544258 36
2.07335 -1.89264 -0.742327 12
3.35149 -3.08318 1.04163 12
3.39971 -2.15333 1.06753 29
1.53123 -1.40712 0.323106 32
3.37801 -2.14782 0.770653 20
1.39771 -1.28382 0.162981 44
3.36198 -2.14421 0.484655 18
1.38044 -1.26838 0.0321124 38
3.36191 -2.14744 0.20725 20
1.30219 -1.19805 -0.212664 4
2.07986 -1.91599 -0.541877 38
2.06696 -1.90675 -0.74362 12
3.36455 -3.10497 1.04725 11
3.37351 -2.14504 1.06042 18
1.53421 -1.41482 0.324276 39
3.34734 -2.13658 0.764457 18
1.39363 -1.28457 0.162763 47
3.33105 -2.13271 0.4807 21
1.37087 -1.26401 0.0319379 36
3.33502 -2.13851 0.205811 26
1.31649 -1.21548 -0.215402 9
2.06751 -1.91129 -0.539496 38
2.05832 -1.90543 -0.74168 12
3.35482 -3.12978 1.04949 11
3.34801 -2.15354 1.0559 17
1.52678 -1.42283 0.324276 38
3.32579 -2.14744 0.762074 24
1.38689 -1.29185 0.162763 47
3.31775 -2.14878 0.480395 36
1.36241 -1.26946 0.0318943 42
3.32378 -2.15594 0.205811 20
1.31736 -1.22913 -0.216619 12
2.04851 -1.91371 -0.537115 38
2.05007 -1.91783 -0.742327 12
3.35346 -3.13837 1.05062 11
3.31785 -2.14239 1.0475 27
1.5261 -1.42718 0.324667 32
3.31792 -2.15057 0.761121 23
1.38099 -1.29087 0.162328 44
3.30983 -2.15187 0.479787 2
1.35654 -1.26842 0.031807 42
3.32838 -2.16718 0.206335 12
1.32969 -1.24501 -0.219053 14
2.08361 -1.35934 -0.214193 42
2.0398 -1.91224 -0.535687 38
3.3435 -3.16317 1.05286 11
3.30456 -2.15841 1.04685 12
1.52219 -1.43855 0.325447 18
3.30045 -2.16389 0.759691 1
1.37784 -1.3015 0.162763 44
3.32549 -2.18686 0.483742 9
1.3517 -1.27722 0.0318506 41
3.3149 -2.18321 0.206204 3
2.07119 -1.36727 -0.0427148 42
1.33036 -1.25878 -0.22027 15
2.08479 -1.37571 -0.215063 42
2.01907 -1.91276 -0.53283 38
2.67367 -1.75675 -0.729424 9
3.3509 -3.18016 1.05679 11
3.31089 -2.17078 1.05008 1
1.53042 -1.45141 0.327788 14
3.31923 -2.18446 0.764934 3
1.37376 -1.30219 0.162545 42
3.30716 -2.18311 0.481612 3
1.34222 -1.2727 0.0316761 44
3.30275 -2.18349 0.20568 12
2.07506 -1.37501 -0.0428457 42
1.33176 -1.26452 -0.220878 20
2.00506 -1.90613 -0.529973 36
2.08193 -1.37751 -0.390343 42
2.66653 -1.75873 -0.728301 11
3.33891 -3.20331 1.05848 11
3.32164 -2.20274 1.05719 2
1.52815 -1.46453 0.328959 12
3.30571 -2.20045 0.764457 3
1.36512 -1.30764 0.162328 42
3.31427 -2.21277 0.484351 3
1.33373 -1.27798 0.0316325 47
3.2892 -2.19937 0.205549 18
2.06991 -1.38725 -0.0428893 42
1.31617 -1.26288 -0.219357 27
1.99328 -1.9149 -0.529496 36
2.07675 -1.38976 -0.390734 41
2.65525 -1.77132 -0.727739 9
3.34791 -3.22206 1.06297 11
3.2856 -2.18717 1.04685 4
3.28961 -2.19805 0.761597 4
1.36284 -1.31002 0.162328 42
3.30834 -2.21718 0.484046 2
1.3297 -1.27857 0.0315889 50
3.26876 -2.194 0.204503 17
2.07164 -1.39364 -0.0429765 41
1.31218 -1.26345 -0.219053 30
2.08512 -1.40216 -0.216367 42
1.98288 -1.91156 -0.527592 36
2.08048 -1.39751 -0.391909 41
2.66229 -1.78271 -0.730547 9
3.34091 -3.25033 1.06634 11
3.29415 -2.2178 1.05331 3
3.32893 -2.24954 0.773512 1
1.35953 -1.32061 0.162763 41
3.3193 -2.24976 0.487393 9
1.32299 -1.28551 0.0315889 52
3.23655 -2.19709 0.203194 15
2.07052 -1.40867 -0.0431074 42
1.30555 -1.27031 -0.219053 29
2.07569 -1.41166 -0.21615 41
1.9623 -1.91164 -0.524735 38
2.07313 -1.40838 -0.391909 41
2.65898 -1.80072 -0.732232 9
3.34974 -3.26919 1.07083 11
3.3083 -2.2357 1.05913 1
3.34126 -2.26634 0.777325 11
1.359 -1.32472 0.162981 41
3.32358 -2.26112 0.48861 14
2.06806 -1.41229 -0.0431074 39
1.3051 -1.27432 -0.219357 24
2.08146 -1.42088 -0.21702 39
1.9537 -1.90991 -0.523306 39
2.07884 -1.41754 -0.393475 39
2.64978 -1.80126 -0.730547 9
3.3372 -3.2924 1.07252 11
3.32249 -2.27067 1.06753 14
3.35568 -2.30182 0.783521 15
1.35205 -1.33182 0.162981 39
3.33625 -2.29534 0.492261 4
2.06682 -1.42734 -0.0432383 39
1.29841 -1.28114 -0.219357 24
2.0799 -1.43636 -0.217672 41
1.93669 -1.91321 -0.521402 39
2.07342 -1.42981 -0.393866 41
2.64031 -1.81511 -0.730547 9
3.34703 -3.31365 1.07757 11
3.3524 -2.29965 1.07852 20
3.3998 -2.34161 0.794959 15
1.34618 -1.33067 0.162545 38
3.33837 -2.30538 0.493173 11
1.65133 -1.14499 0.103494 14
2.07255 -1.43663 -0.0434129 41
1.29265 -1.2799 -0.218749 26
2.07944 -1.4414 -0.21789 42
2.07499 -1.43623 -0.394649 41
1.53807 -1.52698 -0.570971 36
2.63915 -1.82109 -0.731109 9
3.33594 -3.3386 1.07982 11
3.3836 -2.34799 1.09273 12
3.34329 -3.34481 0.741816 11
3.39354 -2.36358 0.796389 11
1.34072 -1.3397 0.162763 38
3.36249 -2.34894 0.49865 11
1.63897 -1.14962 0.103102 24
2.0668 -1.44925 -0.0434565 41
1.2822 -1.28337 -0.21814 29
2.07799 -1.45655 -0.218542 42
2.07149 -1.4499 -0.395432 41
1.53347 -1.53843 -0.572264 38
2.62726 -1.83395 -0.730547 9
3.34444 -3.35765 1.08431 11
3.39338 -2.36354 1.09726 9
3.34674 -3.35881 0.743767 11
3.39545 -2.37371 0.797819 11
1.3419 -1.34557 0.163199 39
3.3466 -2.34569 0.496824 14
1.63307 -1.14933 0.10284 24
2.06631 -1.45429 -0.0435001 41
1.28193 -1.28714 -0.218445 29
2.07749 -1.4616 -0.218759 42
2.07301 -1.45634 -0.396215 41
1.52227 -1.53253 -0.569031 39
2.62237 -1.83668 -0.729985 9
3.33536 -3.38379 1.08712 11
3.39126 -2.38762 1.10049 11
3.34817 -3.39563 0.74806 11
3.39944 -2.40218 0.801631 11
1.33332 -1.35057 0.162981 39
3.36061 -2.38181 0.500779 11
1.61888 -1.15209 0.102317 39
2.06708 -1.47051 -0.0436746 41
1.27343 -1.29206 -0.21814 29
2.07819 -1.47786 -0.219629 42
2.07543 -1.4743 -0.398173 39
1.50942 -1.53505 -0.567091 41
2.60675 -1.84617 -0.728301 11
3.35052 -3.40989 1.09386 11
3.39103 -2.39632 1.10178 11
3.35435 -3.41381 0.750791 11
3.39524 -2.40811 0.801631 11
3.37264 -2.39916 0.503213 11
1.6189 -1.15636 0.102448 44
2.06655 -1.47557 -0.0437183 41
1.2677 -1.29074 -0.217532 32
2.07561 -1.48148 -0.219629 39
2.07688 -1.48078 -0.398956 39
1.50674 -1.53768 -0.567091 41
2.60352 -1.85072 -0.728301 11
3.33881 -3.43495 1.0961 11
3.38237 -2.41685 1.10307 11
3.34332 -3.4384 0.752352 11
3.39656 -2.43585 0.804968 11
3.37616 -2.42835 0.505647 11
1.60269 -1.15754 0.101793 44
2.06488 -1.49075 -0.0438492 41
1.25574 -1.29202 -0.216619 32
2.07161 -1.4956 -0.220064 41
2.07913 -1.49884 -0.400914 39
1.49867 -1.54555 -0.567091 39
2.59578 -1.86575 -0.728862 11
3.34298 -3.45128 1.09947 11
3.38011 -2.42415 1.10372 11
3.35105 -3.45843 0.755474 11
3.39187 -2.44237 0.804968 11
3.38601 -2.44439 0.507777 11
1.60066 -1.16033 0.101793 47
2.0643 -1.49581 -0.0438928 39
1.25866 -1.29956 -0.217532 30
2.07101 -1.50067 -0.220282 39
2.07651 -1.50247 -0.400914 39
1.49402 -1.54669 -0.566445 39
2.58263 -1.86316 -0.726055 11
3.33437 -3.47987 1.10284 11
3.37673 -2.44948 1.10695 11
3.33571 -3.48007 0.756255 11
3.39294 -2.47019 0.808304 11
3.38878 -2.47437 0.510211 11
1.59234 -1.1675 0.101663 49
2.06224 -1.51138 -0.0440237 39
1.2499 -1.30456 -0.217228 32
2.0752 -1.5203 -0.221586 41
1.53112 -1.59964 -0.422835 32
2.07859 -1.52059 -0.402871 38
1.48924 -1.55798 -0.567738 36
3.33563 -3.49215 1.10509 11
3.38222 -2.46247 1.11018 11
3.34729 -3.50317 0.760157 11
3.39457 -2.48044 0.809733 11
3.39291 -2.48554 0.511428 11
1.59051 -1.17 0.101663 49
1.05755 -1.1062 -0.0786341 8
2.06363 -1.51793 -0.044111 38
1.24956 -1.30832 -0.217532 33
2.07053 -1.52245 -0.221369 39
1.52663 -1.60053 -0.422359 32
2.0859 -1.5315 -0.404829 38
3.33737 -3.53082 1.11182 11
3.36971 -2.47956 1.11018 11
3.34078 -3.53321 0.762888 11
3.38197 -2.49759 0.809733 11
3.38184 -2.50475 0.511732 11
1.06369 -1.12359 0.0263968 9
1.58436 -1.17832 0.101663 49
1.05345 -1.11354 -0.0787654 14
2.06195 -1.53282 -0.0442418 41
1.24439 -1.31665 -0.217836 30
2.07054 -1.5392 -0.222239 38
1.51514 -1.60467 -0.421407 32
3.33621 -3.54196 1.11351 11
3.3751 -2.4926 1.11341 11
3.34138 -3.54622 0.764449 11
3.39098 -2.5143 0.81307 11
3.38544 -2.51656 0.512949 11
1.05982 -1.12381 0.0263531 12
1.5823 -1.18108 0.101663 49
1.0498 -1.11356 -0.0786341 14
2.06127 -1.53791 -0.0442855 39
1.24889 -1.32605 -0.219053 27
2.07584 -1.54875 -0.223109 41
1.51066 -1.60552 -0.420931 32
1.72822 -1.2858 -0.488529 20
3.33028 -3.57422 1.118 11
3.37318 -2.51948 1.11729 11
3.33729 -3.58051 0.767961 11
3.37974 -2.53349 0.813546 11
1.04526 -1.11966 0.130951 8
3.37971 -2.5408 0.514166 11
1.0454 -1.1202 0.026135 14
1.57589 -1.18962 0.101663 49
1.03885 -1.11356 -0.0782403 11
2.06291 -1.55655 -0.0445036 39
1.23832 -1.32915 -0.218445 27
2.07567 -1.56558 -0.223978 41
1.50362 -1.61547 -0.421407 32
1.71734 -1.29221 -0.487406 20
3.33295 -3.58838 1.12081 11
3.37652 -2.53115 1.11987 11
3.3451 -3.60023 0.771083 11
3.38316 -2.54528 0.815453 11
1.03483 -1.11236 0.129862 12
3.38761 -2.55505 0.515991 11
1.04515 -1.12386 0.0261786 14
1.57202 -1.1906 0.101532 49
1.0437 -1.12269 -0.0787654 11
2.06618 -1.56466 -0.0446345 39
1.23623 -1.33109 -0.218445 30
2.07492 -1.5707 -0.224196 41
1.49747 -1.61449 -0.420454 33
1.71141 -1.29198 -0.486283 24
3.3306 -3.62372 1.12642 11
3.3733 -2.55549 1.1231 11
3.33289 -3.62497 0.772644 11
3.38197 -2.57127 0.818312 11
1.02919 -1.11758 0.129862 12
3.38406 -2.58027 0.517513 11
1.04283 -1.13281 0.0262659 14
1.56378 -1.1973 0.101401 47
1.03462 -1.12428 -0.0785028 11
2.06022 -1.57661 -0.0446782 39
1.23092 -1.33938 -0.218749 30
2.07091 -1.5842 -0.224631 39
1.70462 -1.30092 -0.486283 26
3.33477 -3.63973 1.12979 11
3.37268 -2.56429 1.1244 11
3.3449 -3.65081 0.776936 11
3.39114 -2.58757 0.821648 11
1.02219 -1.11387 0.129208 12
3.39336 -2.59671 0.519642 11
1.03241 -1.12541 0.0260477 14
1.55574 -1.19548 0.101008 47
1.02929 -1.1224 -0.0782403 9
2.06541 -1.58628 -0.0448527 39
1.23528 -1.34885 -0.219966 29
2.07803 -1.59538 -0.225718 39
1.69654 -1.29947 -0.484598 26
3.32975 -3.67397 1.13485 11
3.37071 -2.59073 1.12827 11
3.34066 -3.68474 0.780448 9
3.38338 -2.60978 0.823078 11
1.02304 -1.12658 0.13008 12
3.38168 -2.61596 0.519947 11
1.02986 -1.13451 0.026135 14
1.54946 -1.2036 0.101008 45
1.02488 -1.1298 -0.0783715 11
2.06103 -1.60013 -0.0449399 38
1.22487 -1.35162 -0.219357 30
2.07331 -1.60965 -0.226153 39
1.68553 -1.30787 -0.33279 27
1.68971 -1.30833 -0.484598 26
3.33639 -3.69424 1.13934 11
3.37384 -2.6025 1.13086 11
3.34912 -3.70706 0.78396 9
3.38419 -2.62077 0.824508 11
1.02274 -1.13022 0.130298 14
1.026 -1.13463 0.0260913 14
1.54341 -1.20325 0.100747 44
1.02625 -1.1353 -0.0786341 11
2.06416 -1.60833 -0.0450708 39
1.2275 -1.35928 -0.22027 30
1.68129 -1.3093 -0.332398 32
1.68357 -1.3083 -0.483475 26
3.32771 -3.72496 1.14327 11
3.37305 -2.6311 1.13538 11
3.34546 -3.74355 0.787863 9
3.37623 -2.64299 0.825938 11
1.01329 -1.13202 0.129862 15
1.02338 -1.14371 0.0261786 14
1.54081 -1.21466 0.101008 42
1.01696 -1.13693 -0.0783715 11
2.05542 -1.61947 -0.0450708 38
1.22178 -1.36775 -0.220574 30
1.67052 -1.31504 -0.331615 29
1.67455 -1.31589 -0.482913 26
3.32995 -3.73928 1.14608 11
3.37606 -2.64293 1.13797 11
3.35107 -3.76171 0.790594 8
3.3832 -2.65796 0.828797 11
1.00966 -1.13193 0.129644 14
1.57151 -1.24099 0.241263 12
1.02304 -1.14736 0.0262222 12
1.54086 -1.21862 0.101139 39
1.01664 -1.14057 -0.0785028 12
2.06634 -1.63388 -0.0453763 41
1.22457 -1.37524 -0.221487 30
1.66434 -1.3149 -0.330832 27
1.66865 -1.31551 -0.48179 26
3.32965 -3.7786 1.15282 11
3.37212 -2.66746 1.1412 11
3.33949 -3.78847 0.792545 8
3.38124 -2.68419 0.831657 11
1.00227 -1.13515 0.129426 12
1.56887 -1.25228 0.241871 15
1.01722 -1.15253 0.0262222 12
1.53641 -1.22823 0.10127 32
1.0189 -1.15525 -0.0791592 11
2.06391 -1.64899 -0.0455071 39
1.22227 -1.38722 -0.2224 35
1.65744 -1.3236 -0.330832 23
1.66937 -1.33028 -0.484037 27
3.33269 -3.79539 1.15618 11
3.38071 -2.68384 1.14572 11
3.34428 -3.80728 0.795277 8
3.38185 -2.69526 0.833087 11
1.0085 -1.14626 0.130516 11
1.55698 -1.24729 0.24035 15
1.01171 -1.15072 0.026135 12
1.53622 -1.23247 0.101401 26
1.01194 -1.15139 -0.0787654 9
2.06689 -1.65727 -0.045638 41
1.22312 -1.39308 -0.223008 33
1.64354 -1.31725 -0.328483 21
1.66514 -1.33168 -0.483475 27
3.32808 -3.83177 1.1618 9
3.36991 -2.70511 1.14701 11
3.3382 -3.8421 0.798789 8
3.3696 -2.71447 0.833563 11
1.00392 -1.15358 0.130734 11
1.54442 -1.25102 0.239437 27
1.01223 -1.16355 0.0263095 11
1.52758 -1.23919 0.10127 21
1.00754 -1.15856 -0.0788966 8
2.06178 -1.67157 -0.0457253 41
1.21882 -1.40343 -0.223617 23
1.46947 -1.19271 -0.162221 9
1.6347 -1.32429 -0.328091 20
1.65981 -1.34219 -0.484037 27
3.33002 -3.8462 1.16461 9
3.36707 -2.7125 1.14766 11
3.34186 -3.85854 0.80113 8
3.38014 -2.73267 0.837376 11
1.00516 -1.15909 0.131169 9
1.53859 -1.25032 0.238829 29
1.00692 -1.16154 0.0262222 11
1.52564 -1.24159 0.10127 24
1.00388 -1.15843 -0.0787654 8
2.05886 -1.67517 -0.0457253 39
1.21986 -1.40909 -0.224225 23
1.46932 -1.19684 -0.162439 11
1.62663 -1.32248 -0.326917 18
3.32727 -3.88394 1.17078 11
3.36267 -2.73712 1.15089 11
3.34089 -3.89849 0.805813 8
3.37388 -2.75595 0.839282 11
0.997663 -1.16227 0.130951 9
1.52626 -1.25365 0.237916 29
1.00103 -1.16662 0.0262222 9
1.51332 -1.24482 0.100878 30
1.00429 -1.17126 -0.0792905 8
2.06582 -1.69824 -0.0460743 41
1.21569 -1.41923 -0.224834 18
1.61204 -1.32472 -0.325351 17
3.3363 -3.90827 1.1764 11
3.36912 -2.75214 1.15477 11
3.3437 -3.91558 0.808154 8
3.38187 -2.7733 0.842618 11
0.998867 -1.1678 0.131387 8
1.52023 -1.25317 0.237307 32
1.0069 -1.17805 0.0264404 9
1.50921 -1.24587 0.100747 32
0.994148 -1.16351 -0.0786341 4
2.06479 -1.70343 -0.046118 41
1.21482 -1.42324 -0.225138 23
3.32767 -3.94116 1.18089 9
3.36723 -2.78108 1.15929 11
3.33839 -3.95249 0.812057 8
3.36352 -2.78784 0.841665 8
0.992534 -1.17319 0.131387 8
1.50961 -1.25821 0.236699 32
0.994269 -1.17566 0.0262659 11
1.49669 -1.24923 0.100354 36
0.994483 -1.17633 -0.0791592 8
2.05746 -1.71617 -0.0461616 41
1.2071 -1.42979 -0.225138 18
1.4814 -1.23699 -0.165483 12
3.33559 -3.96316 1.18595 11
3.36609 -2.79003 1.16058 11
3.33854 -3.96528 0.813618 4
0.992088 -1.17683 0.131605 8
1.50763 -1.26058 0.236699 35
0.995434 -1.18122 0.0263531 11
1.49089 -1.24839 0.100093 39
0.990821 -1.17615 -0.0790279 4
2.06022 -1.72456 -0.0462925 41
1.20804 -1.43549 -0.225746 20
1.48307 -1.24276 -0.165918 12
1.58261 -1.88588 -0.649859 3
3.32882 -3.99742 1.191 11
3.36119 -2.81478 1.16381 11
3.33037 -3.99789 0.816739 8
0.992495 -1.18949 0.132477 8
1.49911 -1.26686 0.236395 36
0.992641 -1.19009 0.0264404 9
1.48433 -1.25618 0.100093 41
0.986246 -1.18324 -0.0791592 4
1.2021 -1.4437 -0.226051 18
1.48416 -1.25693 -0.166788 15
1.57305 -1.89387 -0.649859 3
2.26776 -1.91057 -0.675517 30
3.33428 -4.01823 1.19549 9
3.34389 -4.0284 0.821812 8
1.67372 -1.41523 0.418926 9
0.985646 -1.18547 0.131823 4
1.49121 -1.26467 0.235482 38
0.99195 -1.19391 0.026484 8
1.47642 -1.25393 0.0997 42
0.98896 -1.19073 -0.079553 4
1.20433 -1.45153 -0.226963 20
1.47055 -1.24987 -0.165483 17
1.56325 -1.88944 -0.647273 3
2.25324 -1.90511 -0.672148 30
3.32639 -4.05316 1.20055 9
3.33457 -4.06171 0.824934 4
1.65694 -1.41602 0.416543 9
0.977637 -1.18886 0.131605 4
1.48434 -1.27272 0.235482 38
0.992028 -1.20682 0.0266585 4
1.46771 -1.26028 0.0995691 42
0.982712 -1.19589 -0.079553 8
1.46209 -1.25593 -0.165266 17
1.54417 -1.88638 -0.643393 3
2.23363 -1.90937 -0.669341 30
3.32927 -4.0697 1.20391 9
2.48435 -2.12003 0.864622 1
3.34851 -4.09179 0.830007 8
0.973984 -1.18864 0.131387 4
1.48046 -1.27343 0.235178 38
0.993084 -1.21242 0.0267458 8
1.46194 -1.25933 0.0993075 42
0.986942 -1.20534 -0.0800781 8
1.45045 -1.25037 -0.164178 15
1.54087 -1.88907 -0.643393 4
2.21766 -1.9018 -0.66541 30
3.31865 -4.10033 1.20785 9
2.48458 -2.14202 0.868499 2
0.966388 -1.19161 0.131169 4
1.47189 -1.27955 0.234873 38
0.985362 -1.21549 0.0267022 4
1.45155 -1.2637 0.0990458 44
0.982188 -1.21243 -0.0802094 8
1.32612 -1.15429 -0.273279 9
1.52523 -1.88933 -0.640806 4
2.20214 -1.90861 -0.663725 32
2.48449 -2.14951 0.869791 2
1.62782 -1.41597 0.412254 3
0.970561 -1.20105 0.132041 4
1.46778 -1.28049 0.234569 39
0.984596 -1.21932 0.0267458 4
1.44369 -1.26132 0.0986533 44
0.983203 -1.21803 -0.080472 4
1.4431 -1.26169 -0.0328542 15
1.33156 -1.16308 -0.274845 9
1.52462 -1.89602 -0.6421 8
2.1896 -1.90447 -0.660918 32
2.46191 -2.15339 0.865914 4
1.613 -1.418 0.410348 3
0.967155 -1.21018 0.132477 4
1.45897 -1.28677 0.234265 39
0.976639 -1.22251 0.0267022 4
1.4331 -1.26582 0.0983916 42
0.973699 -1.21926 -0.0802094 8
1.42312 -1.25792 -0.0325487 26
1.32731 -1.17166 -0.275237 9
1.50265 -1.88885 -0.636927 11
2.16828 -1.90665 -0.657548 32
2.46905 -2.16723 0.869791 8
1.61052 -1.42082 0.410348 3
0.968141 -1.21577 0.132913 4
1.45508 -1.28742 0.233961 39
0.974504 -1.22421 0.0267022 4
1.42549 -1.26311 0.0979991 41
0.973123 -1.22291 -0.0803407 4
1.41342 -1.25379 -0.0323742 26
1.50085 -1.89336 -0.637573 11
2.15613 -1.90201 -0.654741 32
2.449 -2.1717 0.86656 9
1.60698 -1.43221 0.411301 3
0.958895 -1.21674 0.132477 4
1.45018 -1.29667 0.234265 36
0.971386 -1.23306 0.0267894 4
1.41513 -1.26724 0.0977374 44
0.959206 -1.21801 -0.0796843 4
1.39773 -1.25261 -0.0321561 33
1.49572 -1.90664 -0.639513 11
2.13704 -1.90519 -0.651933 32
2.45243 -2.18238 0.869145 2
1.60448 -1.43501 0.411301 3
0.962916 -1.22625 0.133348 4
1.44791 -1.2992 0.234265 35
0.972315 -1.23869 0.0268767 4
1.40733 -1.26471 0.0973449 44
0.957079 -1.21968 -0.0796843 4
1.38809 -1.24838 -0.0319815 35
2.1228 -1.89919 -0.648564 32
0.959534 -1.23521 0.133784 3
1.44109 -1.30677 0.234265 35
0.964285 -1.24178 0.0268331 3
1.39698 -1.26872 0.0970832 45
0.958325 -1.23454 -0.0803407 4
1.37597 -1.2506 -0.0318506 36
2.10558 -1.90375 -0.646318 32
0.955854 -1.23491 0.133566 3
1.43881 -1.30928 0.234265 33
0.968228 -1.25138 0.0270076 3
1.39477 -1.27115 0.0970832 45
0.954643 -1.23423 -0.0802094 4
1.36823 -1.24796 -0.0317197 39
2.09322 -1.89926 -0.64351 32
1.6248 -2.1259 0.608696 2
3.34526 -3.0495 1.20194 12
0.949159 -1.24006 0.133566 3
1.43353 -1.31872 0.234569 32
0.959926 -1.25461 0.026964 3
1.38235 -1.27362 0.0966907 45
0.952496 -1.24533 -0.0806032 4
1.35778 -1.25197 -0.0316325 42
1.34395 -1.23886 -0.156567 49
2.07932 -1.90727 -0.642387 32
1.62588 -2.13426 0.61038 9
3.36847 -3.08139 1.21228 11
0.951518 -1.24766 0.13422 3
1.43146 -1.32097 0.234569 32
0.957735 -1.25629 0.026964 3
1.37851 -1.2741 0.0965598 47
0.94881 -1.24501 -0.080472 4
1.35007 -1.24925 -0.0315016 44
1.33995 -1.23952 -0.15635 47
2.06735 -1.9023 -0.63958 32
1.62054 -2.15053 0.612626 9
3.35816 -3.10331 1.21422 11
0.94669 -1.25445 0.134438 4
1.42634 -1.33013 0.234873 30
0.958882 -1.2711 0.0271821 3
1.36999 -1.2796 0.096429 47
0.94528 -1.25395 -0.0807345 4
1.34556 -1.25777 -0.0315452 45
1.32797 -1.24143 -0.155698 41
2.04842 -1.90482 -0.636772 33
1.62556 -2.16505 0.615995 2
3.36337 -3.119 1.2181 11
0.941509 -1.25212 0.134002 4
1.42402 -1.33262 0.234873 30
0.95494 -1.27094 0.0271385 4
1.36958 -1.28369 0.0965598 47
0.946086 -1.25959 -0.0809971 3
1.33971 -1.25671 -0.031458 47
1.32034 -1.23865 -0.155045 42
2.03796 -1.90175 -0.634526 33
3.3588 -3.14871 1.22262 11
0.943626 -1.2692 0.135309 3
1.41679 -1.34031 0.234873 29
0.949762 -1.27793 0.0271821 3
1.3608 -1.28937 0.096429 49
0.946913 -1.27455 -0.0816534 3
1.32744 -1.25879 -0.0313271 47
1.31202 -1.24384 -0.154828 49
2.01876 -1.90441 -0.631718 33
3.35858 -3.15952 1.22456 11
0.939928 -1.26884 0.135091 3
1.41648 -1.34423 0.235178 30
0.946044 -1.27758 0.0271385 3
1.35696 -1.28979 0.0962982 47
0.943203 -1.2742 -0.0815222 3
1.31798 -1.25424 -0.0311525 45
1.30623 -1.2427 -0.154393 49
2.00868 -1.90089 -0.629472 33
3.29266 -4.50141 1.27747 14
3.35481 -3.18811 1.22908 11
3.29289 -4.50009 0.875663 14
0.932024 -1.27157 0.134874 3
1.41302 -1.35506 0.235786 29
0.943992 -1.2884 0.0272694 4
1.35199 -1.2986 0.096429 47
0.936742 -1.27896 -0.0815222 4
1.29993 -1.2493 -0.154393 50
1.19851 -1.15119 -0.25801 3
1.99165 -1.90466 -0.627226 33
3.2942 -4.51839 1.28084 14
3.35624 -3.20062 1.23167 11
3.30102 -4.52778 0.879956 14
0.937138 -1.28326 0.135963 3
1.41244 -1.35924 0.23609 29
0.943214 -1.29207 0.027313 3
1.34612 -1.29751 0.0961673 47
0.940388 -1.28866 -0.0820473 4
1.29415 -1.24812 -0.153958 50
1.19115 -1.14815 -0.256835 4
1.97775 -1.89803 -0.623857 33
3.28537 -4.55789 1.28702 14
3.3551 -3.23322 1.23748 11
3.29315 -4.56704 0.884248 14
0.930406 -1.28815 0.135963 3
1.40709 -1.36834 0.236395 29
0.943744 -1.30713 0.0275312 3
1.3393 -1.30454 0.0961673 49
0.934861 -1.29575 -0.0821785 4
1.18335 -1.15266 -0.256444 4
1.96253 -1.90328 -0.622172 35
3.29161 -4.58341 1.29264 14
3.35814 -3.24745 1.24071 11
3.30102 -4.59484 0.888541 14
0.932515 -1.29584 0.136617 3
1.40292 -1.36907 0.23609 30
0.939775 -1.3069 0.0274875 3
1.33702 -1.30687 0.0961673 47
0.931143 -1.29536 -0.0820473 4
1.10638 -1.54183 -0.36141 15
1.18134 -1.15472 -0.256444 4
3.27804 -4.61705 1.29713 14
3.35954 -3.28413 1.24782 11
3.28898 -4.63076 0.892053 14
0.925491 -1.30086 0.136617 3
1.40257 -1.38359 0.237307 30
0.931472 -1.30977 0.0274439 3
1.32815 -1.31234 0.0960365 47
0.930126 -1.30836 -0.0825724 4
1.11079 -1.56582 -0.365695 15
1.17351 -1.15916 -0.256052 8
3.28767 -4.64606 1.30387 14
3.36243 -3.29843 1.25105 11
3.29739 -4.65809 0.896345 14
3.35996 -3.30745 0.908865 11
0.92178 -1.30044 0.136399 3
1.4004 -1.38579 0.237307 29
0.929184 -1.31139 0.0274439 3
0.930724 -1.31406 -0.0828349 4
1.16797 -1.15774 -0.255269 8
3.28284 -4.69115 1.31173 14
3.35599 -3.3256 1.25493 11
3.28994 -4.69957 0.901028 14
3.35537 -3.33651 0.912201 11
0.919471 -1.31121 0.137052 3
1.39664 -1.39661 0.237916 27
0.932566 -1.33042 0.0277493 3
0.925261 -1.32096 -0.0829662 4
1.15839 -1.16035 -0.254486 8
3.29554 -4.72686 1.32015 21
3.35876 -3.33995 1.25816 11
3.30433 -4.73772 0.907271 42
3.3733 -3.3672 0.918873 11
1.38718 -1.39203 0.236699 26
0.931439 -1.33425 0.027793 3
0.930089 -1.33281 -0.0836226 4
1.09184 -1.09937 -0.0264404 8
1.16161 -1.16761 -0.255661 9
3.2865 -4.76869 1.32689 47
3.35087 -3.36834 1.26204 11
3.29826 -4.784 0.912734 47
3.36081 -3.39004 0.920303 11
1.38661 -1.40656 0.237916 24
0.918849 -1.3315 -0.0832287 4
1.08764 -1.10703 -0.026484 9
1.15374 -1.17192 -0.255269 8
1.54274 -1.56208 -0.498075 24
3.30107 -4.80598 1.33587 47
3.3569 -3.38618 1.26656 11
3.31171 -4.81971 0.918588 47
3.36352 -3.40462 0.922686 11
1.3844 -1.40874 0.237916 23
0.920762 -1.33927 -0.0836226 4
1.07869 -1.10181 -0.0263095 9
1.14476 -1.1669 -0.253703 9
1.53344 -1.55758 -0.495829 24
3.29091 -4.84537 1.34205 47
3.34649 -3.41001 1.26915 11
3.30446 -4.86354 0.923661 49
3.35998 -3.43562 0.926499 11
1.38221 -1.42129 0.238829 23
1.07833 -1.11262 -0.0264404 9
1.14035 -1.17465 -0.254095 9
1.52355 -1.56384 -0.495267 24
3.30565 -4.88542 1.3516 47
3.34729 -3.42275 1.27173 11
3.31119 -4.89179 0.927953 49
3.36538 -3.45436 0.929835 11
1.07375 -1.11102 0.0791581 4
1.06768 -1.10554 -0.0262222 9
1.72922 -2.55733 -0.374216 14
1.13486 -1.1731 -0.253312 11
1.59271 -2.36142 -0.753319 11
1.51572 -1.56127 -0.493583 27
3.29271 -4.92348 1.35721 49
3.34553 -3.45815 1.27819 9
3.30389 -4.93838 0.933416 50
3.35066 -3.47546 0.930788 11
1.06426 -1.11321 0.0788964 9
1.06688 -1.11671 -0.0263531 11
1.71674 -2.56872 -0.37452 20
1.12356 -1.17369 -0.252137 11
1.58836 -2.38179 -0.757199 9
1.50556 -1.56769 -0.493021 27
3.30388 -4.95703 1.36507 53
3.34788 -3.47267 1.28142 11
3.30982 -4.96411 0.937319 55
3.35991 -3.49722 0.935078 11
1.06596 -1.11849 0.0791581 9
1.05974 -1.11315 -0.0262222 12
1.70995 -2.56728 -0.373911 29
1.60861 -2.41771 -0.556638 23
1.12151 -1.17565 -0.252137 11
1.5842 -2.38456 -0.757199 11
1.50647 -1.57357 -0.494144 27
3.28994 -4.99258 1.37013 55
3.35029 -3.51051 1.28918 11
3.29194 -4.99374 0.93966 52
3.35063 -3.52306 0.937461 11
1.05322 -1.11681 0.0786348 9
1.05581 -1.12032 -0.0262659 12
1.69376 -2.57205 -0.373303 30
1.59905 -2.42992 -0.55759 32
1.11534 -1.1815 -0.252137 11
1.57343 -2.39457 -0.757846 11
1.49317 -1.57614 -0.492459 27
3.26785 -4.97794 1.36451 42
3.35083 -3.52335 1.29176 9
3.27509 -4.98709 0.937319 42
3.35738 -3.54373 0.941273 11
1.0547 -1.12227 0.0788964 9
1.05557 -1.12397 -0.0263095 12
1.68655 -2.57085 -0.372694 21
1.59884 -2.43887 -0.559019 45
1.11497 -1.18524 -0.252529 11
1.56883 -2.39758 -0.757846 11
1.4921 -1.58051 -0.493021 27
3.23425 -4.98533 1.3617 39
3.34497 -3.55548 1.29693 9
3.24 -4.99231 0.934977 42
3.3539 -3.57736 0.945563 11
1.04179 -1.12067 0.0783731 11
1.04948 -1.12967 -0.0263095 12
1.66722 -2.57161 -0.371477 23
1.58562 -2.44748 -0.559019 45
1.1153 -1.19847 -0.254095 11
1.5615 -2.41388 -0.760432 11
1.48186 -1.58678 -0.492459 29
3.21848 -4.97813 1.35833 41
3.34702 -3.57012 1.30016 9
3.22324 -4.98551 0.932636 41
3.35603 -3.59216 0.947946 11
1.03813 -1.12066 0.0782422 12
1.04409 -1.12784 -0.0262222 12
1.66138 -2.57243 -0.371173 18
1.03207 -1.11456 -0.129603 3
1.57337 -2.43787 -0.556162 35
1.11489 -1.20222 -0.254486 9
1.55859 -2.41863 -0.761079 11
1.48241 -1.59293 -0.493583 29
3.18581 -4.98465 1.35553 41
3.33713 -3.59585 1.30339 9
3.19264 -4.99344 0.931075 41
3.35115 -3.6235 0.951759 9
3.19651 -4.9976 0.515962 44
1.03414 -1.12774 0.0783731 12
1.03837 -1.13311 -0.0262222 12
1.643 -2.57244 -0.369956 17
1.03317 -1.12709 -0.130473 3
1.56365 -2.44994 -0.557114 39
1.10544 -1.20422 -0.253703 9
1.55152 -2.43464 -0.763665 11
3.18321 -4.99786 1.35777 4
3.34398 -3.61584 1.30856 9
3.19453 -5.01567 0.934197 2
3.35981 -3.64557 0.956048 11
3.19581 -5.01577 0.517269 3
1.03217 -1.12954 0.0783731 12
1.03639 -1.13492 -0.0262222 12
1.63851 -2.5753 -0.369956 23
1.02951 -1.12706 -0.130255 4
1.56068 -2.45474 -0.55759 38
1.10501 -1.20796 -0.254095 9
1.54597 -2.4353 -0.763019 11
3.18336 -5.05832 1.36957 1
3.33317 -3.6422 1.3118 9
3.19058 -5.06786 0.940831 2
3.34564 -3.66855 0.957478 9
3.17349 -5.03876 0.517923 8
1.02792 -1.13677 0.0785039 12
1.0338 -1.14403 -0.0263095 12
1.61708 -2.57124 -0.368131 32
1.02507 -1.13445 -0.130473 4
1.5452 -2.45872 -0.556638 35
1.09867 -1.21373 -0.254095 8
1.53448 -2.44541 -0.763665 9
3.17323 -5.0618 1.369 4
3.34147 -3.66406 1.31761 9
3.19354 -5.09225 0.944343 4
3.3485 -3.68586 0.960337 9
3.19644 -5.09493 0.523152 15
1.02593 -1.13857 0.0785039 12
1.02677 -1.14028 -0.0261786 11
1.60733 -2.56564 -0.366914 26
1.02477 -1.13808 -0.13069 3
1.54871 -2.4739 -0.559495 32
1.09489 -1.21382 -0.253703 8
1.53106 -2.4504 -0.764312 4
3.1894 -5.14932 1.3881 17
3.33131 -3.69284 1.32149 9
3.18674 -5.14304 0.950586 20
3.34394 -3.71975 0.964627 9
3.1885 -5.14391 0.526421 15
2.23585 -3.60765 0.0734746 42
1.01976 -1.1441 0.0785039 11
1.02392 -1.14954 -0.0262659 11
1.58167 -2.55531 -0.364176 15
1.01214 -1.13602 -0.12982 4
1.54562 -2.49894 -0.563304 33
1.09346 -1.22504 -0.254878 8
1.51948 -2.46044 -0.764959 4
3.17363 -5.14189 1.38473 14
3.34102 -3.71659 1.32795 9
3.17606 -5.14384 0.949806 15
3.34892 -3.73836 0.967963 9
3.17036 -5.13463 0.524895 15
1.00937 -1.13453 0.181936 14
2.08519 -3.37753 0.0686752 11
1.01463 -1.14198 0.0782422 11
1.69551 -2.74691 -0.167902 39
1.01692 -1.14573 -0.026135 11
1.57766 -2.55779 -0.364176 15
1.01514 -1.14335 -0.130473 3
1.09462 -1.23063 -0.255661 8
1.51645 -2.46514 -0.765605 3
3.13652 -5.14179 1.38023 14
3.3302 -3.74247 1.33118 9
3.14009 -5.14564 0.947074 14
3.343 -3.76994 0.971775 9
3.13655 -5.13785 0.523588 15
1.00012 -1.13608 0.181327 12
2.06807 -3.38804 0.0686752 11
1.01029 -1.14915 0.0783731 11
1.6811 -2.75575 -0.167902 41
1.01276 -1.15273 -0.0261786 9
1.56037 -2.55966 -0.363263 20
1.00584 -1.14492 -0.130038 3
1.08652 -1.2345 -0.255269 8
1.50395 -2.47279 -0.765605 4
3.12122 -5.13685 1.37743 15
3.3381 -3.76452 1.337 9
3.12084 -5.13423 0.943952 14
3.34551 -3.78738 0.974635 9
3.12499 -5.13906 0.523152 15
1.00306 -1.14341 0.18224 9
1.00663 -1.14903 0.0782422 11
1.67499 -2.75655 -0.16777 42
1.0157 -1.16013 -0.0263095 9
1.55719 -2.5645 -0.363567 29
1.00548 -1.14854 -0.130255 3
1.086 -1.23824 -0.255661 8
1.49545 -2.46947 -0.763665 4
3.07834 -5.12859 1.37069 14
3.32725 -3.79341 1.34087 9
3.09048 -5.14681 0.943172 15
3.34342 -3.82516 0.979878 11
3.08945 -5.14308 0.521845 15
0.998495 -1.15069 0.182544 8
1.00697 -1.16199 0.0787656 9
1.65283 -2.75243 -0.166983 14
1.00777 -1.16372 -0.0262659 9
1.54329 -2.57288 -0.363567 26
0.996182 -1.15004 -0.12982 3
1.07788 -1.24205 -0.255269 4
1.48498 -2.48141 -0.764959 3
3.06403 -5.12296 1.36788 14
3.33336 -3.81375 1.34604 9
3.07478 -5.13894 0.940831 15
3.34481 -3.84023 0.982261 9
3.07152 -5.13351 0.52032 15
0.993428 -1.14851 0.181936 8
2.44311 -4.0843 0.0824626 3
1.00841 -1.16734 0.0790273 9
1.64546 -2.75103 -0.16672 14
1.00574 -1.16548 -0.0262659 9
1.56978 -2.62644 -0.370869 26
0.995806 -1.15366 -0.130038 3
1.07733 -1.2458 -0.255661 4
1.47941 -2.48192 -0.764312 4
3.03469 -5.13474 1.36676 11
3.32508 -3.84334 1.35057 9
3.0403 -5.14221 0.938489 15
3.33816 -3.87197 0.986073 9
3.0417 -5.14256 0.519666 14
0.99064 -1.15746 0.182544 4
2.42622 -4.10307 0.0825935 3
1.00717 -1.17828 0.0794198 9
1.62596 -2.75101 -0.166195 23
1.00471 -1.17624 -0.0263968 9
0.996246 -1.16641 -0.130908 3
1.75014 -2.96603 -0.661394 24
1.06918 -1.24955 -0.255269 4
1.46683 -2.48938 -0.764312 4
3.01707 -5.12533 1.36283 12
3.33258 -3.86559 1.35638 9
3.0238 -5.13474 0.936148 15
3.34353 -3.89325 0.989886 9
3.02387 -5.13283 0.518141 15
0.988618 -1.15918 0.182544 4
2.42468 -4.11849 0.0828117 3
1.00187 -1.17625 0.0791581 9
1.61989 -2.75169 -0.166064 27
1.00266 -1.17799 -0.0263968 9
1.63815 -2.78495 -0.391861 30
0.992588 -1.16625 -0.13069 3
1.73875 -2.9585 -0.659014 20
1.06861 -1.25329 -0.255661 4
1.45594 -2.48177 -0.761079 4
2.98318 -5.13105 1.36002 14
3.3273 -3.90193 1.36285 9
2.98481 -5.13181 0.932636 15
3.33582 -3.92566 0.993699 9
2.9898 -5.13835 0.517051 15
0.982332 -1.16452 0.182544 4
2.40057 -4.12681 0.0827244 3
0.998715 -1.18546 0.0794198 9
1.59793 -2.74718 -0.165276 33
0.99627 -1.1834 -0.0263968 9
1.75509 -3.02127 -0.424111 12
0.989689 -1.17524 -0.131125 3
1.72641 -2.97423 -0.660442 17
1.44656 -2.49563 -0.763019 4
2.96779 -5.12308 1.35665 15
3.33301 -3.92244 1.36802 9
2.97551 -5.13436 0.932246 14
3.33849 -3.9427 0.996558 9
2.97458 -5.13279 0.515962 15
0.98531 -1.17174 0.183457 3
2.39211 -4.12883 0.0826808 3
0.998463 -1.18893 0.0795507 8
1.59439 -2.75213 -0.165407 42
0.997428 -1.18896 -0.026484 9
1.6609 -2.86935 -0.402206 1
0.984422 -1.17316 -0.13069 3
1.72367 -2.98149 -0.661394 12
1.44341 -2.50025 -0.763665 4
1.08812 -1.29149 -0.381277 9
2.93851 -5.13432 1.35553 15
3.32245 -3.95034 1.37189 9
2.94245 -5.13915 0.930295 15
3.33427 -3.97834 1.00132 9
2.94609 -5.14346 0.515526 15
0.982348 -1.18069 0.184065 3
2.37118 -4.14088 0.0826808 3
0.992224 -1.19414 0.0795507 8
1.57672 -2.75366 -0.165013 44
0.991397 -1.19399 -0.026484 9
1.67417 -2.92757 -0.409203 1
0.984861 -1.18577 -0.13156 3
1.70613 -2.98591 -0.660442 12
1.42954 -2.50542 -0.763019 4
1.08917 -1.30651 -0.384085 4
2.922 -5.12411 1.3516 15
3.32953 -3.97278 1.37771 9
2.92369 -5.12712 0.927173 15
3.33993 -3.99921 1.00514 9
2.92354 -5.12479 0.513129 15
0.981875 -1.18431 0.18437 4
2.36767 -4.15153 0.0828117 3
0.988541 -1.19396 0.0794198 8
1.57191 -2.75641 -0.165013 49
0.990911 -1.19764 -0.0265277 9
1.64697 -2.89166 -0.403727 2
0.979602 -1.18366 -0.131125 3
1.69606 -2.98035 -0.658537 11
1.42516 -2.50791 -0.763019 4
1.07595 -1.29532 -0.380154 3
2.88587 -5.12499 1.34767 15
3.31949 -4.00316 1.38223 9
2.88833 -5.12729 0.924441 15
3.33302 -4.03366 1.00943 9
2.89544 -5.13786 0.512912 15
0.974081 -1.18752 0.184065 4
2.34099 -4.15516 0.0826371 3
0.98704 -1.2049 0.0798123 8
1.5533 -2.75834 -0.16462 45
0.992573 -1.21246 -0.0267458 9
0.977934 -1.19471 -0.131778 3
1.68043 -2.98919 -0.658537 8
1.40847 -2.50902 -0.761079 4
2.87096 -5.11939 1.34486 15
3.32789 -4.02755 1.38869 9
2.88058 -5.13448 0.924831 15
3.33777 -4.0552 1.01324 9
2.8816 -5.13422 0.51204 15
0.973583 -1.19113 0.18437 4
2.33912 -4.17055 0.0828553 3
0.98652 -1.20855 0.0799432 8
1.54848 -2.76105 -0.16462 45
0.984112 -1.20646 -0.0265713 8
0.972687 -1.19256 -0.131343 3
1.67282 -2.98784 -0.657585 4
1.40718 -2.51805 -0.763019 4
2.8385 -5.12632 1.34261 15
3.3137 -4.05484 1.39192 9
2.842 -5.13055 0.921319 15
3.33665 -4.09734 1.01943 8
2.84412 -5.1323 0.510297 15
0.963993 -1.19253 0.183761 3
2.31362 -4.17618 0.0827244 3
0.979967 -1.21387 0.0799432 8
1.53521 -2.7713 -0.164751 47
0.982296 -1.21759 -0.0267022 8
2.69133 -4.86644 -0.677543 23
0.97428 -1.2073 -0.13243 4
1.64951 -2.98395 -0.654728 4
1.39281 -2.52327 -0.762372 4
2.82457 -5.12011 1.3398 15
3.32647 -4.08494 1.40033 8
2.86613 -5.19339 0.931855 12
2.86283 -5.18742 0.515308 12
0.96837 -1.20176 0.184978 3
2.30633 -4.18021 0.0827244 4
0.97963 -1.21734 0.080074 4
1.53279 -2.77835 -0.165013 45
0.975454 -1.21347 -0.0265713 8
2.69446 -4.89022 -0.680281 14
0.965904 -1.20126 -0.13156 8
1.64666 -2.99113 -0.65568 8
1.38724 -2.52358 -0.761726 4
2.79306 -5.12627 1.33756 15
2.84835 -5.22567 0.934977 14
2.84726 -5.22152 0.517269 14
0.963617 -1.20874 0.185282 3
2.28514 -4.19183 0.0827244 4
0.976364 -1.22635 0.0803357 4
1.52109 -2.79046 -0.165276 41
0.978672 -1.2301 -0.0268331 8
2.68186 -4.92824 -0.683628 12
0.966039 -1.21391 -0.13243 11
1.62447 -2.98649 -0.652823 8
1.3733 -2.52844 -0.761079 4
2.78733 -5.13493 1.33868 14
2.8524 -5.25275 0.519884 12
0.966154 -1.21624 0.186195 3
2.2802 -4.2002 0.0828117 4
0.97578 -1.23001 0.0804665 4
1.5186 -2.7975 -0.165539 38
0.971847 -1.22595 -0.0267022 8
2.67207 -4.93074 -0.683324 11
0.957705 -1.2078 -0.13156 9
1.61225 -2.97637 -0.649966 8
1.37118 -2.53509 -0.762372 8
2.7802 -5.1886 1.34879 14
0.953616 -1.2135 0.184978 3
2.25228 -4.20107 0.0825935 4
0.964684 -1.22922 0.080074 4
1.49686 -2.79221 -0.164751 35
0.971609 -1.23887 -0.0268767 8
2.65792 -4.96654 -0.686366 14
0.954455 -1.21671 -0.131995 8
1.5897 -2.97178 -0.647109 8
1.35448 -2.53584 -0.760432 8
2.78696 -5.2209 1.35609 14
3.08858 -5.78628 1.03097 3
3.01736 -5.65044 0.557361 2
0.954568 -1.21906 0.185587 3
2.24612 -4.2072 0.0826371 4
0.962538 -1.2309 0.080074 4
1.49081 -2.79261 -0.16462 9
0.970991 -1.24252 -0.0269203 8
2.64575 -4.9646 -0.685453 11
0.94771 -1.2125 -0.131343 8
1.57875 -2.96372 -0.644729 8
1.35345 -2.5446 -0.762372 4
2.77342 -5.26392 1.36339 12
3.05479 -5.79582 1.0298 4
2.96567 -5.6243 0.553221 3
0.946647 -1.22208 0.185282 3
2.22639 -4.22332 0.0827244 4
0.954546 -1.23396 0.0799432 4
1.47151 -2.79154 -0.164095 8
0.964472 -1.24759 -0.0269203 8
2.62087 -4.98058 -0.685758 8
0.950526 -1.22924 -0.132647 4
1.56207 -2.96977 -0.644252 9
1.33786 -2.54737 -0.761079 4
1.47316 -1.89482 -0.545243 11
