# .PCD v0.7 - Point Cloud Data file format
VERSION 0.7
FIELDS x y z intensity
SIZE 4 4 4 4
TYPE F F F F
COUNT 1 1 1 1
WIDTH 1621
HEIGHT 1
VIEWPOINT 0 0 0 1 0 0 0
POINTS 1621
DATA ascii
3.51748 -0.43111 -0.306394 67
3.01558 -0.925098 -0.605207 9
3.51232 -0.428648 -0.555563 41
3.13966 -0.380391 -0.721001 9
3.47486 -1.06886 0.829937 59
3.49675 -0.420651 0.933119 62
3.46989 -1.06734 0.568166 58
3.51311 -0.428762 0.680576 61
2.96154 -0.910203 0.268004 47
3.5019 -0.432336 0.42837 61
2.98883 -0.919178 0.0539716 45
3.51039 -0.435842 0.183568 59
2.68444 -0.825929 -0.145847 8
3.51945 -0.438194 -0.0613016 65
3.48592 -1.07495 -0.442974 61
3.52661 -0.438464 -0.307263 65
3.00223 -0.926735 -0.602826 9
3.52137 -0.435978 -0.557129 67
2.2067 -0.682448 -0.609122 41
3.12932 -0.384696 -0.718755 9
3.47135 -1.08838 0.830499 59
3.4945 -0.438954 0.933119 62
3.46661 -1.08623 0.568557 58
3.50838 -0.446844 0.6801 64
2.95435 -0.924952 0.267786 55
3.50205 -0.450979 0.428675 59
2.9816 -0.934066 0.0539279 47
3.50806 -0.454216 0.183568 61
2.68469 -0.841938 -0.14611 8
3.51958 -0.456935 -0.0613452 64
3.48971 -1.09617 -0.444191 62
3.52666 -0.457856 -0.307481 67
3.52393 -0.455035 -0.557912 67
2.19618 -0.691812 -0.607182 41
3.12726 -0.401076 -0.718755 9
3.4741 -1.0959 0.831622 59
3.50091 -0.445958 0.935058 65
3.47177 -1.09451 0.569727 58
3.50995 -0.45389 0.680576 62
2.96223 -0.933105 0.268658 53
3.50372 -0.457408 0.428979 59
3.50727 -0.460338 0.183568 59
2.68798 -0.848127 -0.146372 8
3.51878 -0.463077 -0.0613452 64
3.48779 -1.10225 -0.444191 62
3.52585 -0.46401 -0.307481 67
3.52069 -0.460868 -0.55752 67
2.17644 -0.690176 -0.602009 44
3.12173 -0.405912 -0.717632 9
3.47043 -1.11543 0.832183 59
3.49605 -0.464578 0.934412 62
3.46815 -1.11404 0.570118 58
3.50752 -0.472261 0.680576 64
2.9524 -0.947594 0.268222 49
3.49874 -0.476027 0.428675 59
3.5072 -0.479642 0.183699 59
2.68825 -0.863719 -0.146635 8
3.51375 -0.481772 -0.0613016 64
3.49123 -1.12415 -0.445408 68
3.52338 -0.482465 -0.307481 65
2.33656 -0.752769 -0.469499 12
3.52067 -0.479626 -0.557912 67
2.1682 -0.700075 -0.600716 44
3.1219 -0.42312 -0.718193 9
3.47331 -1.12238 0.833306 59
3.49763 -0.470998 0.935058 65
3.4664 -1.11948 0.570118 58
3.50669 -0.478382 0.680576 62
2.95785 -0.955044 0.268875 53
3.5029 -0.482193 0.429283 59
3.50891 -0.48549 0.18383 59
2.68912 -0.869179 -0.146766 8
3.51785 -0.488585 -0.0613888 62
3.4871 -1.12887 -0.445104 61
3.52253 -0.488614 -0.307481 67
2.32824 -0.754572 -0.468071 14
3.51983 -0.48577 -0.557912 68
2.15549 -0.700121 -0.597483 44
3.12606 -0.428678 -0.719316 9
3.4697 -1.14131 0.833868 59
3.49281 -0.488364 0.934412 62
3.50909 -0.496807 0.68153 61
2.94115 -0.966111 0.267786 52
3.50524 -0.501223 0.429891 61
3.5088 -0.504207 0.183961 61
2.69401 -0.886372 -0.147291 8
3.51286 -0.506031 -0.0613452 64
3.47642 -1.14556 -0.444495 35
3.52485 -0.507755 -0.307916 65
2.31041 -0.761728 -0.465214 14
3.51724 -0.504193 -0.557912 68
2.14275 -0.707986 -0.594896 44
3.11895 -0.44436 -0.718193 9
3.47002 -1.14813 0.83443 59
3.49674 -0.49513 0.935704 65
3.51056 -0.503888 0.682006 59
2.93473 -0.969678 0.26735 39
3.50436 -0.50734 0.429891 61
3.50544 -0.509974 0.18383 61
2.70194 -0.894215 -0.147816 8
3.51939 -0.513234 -0.0614761 65
3.46264 -1.14772 -0.442974 14
3.52643 -0.514262 -0.308133 65
2.29976 -0.762664 -0.463309 14
3.51391 -0.509979 -0.55752 65
2.12764 -0.707517 -0.591016 45
3.1254 -0.450835 -0.719878 11
3.46145 -1.16611 0.833868 59
3.49162 -0.513694 0.935058 62
2.90939 -0.979338 0.479586 9
3.51273 -0.522979 0.682959 61
2.92944 -0.985542 0.26735 47
3.50157 -0.526293 0.429891 59
3.50757 -0.529672 0.184092 59
2.69486 -0.907552 -0.147685 8
3.51657 -0.532268 -0.0614761 64
3.44698 -1.16326 -0.441757 14
3.53108 -0.533826 -0.308786 65
2.277 -0.768804 -0.4595 14
3.50866 -0.528619 -0.557129 55
2.11933 -0.717097 -0.589723 49
3.12533 -0.468096 -0.72044 9
3.46884 -1.17467 0.836114 59
3.48833 -0.519435 0.934412 62
2.89832 -0.981242 0.478025 14
3.50696 -0.528384 0.682006 65
2.92772 -0.990654 0.26735 47
3.50064 -0.532404 0.429891 59
3.50911 -0.536167 0.184223 61
2.698 -0.913859 -0.147948 8
3.51563 -0.538405 -0.0614761 64
3.52275 -0.538868 -0.308133 65
2.27101 -0.771196 -0.458548 14
3.5004 -0.533636 -0.555954 56
2.10665 -0.716897 -0.58649 52
3.11969 -0.472827 -0.719316 9
3.45804 -1.19123 0.834991 59
3.49759 -0.538906 0.937643 65
2.87697 -0.990266 0.475293 15
3.50909 -0.546877 0.682959 61
2.92737 -1.00708 0.267786 49
3.50526 -0.551262 0.430804 59
3.51128 -0.554694 0.184484 61
2.69806 -0.929131 -0.14821 8
3.52027 -0.557354 -0.061607 64
3.06372 -1.05704 -0.393078 32
3.52736 -0.557849 -0.308786 65
2.2462 -0.77546 -0.454262 14
3.50498 -0.55249 -0.557129 56
2.09615 -0.725178 -0.58455 55
3.12448 -0.489732 -0.721001 9
3.46767 -1.20065 0.837799 59
3.49187 -0.544272 0.936351 62
2.86357 -0.991242 0.473342 12
3.5057 -0.552621 0.682483 62
2.92561 -1.01219 0.267786 52
3.49694 -0.556219 0.429891 59
3.50537 -0.56004 0.184223 61
2.69643 -0.933838 -0.14821 8
3.51682 -0.563106 -0.0615634 62
3.52146 -0.563224 -0.308351 67
2.23094 -0.774542 -0.451405 14
3.49669 -0.55745 -0.555954 52
2.0926 -0.72804 -0.583903 53
3.13084 -0.496317 -0.722686 9
3.45882 -1.21859 0.837237 59
3.49136 -0.562929 0.936997 61
2.8467 -1.00212 0.471391 14
3.50761 -0.571753 0.683436 61
3.50622 -0.576518 0.431413 61
3.50732 -0.579193 0.184484 58
2.69857 -0.950435 -0.148604 8
3.51876 -0.582322 -0.0616506 62
3.52829 -0.583266 -0.309221 65
2.21066 -0.780483 -0.448072 14
3.50601 -0.57713 -0.557912 53
2.07966 -0.735759 -0.581317 58
3.14022 -0.514655 -0.725493 8
3.4592 -1.22483 0.837799 59
3.49037 -0.569022 0.936997 62
2.84978 -1.00824 0.472171 15
3.50176 -0.577082 0.682483 61
3.49797 -0.580815 0.4305 59
3.50887 -0.585109 0.184615 62
2.70396 -0.957647 -0.148998 9
3.5128 -0.587644 -0.0615634 61
3.52236 -0.588609 -0.308786 65
2.19773 -0.780228 -0.445691 14
3.50256 -0.582846 -0.55752 56
2.08747 -0.742632 -0.583903 68
3.14181 -0.519981 -0.726055 8
3.45733 -1.24458 0.838922 59
3.48983 -0.587079 0.937643 64
2.84678 -1.02398 0.472562 15
3.50847 -0.596431 0.684389 67
3.49732 -0.599539 0.430804 59
3.5033 -0.603053 0.184484 61
2.70126 -0.972639 -0.149129 9
3.51471 -0.606259 -0.0616506 61
3.52168 -0.607464 -0.309003 65
2.17067 -0.783 -0.44093 14
3.51163 -0.603251 -0.559478 53
2.07233 -0.749076 -0.58067 62
3.15346 -0.538865 -0.729424 8
3.45973 -1.25227 0.840045 58
3.4888 -0.593168 0.937643 62
2.84499 -1.02895 0.472562 15
3.50732 -0.603166 0.684389 65
3.50116 -0.606482 0.431413 59
3.50224 -0.609167 0.184484 61
2.70191 -0.978203 -0.14926 8
3.51365 -0.612393 -0.0616506 61
3.52307 -0.614034 -0.309221 65
2.15777 -0.782596 -0.438549 14
3.5057 -0.608541 -0.558695 38
2.06635 -0.751399 -0.579377 65
3.14531 -0.543135 -0.727739 8
3.45747 -1.27266 0.841168 59
3.48316 -0.611621 0.936997 65
2.8417 -1.04518 0.472952 20
3.5017 -0.621096 0.683913 64
3.50027 -0.62585 0.431717 59
3.50381 -0.628982 0.184746 59
2.68972 -0.989747 -0.148867 8
3.50782 -0.630955 -0.061607 61
3.51981 -0.632472 -0.309221 65
2.12588 -0.784052 -0.432835 14
3.51695 -0.630093 -0.561044 56
2.07371 -0.766402 -0.58261 76
3.16391 -0.56396 -0.732793 9
3.46004 -1.27978 0.842291 59
3.48684 -0.618537 0.938289 64
2.83756 -1.04928 0.472562 20
3.50786 -0.628495 0.685342 62
3.50162 -0.632396 0.432021 61
3.50516 -0.635539 0.184877 59
2.69501 -0.997042 -0.14926 9
3.5141 -0.638407 -0.0617379 62
3.5187 -0.638614 -0.309221 65
2.113 -0.783487 -0.430454 14
3.51584 -0.63623 -0.561044 65
2.06558 -0.767492 -0.58067 61
3.16772 -0.570337 -0.733916 9
3.45535 -1.29934 0.842852 59
3.48355 -0.636785 0.938289 61
2.84127 -1.0676 0.474122 15
3.50211 -0.646412 0.684866 62
3.49582 -0.650271 0.431717 59
3.5067 -0.654793 0.185138 64
2.69676 -1.01378 -0.149654 9
3.51071 -0.656798 -0.0617379 65
3.5202 -0.657938 -0.309655 65
2.09509 -0.78934 -0.427597 15
3.51489 -0.655079 -0.561436 64
2.06153 -0.778297 -0.58067 71
3.1575 -0.585593 -0.732232 9
3.46241 -1.30821 0.845099 59
3.48719 -0.643735 0.939582 61
2.8394 -1.07256 0.474122 15
3.5058 -0.653416 0.685819 62
3.49468 -0.656371 0.431717 59
3.508 -0.661371 0.185269 62
2.69266 -1.0176 -0.149523 8
3.51447 -0.663846 -0.0618251 64
3.48347 -1.31898 -0.452405 65
3.52395 -0.664998 -0.31009 67
2.08912 -0.791254 -0.426645 15
3.51617 -0.661666 -0.561827 65
2.05791 -0.781035 -0.580024 76
3.1469 -0.589324 -0.729985 9
3.45529 -1.32693 0.845099 58
3.48614 -0.662432 0.940228 64
2.83835 -1.08918 0.474903 12
3.49751 -0.670845 0.684866 64
3.49363 -0.675128 0.432021 59
2.25208 -0.863909 0.0414931 12
3.50204 -0.679258 0.185138 61
3.51094 -0.682238 -0.0618251 64
3.47421 -1.33631 -0.452101 64
3.52042 -0.68344 -0.31009 67
2.08724 -0.803064 -0.427121 42
3.51266 -0.680068 -0.561827 64
2.0583 -0.79354 -0.581317 77
3.12462 -0.602135 -0.725493 11
3.4532 -1.33235 0.845099 58
3.48735 -0.668967 0.940874 64
3.50115 -0.677875 0.685819 61
3.49976 -0.682639 0.432934 61
2.24357 -0.865136 0.0413622 20
3.50085 -0.685369 0.185138 59
3.50975 -0.688365 -0.0618251 64
3.47881 -1.34506 -0.453014 58
3.51677 -0.689108 -0.309873 67
2.08355 -0.805819 -0.426645 47
3.51146 -0.686197 -0.561827 64
2.04791 -0.793635 -0.57873 74
3.12357 -0.607587 -0.725493 12
3.45501 -1.35458 0.847345 59
3.48617 -0.687682 0.94152 62
3.49996 -0.696673 0.686296 61
3.49857 -0.701439 0.433238 61
2.23203 -0.874133 0.0412313 20
3.49721 -0.70369 0.185138 61
3.511 -0.707714 -0.0619124 64
3.51556 -0.708 -0.31009 67
2.08158 -0.817616 -0.427121 29
3.51267 -0.70554 -0.56261 64
2.05271 -0.80789 -0.581317 73
3.10601 -0.62109 -0.722124 14
3.45968 -1.36268 0.849029 61
3.48971 -0.694702 0.942813 64
3.4421 -1.35576 0.579093 53
3.50355 -0.703741 0.687249 64
3.49734 -0.707544 0.433238 59
2.23747 -0.880778 0.0413622 20
3.50822 -0.71226 0.185793 65
3.50731 -0.713345 -0.0618688 64
3.51188 -0.713643 -0.309873 67
2.10069 -0.829372 -0.431406 18
3.51385 -0.712157 -0.563002 64
2.04232 -0.807913 -0.57873 70
3.10014 -0.625553 -0.721001 14
3.45677 -1.38319 0.850152 61
3.48602 -0.712964 0.942813 62
3.46017 -1.38386 0.583385 61
3.49982 -0.722076 0.687249 67
3.48873 -0.724844 0.43263 59
2.23515 -0.89341 0.0414058 14
3.50444 -0.730619 0.185793 64
3.50352 -0.7317 -0.0618688 64
3.5104 -0.733139 -0.31009 67
2.11226 -0.846762 -0.434739 15
3.51249 -0.731045 -0.563393 64
2.04478 -0.821299 -0.58067 67
3.09921 -0.642268 -0.721563 14
3.46339 -1.39286 0.852398 61
3.48477 -0.719048 0.942813 62
3.46004 -1.39082 0.583775 61
3.50083 -0.729291 0.687725 65
3.49474 -0.732449 0.433542 59
2.24503 -0.902367 0.041624 12
3.5056 -0.737245 0.185923 62
2.22131 -0.89327 -0.124055 32
3.50713 -0.738838 -0.061956 64
2.10623 -0.84861 -0.433787 15
3.51363 -0.737679 -0.563785 65
2.04768 -0.827035 -0.581964 62
3.08616 -0.645202 -0.718755 14
3.46032 -1.41343 0.853522 61
3.48556 -0.738886 0.944105 62
3.46389 -1.41419 0.585727 62
3.49696 -0.747611 0.687725 67
3.49073 -0.751346 0.433542 61
2.26341 -0.923567 0.0420603 14
3.504 -0.756725 0.186054 61
2.22585 -0.908668 -0.124581 52
3.50309 -0.757802 -0.061956 64
2.11296 -0.864648 -0.436168 45
3.51455 -0.757099 -0.564568 64
2.05002 -0.840498 -0.583903 49
3.085 -0.662398 -0.719316 14
3.45133 -1.41608 0.851837 58
3.48426 -0.744969 0.944105 65
3.45481 -1.41682 0.584556 59
3.49805 -0.754227 0.688202 67
2.3644 -0.969177 0.220504 3
3.49682 -0.758397 0.434455 61
2.26642 -0.929415 0.0421476 15
3.50037 -0.761701 0.185923 62
2.22426 -0.912552 -0.124581 52
3.50176 -0.763915 -0.061956 62
2.10918 -0.8674 -0.435692 41
3.51322 -0.763232 -0.564568 64
3.07681 -0.665708 -0.717632 12
3.45736 -1.43976 0.855206 61
3.48045 -0.762595 0.944105 64
3.45419 -1.43774 0.585727 59
3.4894 -0.77087 0.687249 61
2.35716 -0.980175 0.220286 3
3.4928 -0.776695 0.434455 61
3.49877 -0.780558 0.186054 62
2.22192 -0.924759 -0.124712 50
3.50029 -0.782171 -0.0619997 64
2.2242 -0.92707 -0.291158 50
2.08438 -0.869547 -0.431406 52
3.50917 -0.781617 -0.564568 64
3.0828 -0.683905 -0.719878 9
3.4551 -1.44519 0.855206 61
3.48383 -0.769704 0.945397 62
3.45851 -1.44663 0.586897 61
3.49044 -0.77749 0.687725 61
2.36694 -0.989095 0.221376 3
3.49386 -0.78333 0.434759 61
3.49253 -0.785575 0.185793 59
2.22721 -0.931529 -0.125106 49
3.49892 -0.788279 -0.0619997 64
2.22715 -0.93287 -0.291766 50
2.07834 -0.871283 -0.430454 45
3.51021 -0.788278 -0.564959 65
3.0816 -0.689284 -0.719878 9
3.45171 -1.46577 0.856329 59
3.48446 -0.788994 0.94669 62
3.45316 -1.46568 0.587287 59
3.4935 -0.797383 0.689155 67
2.35943 -1.0005 0.221158 2
3.49213 -0.802165 0.435064 62
3.49324 -0.804965 0.186054 59
2.22443 -0.944543 -0.125237 50
3.49474 -0.806588 -0.0619997 61
2.21995 -0.943547 -0.291462 50
2.06923 -0.880229 -0.429502 24
3.50845 -0.807197 -0.565351 64
3.07795 -0.70541 -0.719878 11
3.45139 -1.47274 0.856891 59
3.48308 -0.795075 0.94669 64
3.45514 -1.47365 0.588068 59
3.48958 -0.803542 0.688679 61
2.36456 -1.00755 0.221811 2
3.49556 -0.809372 0.435672 62
3.49669 -0.812184 0.186316 64
2.22508 -0.949405 -0.125368 49
2.22515 -0.950348 -0.292375 50
2.07897 -0.88867 -0.431882 21
3.50944 -0.813874 -0.565742 65
3.07434 -0.710236 -0.719316 11
3.4456 -1.49237 0.857452 59
3.48108 -0.814455 0.947336 62
3.45391 -1.49526 0.589239 61
3.4901 -0.822922 0.689632 65
2.35221 -1.01736 0.221158 3
3.4863 -0.827134 0.435064 59
2.03486 -0.880319 0.0380899 12
3.49224 -0.831091 0.186316 64
2.22465 -0.963029 -0.125631 49
2.96594 -0.707669 -0.052619 15
2.21997 -0.962373 -0.292375 50
2.21369 -0.960555 -0.461405 47
3.50739 -0.833417 -0.566134 65
2.2246 -0.967124 -0.64016 55
3.0752 -0.727975 -0.72044 9
3.45219 -1.50167 0.859698 59
3.48201 -0.821081 0.947982 62
3.45809 -1.50425 0.590409 59
3.48627 -0.828448 0.689155 64
2.355 -1.02345 0.221593 2
3.48968 -0.834365 0.435672 61
2.03332 -0.883869 0.0380899 11
3.49322 -0.837764 0.186447 64
2.22526 -0.967907 -0.125762 49
2.95498 -0.710522 -0.0524445 24
2.22056 -0.967238 -0.292679 50
2.18727 -0.953614 -0.456167 47
3.50833 -0.840109 -0.566525 64
2.22954 -0.973909 -0.6421 56
3.06681 -0.731656 -0.718755 11
3.45293 -1.52426 0.861944 59
3.48001 -0.839864 0.948628 62
3.45016 -1.52233 0.590409 59
3.48904 -0.84842 0.690585 62
2.35189 -1.03677 0.221811 2
3.48286 -0.852039 0.435368 59
2.15443 -0.950048 0.0404896 14
3.48636 -0.855451 0.186316 59
2.22016 -0.979545 -0.125762 49
2.95364 -0.726577 -0.0524881 33
2.22001 -0.98086 -0.293288 50
2.22488 -0.983938 -0.465214 50
3.50643 -0.85844 -0.566917 64
2.22883 -0.987528 -0.643393 59
3.05347 -0.745407 -0.716509 11
3.44608 -1.52771 0.860821 58
3.48088 -0.846504 0.949275 62
3.45228 -1.52975 0.59119 59
3.48994 -0.855089 0.691062 67
2.35691 -1.04391 0.222465 3
3.48874 -0.859279 0.436281 62
2.14134 -0.948737 0.0402714 14
3.49228 -0.862713 0.186709 61
2.22073 -0.984432 -0.125893 47
2.94994 -0.731134 -0.0524445 33
2.223 -0.986362 -0.293896 50
2.2254 -0.988817 -0.46569 50
3.50493 -0.864558 -0.566917 64
2.22931 -0.9924 -0.64404 58
3.06649 -0.75367 -0.719878 11
3.44469 -1.54873 0.862506 55
3.47655 -0.864112 0.949275 62
3.45548 -1.55287 0.593141 61
3.48795 -0.873335 0.691538 65
2.35841 -1.05889 0.223119 3
3.48179 -0.876931 0.435976 61
2.1821 -0.980072 0.041144 27
3.49498 -0.882811 0.187101 64
2.218 -0.996683 -0.126025 50
2.98984 -0.757032 -0.0532298 33
2.21781 -0.997988 -0.293896 50
2.22708 -1.0031 -0.467119 50
3.50754 -0.8847 -0.568091 64
2.23306 -1.00765 -0.646626 58
3.05305 -0.767354 -0.717632 11
3.44004 -1.55313 0.861944 61
3.47504 -0.870178 0.949275 58
3.43252 -1.54975 0.589629 61
3.4888 -0.880019 0.692015 65
2.34975 -1.05992 0.222465 3
3.48266 -0.883614 0.436281 61
2.18722 -0.986968 0.0412749 32
3.49102 -0.888297 0.18697 64
2.22308 -1.00364 -0.126418 49
2.94974 -0.752425 -0.0525317 15
2.22284 -1.00493 -0.294809 52
3.50179 -0.891681 -0.312482 65
2.22756 -1.00799 -0.467595 50
3.50838 -0.891425 -0.568483 64
2.2335 -1.01254 -0.647273 58
3.00446 -0.760796 -0.706401 9
3.44708 -1.57883 0.865875 73
3.47746 -0.890149 0.951213 62
3.41762 -1.56461 0.588458 17
3.49127 -0.900102 0.693444 65
2.35322 -1.07636 0.223337 3
3.48039 -0.902457 0.436585 61
3.47907 -0.904689 0.186578 62
2.21988 -1.01669 -0.12655 49
3.10305 -0.808594 -0.0553678 8
2.21755 -1.01655 -0.294809 52
3.49692 -0.910615 -0.312482 61
2.22448 -1.02067 -0.468071 50
3.50606 -0.9104 -0.568874 64
2.23036 -1.02523 -0.647919 58
2.93673 -0.760137 -0.69124 4
3.44211 -1.58383 0.865314 49
3.48058 -0.897416 0.952506 62
3.40367 -1.56541 0.586507 55
3.48716 -0.906189 0.692968 65
2.34229 -1.0763 0.222465 3
3.48361 -0.909777 0.437193 62
2.22718 -1.02474 -0.127075 50
2.22478 -1.02458 -0.296026 52
3.48327 -0.913573 -0.311395 53
2.22715 -1.02661 -0.469023 50
3.50685 -0.91714 -0.569266 62
2.22838 -1.02951 -0.647919 58
2.92125 -0.761597 -0.687871 12
3.44453 -1.60758 0.868121 55
3.47801 -0.916847 0.953152 64
3.39515 -1.58381 0.586507 58
3.48712 -0.925689 0.693921 65
2.34094 -1.09107 0.222901 2
3.47864 -0.928612 0.437193 61
2.99965 -0.803656 0.160933 32
2.22178 -1.03639 -0.127075 50
2.94261 -0.789563 -0.0525754 3
2.21921 -1.0366 -0.296026 52
3.44234 -0.922181 -0.308133 39
2.22823 -1.04176 -0.470452 50
3.50439 -0.936123 -0.569657 62
2.23171 -1.04527 -0.650506 58
2.90295 -0.77365 -0.684502 11
3.44641 -1.61506 0.869244 64
3.47874 -0.923532 0.953798 62
3.39266 -1.58914 0.586507 55
3.49024 -0.933035 0.694874 65
2.35482 -1.10255 0.224426 3
3.48197 -0.935356 0.437802 61
2.99356 -0.807075 0.160671 32
2.22449 -1.04239 -0.127337 50
2.22207 -1.04219 -0.296634 50
3.40224 -0.91786 -0.304654 29
2.22641 -1.04565 -0.470452 50
3.5099 -0.944153 -0.570832 62
2.23207 -1.05019 -0.651152 59
2.92292 -0.783854 -0.689556 8
3.44671 -1.63727 0.87149 61
3.48101 -0.943013 0.955737 64
3.39098 -1.61006 0.587678 55
3.48767 -0.95194 0.695351 65
2.34921 -1.11446 0.224426 29
3.47702 -0.953575 0.437802 62
2.98929 -0.822738 0.160671 47
2.219 -1.05402 -0.127337 49
2.22106 -1.05595 -0.297243 50
3.38778 -0.93303 -0.303784 15
2.22534 -1.05941 -0.471404 50
3.50491 -0.962517 -0.570832 62
2.23307 -1.06499 -0.653092 59
2.92804 -0.802216 -0.691802 3
3.44604 -1.64433 0.872052 61
3.47687 -0.949061 0.95509 62
3.39457 -1.61976 0.588848 55
3.48584 -0.958634 0.695351 64
3.48237 -0.962222 0.438714 62
2.97808 -0.825822 0.160148 47
2.22148 -1.06043 -0.1276 50
2.22351 -1.06235 -0.297851 50
2.22551 -1.06474 -0.47188 50
3.50306 -0.969244 -0.570832 61
2.2332 -1.07032 -0.653739 59
2.97348 -0.820726 -0.703032 4
3.44061 -1.66688 0.873175 61
3.47832 -0.971009 0.957029 61
3.38741 -1.64036 0.589239 55
3.48516 -0.979409 0.696304 64
3.47915 -0.982934 0.439019 64
2.97087 -0.842283 0.160017 49
2.22226 -1.07609 -0.127994 49
2.21959 -1.07623 -0.298155 50
2.22615 -1.08037 -0.473309 50
3.50455 -0.991411 -0.572007 61
2.2337 -1.08595 -0.655679 49
3.03218 -0.855075 -0.718193 9
3.44455 -1.67548 0.87486 61
3.47895 -0.977729 0.957675 62
3.34679 -1.62789 0.582605 15
3.48581 -0.986155 0.696781 64
3.47505 -0.988329 0.438714 59
1.99402 -0.969284 0.0380899 3
2.96219 -0.845423 0.159625 45
2.22038 -1.07997 -0.127994 49
3.10253 -0.886404 -0.0557168 11
2.22439 -1.08336 -0.299068 50
2.72255 -0.777949 -0.244202 9
2.22647 -1.08533 -0.473785 50
3.50756 -0.998873 -0.57279 61
2.21879 -1.08348 -0.651799 23
3.0049 -0.853087 -0.712017 9
3.43981 -1.69625 0.875983 61
3.47843 -0.997256 0.958968 61
3.43788 -1.69456 0.600165 59
3.48295 -1.00507 0.697257 64
3.48174 -1.00995 0.440236 62
1.9934 -0.981924 0.0381771 9
2.95533 -0.860227 0.159494 50
2.21469 -1.09158 -0.127994 50
3.05703 -0.89081 -0.0549751 18
2.22092 -1.09609 -0.299372 52
2.70408 -0.788037 -0.242897 9
2.22296 -1.09806 -0.474261 49
3.50484 -1.0173 -0.573181 65
2.23472 -1.1058 -0.658265 53
3.01912 -0.8742 -0.716509 11
3.44151 -1.70381 0.877106 61
3.479 -1.00399 0.959614 59
3.44849 -1.70654 0.602506 62
3.48827 -1.01319 0.698687 68
3.47777 -1.01473 0.439931 61
2.95158 -0.86417 0.159363 49
2.21726 -1.09766 -0.128256 49
3.01708 -0.884946 -0.054277 17
2.21919 -1.09958 -0.299372 50
2.69792 -0.791362 -0.242462 9
2.22763 -1.10521 -0.47569 49
3.50543 -1.0241 -0.573573 62
2.20252 -1.09464 -0.649213 53
3.02242 -0.880297 -0.717632 11
3.43471 -1.7229 0.877667 59
3.47388 -1.02159 0.959614 61
3.44833 -1.729 0.604067 62
3.48545 -1.03153 0.699164 67
3.47955 -1.03504 0.440844 61
2.96616 -0.885295 0.16041 44
2.2139 -1.10999 -0.128388 50
2.99339 -0.894509 -0.0539279 30
2.21784 -1.11341 -0.299981 50
2.67717 -0.800044 -0.24094 9
2.22201 -1.11648 -0.47569 49
3.5002 -1.04183 -0.573573 62
2.1948 -1.10468 -0.648566 17
3.02945 -0.899559 -0.72044 11
3.44071 -1.73268 0.879913 59
3.47209 -1.02765 0.959614 61
3.44561 -1.73441 0.604067 61
3.48835 -1.039 0.700117 67
3.48505 -1.04262 0.441757 62
2.96237 -0.889239 0.160279 44
2.21419 -1.11498 -0.128519 49
2.97985 -0.896151 -0.0537098 36
2.22273 -1.12025 -0.300894 50
2.68293 -0.806855 -0.241592 9
2.22663 -1.12367 -0.477118 50
3.50547 -1.05006 -0.574747 62
2.16055 -1.09215 -0.638867 15
3.43809 -1.75399 0.881598 61
3.47147 -1.0466 0.960906 61
3.44528 -1.75692 0.605628 61
3.48539 -1.05736 0.700593 67
3.47955 -1.06086 0.441757 62
2.97439 -0.909824 0.161195 52
2.21741 -1.13071 -0.129044 50
2.9681 -0.909037 -0.0535789 38
2.21904 -1.133 -0.301198 49
2.68357 -0.821874 -0.242027 9
2.2231 -1.13605 -0.477594 50
3.49775 -1.06707 -0.574356 62
2.14854 -1.09977 -0.636927 14
3.44184 -1.76273 0.883282 61
3.47195 -1.05335 0.961553 62
3.44472 -1.76346 0.606018 61
3.48589 -1.06415 0.70107 67
3.26113 -1.6694 0.317465 18
3.4755 -1.0656 0.441453 61
2.9658 -0.912304 0.160802 44
2.21322 -1.13344 -0.128913 50
2.96173 -0.912751 -0.0534916 44
2.22609 -1.14102 -0.302415 50
2.6869 -0.828015 -0.242462 9
2.22766 -1.14329 -0.479023 49
3.50533 -1.07606 -0.575922 62
2.12086 -1.09025 -0.629167 14
2.28536 -0.700735 -0.542997 14
3.43689 -1.78297 0.884405 61
3.47119 -1.07233 0.962845 61
3.4442 -1.78602 0.607579 61
3.48046 -1.08178 0.70107 62
3.43171 -1.77879 0.335114 59
3.47461 -1.08525 0.442061 61
2.96337 -0.928563 0.160933 52
2.21853 -1.15038 -0.129569 49
2.95469 -0.926985 -0.053448 45
2.22669 -1.15609 -0.303328 52
2.68505 -0.842346 -0.242679 9
2.2262 -1.15682 -0.479975 50
3.502 -1.09513 -0.576313 62
2.10674 -1.09651 -0.626581 15
2.27933 -0.71197 -0.542435 14
3.4384 -1.79062 0.885529 59
3.47393 -1.07982 0.964137 61
3.44108 -1.79203 0.607579 61
3.48794 -1.09077 0.702976 67
3.39768 -1.76866 0.332063 59
3.47508 -1.09206 0.442365 62
2.94506 -0.928505 0.160017 52
2.21873 -1.15541 -0.1297 50
2.95068 -0.931392 -0.0534044 49
2.22687 -1.16113 -0.303632 55
2.68595 -0.847776 -0.242897 9
2.22853 -1.16297 -0.480927 56
3.50009 -1.10124 -0.576313 65
2.08343 -1.08898 -0.620114 15
2.26646 -0.712318 -0.539628 14
3.43728 -1.81375 0.887775 59
3.47283 -1.09944 0.96543 62
3.44038 -1.81463 0.60914 61
3.48218 -1.10902 0.702976 64
3.44564 -1.81665 0.337729 62
3.47877 -1.11325 0.443582 61
2.93303 -0.941634 0.159625 49
2.21927 -1.1705 -0.130094 59
2.93386 -0.943023 -0.0531862 47
2.22296 -1.17393 -0.303936 64
2.68148 -0.861828 -0.242897 9
2.22891 -1.17807 -0.482356 74
3.49447 -1.11894 -0.576313 59
2.06917 -1.09535 -0.617528 14
2.25109 -0.720486 -0.53682 14
3.43873 -1.82142 0.888898 61
3.47321 -1.10623 0.966076 62
3.44408 -1.8235 0.610311 59
3.48492 -1.11659 0.70393 65
3.43366 -1.818 0.336857 62
3.47466 -1.11796 0.443278 61
2.92441 -0.943951 0.159232 50
2.22384 -1.17789 -0.130488 82
2.92269 -0.94508 -0.0530117 49
2.22549 -1.17975 -0.304545 76
2.68471 -0.868032 -0.243332 9
2.23336 -1.18541 -0.483784 86
2.05233 -1.09102 -0.613002 15
2.24299 -0.721797 -0.535136 14
3.43344 -1.84171 0.890021 59
3.47676 -1.12676 0.968661 61
3.44101 -1.84501 0.611481 61
3.48156 -1.13497 0.704406 59
3.40247 -1.82358 0.334678 62
3.47347 -1.13767 0.443887 62
2.91231 -0.956923 0.15884 50
2.22225 -1.19149 -0.130751 90
2.91074 -0.957529 -0.0528808 50
2.2171 -1.19021 -0.30424 71
2.68028 -0.881609 -0.243332 9
2.21868 -1.19205 -0.48188 44
2.03615 -1.09566 -0.609768 14
2.2276 -0.729763 -0.532328 14
3.44341 -1.85403 0.89339 59
3.47708 -1.13358 0.969307 61
3.44213 -1.85336 0.612262 59
3.40805 -1.83424 0.33555 47
3.44319 -1.13445 0.440236 62
2.90352 -0.959665 0.158447 49
2.21578 -1.19299 -0.130488 53
2.90432 -0.961045 -0.0527935 50
2.21065 -1.19172 -0.303632 35
2.68347 -0.887842 -0.243767 9
2.20148 -1.18776 -0.478547 30
2.01725 -1.09002 -0.604595 14
2.21474 -0.729862 -0.52952 14
3.43514 -1.8744 0.893951 61
3.46861 -1.15161 0.968661 61
3.43856 -1.87551 0.613432 61
3.41557 -1.8622 0.337293 47
3.46524 -1.1625 0.443887 61
2.89829 -0.975361 0.158447 50
2.19833 -1.19898 -0.129832 29
2.89671 -0.97595 -0.0527499 50
2.19111 -1.19652 -0.301806 26
2.67863 -0.902348 -0.243767 9
2.17995 -1.1914 -0.475213 29
1.99438 -1.09163 -0.599422 14
2.21076 -0.741834 -0.52952 14
3.43646 -1.88214 0.895074 59
3.47347 -1.15995 0.970599 61
3.4421 -1.88446 0.614603 59
2.90574 -0.976785 0.588594 11
3.42323 -1.87414 0.338382 55
2.88729 -0.976727 0.157924 49
2.18091 -1.19441 -0.128913 24
2.89026 -0.979407 -0.0526626 53
2.16965 -1.18921 -0.299068 26
2.69357 -0.912588 -0.245289 9
2.17142 -1.19166 -0.473785 27
1.97978 -1.08813 -0.595543 12
2.19343 -0.739889 -0.52559 14
3.43934 -1.9072 0.898444 61
3.46984 -1.17829 0.971246 61
3.43651 -1.90486 0.615384 59
2.8845 -0.985949 0.585258 11
3.43766 -1.90473 0.340779 62
2.15935 -1.19733 -0.127994 24
2.8829 -0.993213 -0.052619 55
2.15038 -1.19333 -0.297243 26
2.70054 -0.930717 -0.246376 9
2.15035 -1.19428 -0.470452 27
2.17569 -0.746649 -0.52222 14
3.43814 -1.91439 0.899005 61
3.47006 -1.18512 0.971892 62
3.43965 -1.91446 0.616554 59
2.87563 -0.989101 0.583828 9
3.43433 -1.91072 0.340779 61
2.9248 -1.00988 0.375128 11
2.15072 -1.19745 -0.1276 24
2.88116 -0.998243 -0.052619 55
2.13746 -1.19103 -0.295722 24
2.71539 -0.94111 -0.247898 9
2.12897 -1.18727 -0.466166 29
2.23768 -0.77472 -0.369984 14
2.16286 -0.746495 -0.519413 14
3.43621 -1.93775 0.901251 61
3.4636 -1.20388 0.971892 61
3.43569 -1.93668 0.617725 59
2.85187 -0.997691 0.580015 11
3.43913 -1.93784 0.342304 59
2.89119 -1.01587 0.371477 11
2.1292 -1.20011 -0.126681 24
2.87572 -1.01382 -0.052619 55
2.12018 -1.19648 -0.2942 24
2.73628 -0.964379 -0.25029 9
2.10756 -1.19031 -0.462833 26
2.21961 -0.781534 -0.367635 12
2.14499 -0.753372 -0.516044 14
3.43529 -1.94435 0.901813 61
3.46149 -1.20992 0.971892 61
3.43265 -1.94207 0.617725 58
2.83854 -0.998613 0.577632 9
3.44441 -1.94875 0.343176 61
2.8849 -1.01876 0.370869 12
2.1119 -1.19521 -0.125762 24
2.88338 -1.02216 -0.0527935 55
2.10103 -1.19001 -0.291766 23
2.76278 -0.97909 -0.2529 9
2.09054 -1.1855 -0.4595 29
2.21359 -0.783768 -0.366852 12
2.12771 -0.751099 -0.512113 14
3.42294 -1.96109 0.901251 58
3.46216 -1.22984 0.97383 59
3.43957 -1.96984 0.620847 59
2.8427 -1.01626 0.579538 9
3.4345 -1.96616 0.343176 61
2.86551 -1.02884 0.369043 12
1.83316 -1.04911 0.0362574 65
2.08828 -1.19631 -0.124712 24
2.87817 -1.03674 -0.0527935 55
2.08186 -1.19358 -0.289941 24
2.77637 -1.00027 -0.254639 9
2.07388 -1.18996 -0.457119 30
2.20248 -0.792853 -0.365677 12
2.10539 -0.755685 -0.507621 14
3.43218 -1.97436 0.90462 61
3.46228 -1.23669 0.974477 61
3.43613 -1.97584 0.620847 59
2.8315 -1.01841 0.577632 8
3.44402 -1.9796 0.344483 61
2.86605 -1.03468 0.369348 14
1.83114 -1.05263 0.0362574 65
2.07754 -1.19497 -0.124187 24
2.874 -1.04092 -0.0527499 55
2.06042 -1.18606 -0.287203 24
2.80742 -1.01693 -0.257684 9
2.05479 -1.18376 -0.45331 30
2.1918 -0.793354 -0.364111 12
2.0926 -0.755248 -0.504813 14
3.42777 -1.99658 0.906305 59
3.46008 -1.25705 0.975769 61
3.43605 -2.00062 0.622798 59
2.82613 -1.03322 0.577632 4
3.44186 -2.00322 0.345355 61
2.85807 -1.04932 0.369043 15
1.82993 -1.06472 0.0363446 61
2.054 -1.19577 -0.123137 26
2.87302 -1.05817 -0.0528372 55
2.04755 -1.19344 -0.28629 26
2.81141 -1.03504 -0.258554 8
2.03988 -1.18991 -0.451405 29
2.18052 -0.802656 -0.362936 12
2.08619 -0.765725 -0.504251 15
3.43093 -2.00565 0.90799 59
3.46015 -1.26391 0.976415 61
3.43469 -2.00786 0.623188 59
2.83124 -1.04068 0.579062 2
3.44481 -2.01299 0.346008 59
2.85158 -1.0526 0.368435 15
1.83022 -1.06918 0.0363883 64
2.04114 -1.19305 -0.12248 26
2.87352 -1.06405 -0.0528808 55
2.03047 -1.18823 -0.28416 26
2.8096 -1.03995 -0.258554 8
2.0251 -1.18602 -0.448548 29
2.16057 -0.799643 -0.359804 12
2.07571 -0.766011 -0.502005 15
3.42632 -2.02791 0.909674 59
3.45802 -1.28369 0.977708 61
3.42838 -2.02834 0.623969 59
2.83725 -1.05976 0.581445 3
3.43422 -2.031 0.346008 59
2.84836 -1.06838 0.368739 15
2.01768 -1.19354 -0.12143 26
2.87025 -1.07996 -0.0529244 55
2.01142 -1.19125 -0.282335 26
2.80878 -1.05639 -0.258989 8
2.01253 -1.19285 -0.44712 29
2.14031 -0.804521 -0.357064 12
2.07623 -0.77857 -0.503128 27
3.43151 -2.03827 0.91192 59
3.4603 -1.29141 0.979 61
3.43368 -2.03876 0.625529 58
2.81931 -1.0587 0.578109 4
3.44352 -2.04463 0.347316 61
2.84667 -1.07285 0.368739 14
2.00701 -1.19196 -0.120905 24
2.86836 -1.08496 -0.0529244 53
1.99249 -1.18426 -0.279901 26
1.99568 -1.18757 -0.443787 30
2.12272 -0.80218 -0.354323 12
2.06816 -0.779268 -0.501444 52
3.42496 -2.05872 0.913043 61
3.45824 -1.31061 0.980292 61
3.42507 -2.05799 0.62592 59
3.43953 -2.06588 0.347969 61
1.98791 -1.19473 -0.120117 26
2.85816 -1.09768 -0.0528372 49
1.98413 -1.19339 -0.279597 26
1.97704 -1.19005 -0.44093 30
2.13002 -0.817684 -0.356281 14
2.06405 -0.790087 -0.501444 35
3.43179 -2.07099 0.915851 61
3.46046 -1.31836 0.981585 61
3.42993 -2.06907 0.627481 58
3.44018 -2.07445 0.348405 59
1.97513 -1.19174 -0.119461 26
2.86324 -1.10536 -0.052968 47
1.96718 -1.18787 -0.277467 27
1.95816 -1.18334 -0.43712 32
2.11245 -0.815212 -0.35354 12
2.06267 -0.793688 -0.501444 15
3.42677 -2.09334 0.917536 61
3.45553 -1.33793 0.982231 59
3.42501 -2.09146 0.628651 59
3.43542 -1.33701 0.709172 49
3.42891 -2.09304 0.348405 59
3.46699 -1.35409 0.452101 64
1.95396 -1.19295 -0.118542 27
2.8642 -1.12356 -0.0530989 47
1.944 -1.18779 -0.275033 27
1.93917 -1.18622 -0.434263 32
2.11736 -0.829846 -0.355106 12
2.05394 -0.802713 -0.500321 15
3.42971 -2.10254 0.91922 61
3.45544 -1.34483 0.982877 59
3.43435 -2.10458 0.630993 61
3.46281 -1.35459 0.715368 64
3.43836 -2.10623 0.349712 65
3.47156 -1.36285 0.453014 64
1.94336 -1.19113 -0.118017 27
1.93347 -1.18599 -0.273816 29
2.1343 -0.840741 -0.358238 15
2.05027 -0.805411 -0.499759 17
3.42937 -2.1263 0.922028 67
3.45782 -1.36524 0.985462 59
3.42155 -2.12063 0.630602 62
3.46756 -1.37601 0.717751 64
3.42765 -2.12361 0.349712 65
3.46923 -1.38223 0.453622 62
2.38736 -0.95471 0.132933 3
1.92479 -1.19272 -0.117229 27
1.91901 -1.19052 -0.272599 27
2.22875 -0.892082 -0.206582 20
2.13002 -0.851533 -0.358238 15
2.04843 -0.816676 -0.500321 18
3.43016 -2.13426 0.923151 68
3.45992 -1.37305 0.986754 59
3.43462 -2.13705 0.633724 73
3.46971 -1.38387 0.718704 64
3.43874 -2.1388 0.351238 79
3.46681 -1.38829 0.453622 64
2.39032 -0.960729 0.133195 3
1.91423 -1.1908 -0.116704 26
2.21882 -0.893058 -0.041144 36
1.9064 -1.1873 -0.271078 26
2.2295 -0.896896 -0.206799 47
2.14 -0.859828 -0.360196 36
2.03795 -0.816645 -0.498075 21
3.4165 -2.15149 0.922589 62
3.45268 -1.39114 0.986754 59
3.41502 -2.14973 0.632163 42
3.4647 -1.40294 0.719181 64
3.42328 -2.15412 0.350802 41
3.46639 -1.40921 0.454535 65
2.37832 -0.970414 0.132802 3
1.89508 -1.19315 -0.115916 27
2.21874 -0.906545 -0.0412313 47
1.88757 -1.18932 -0.269253 27
2.22692 -0.909883 -0.207017 47
2.1286 -0.868238 -0.359021 38
2.04268 -0.830956 -0.500321 20
3.39422 -2.14572 0.917536 24
3.45921 -1.40078 0.989339 59
3.38413 -2.13853 0.62709 24
3.47109 -1.41327 0.721087 65
3.38794 -2.14013 0.347534 23
3.46622 -1.4162 0.454839 64
2.37431 -0.973621 0.132672 3
1.88034 -1.18844 -0.115129 32
2.21947 -0.911361 -0.0412749 47
2.22303 -0.912827 -0.206799 49
2.12251 -0.870088 -0.358238 15
2.04349 -0.835437 -0.500882 21
3.36409 -2.15224 0.912482 20
3.45605 -1.42131 0.990632 59
3.36003 -2.14883 0.624749 20
3.46592 -1.43236 0.721564 62
3.36582 -2.15172 0.346444 21
3.4608 -1.43588 0.455143 65
2.38054 -0.99123 0.133326 2
1.87199 -1.19692 -0.114997 32
2.21912 -0.925271 -0.0413622 47
2.22512 -0.927314 -0.207452 47
2.12005 -0.882503 -0.35863 15
2.04344 -0.848339 -0.502005 35
3.35046 -2.15093 0.909674 18
3.45803 -1.42918 0.991924 59
3.33135 -2.13867 0.620066 20
3.46795 -1.44029 0.722517 64
3.33901 -2.14278 0.344047 21
3.46517 -1.44477 0.456056 64
2.37881 -0.995383 0.133326 2
1.8615 -1.19479 -0.114472 14
2.21981 -0.930104 -0.0414058 45
2.2235 -0.931197 -0.207452 49
2.11623 -0.885254 -0.358238 15
3.31222 -2.15177 0.902374 41
3.45273 -1.44819 0.99257 58
3.31803 -2.15474 0.619676 45
3.46488 -1.46033 0.72347 64
3.31939 -2.15481 0.343176 35
3.45984 -1.46386 0.45636 62
2.37816 -1.00977 0.133588 2
2.21031 -0.939767 -0.0413186 36
2.22777 -0.946704 -0.208322 47
3.3068 -2.15564 0.901813 8
3.45687 -1.45702 0.994509 59
3.3122 -2.15918 0.619286 2
3.46459 -1.46733 0.723947 62
3.32606 -2.1674 0.344265 9
3.46414 -1.4728 0.457273 64
1.77392 -1.15563 0.0363446 20
2.21787 -0.947533 -0.0414931 29
2.07825 -1.35623 -0.299981 47
2.22382 -0.949617 -0.208104 47
3.1132 -2.034 -0.714725 12
3.30932 -2.18289 0.905743 2
3.45142 -1.47605 0.995155 58
3.3194 -2.18873 0.622798 4
3.46588 -1.48931 0.725853 64
3.31258 -2.18342 0.344047 11
3.45638 -1.49092 0.457273 62
1.75324 -1.15527 0.0360392 20
2.21976 -0.962102 -0.041624 44
2.07733 -1.3712 -0.300894 47
2.22339 -0.963219 -0.208539 45
3.1066 -2.05298 -0.715677 12
2.22547 -0.962763 -0.378989 47
3.30791 -2.18943 0.906305 2
3.4555 -1.48492 0.997094 58
3.30322 -2.18634 0.620457 4
3.46779 -1.4973 0.726806 67
3.31084 -2.19057 0.344265 3
3.46288 -1.50088 0.45849 64
1.73246 -1.1459 0.0356465 26
2.21808 -0.965974 -0.041624 45
2.077 -1.3762 -0.301198 45
2.22628 -0.969077 -0.208974 47
3.11733 -2.0679 -0.71901 12
2.22605 -0.967626 -0.37938 47
3.27578 -2.19373 0.90069 9
3.45432 -1.50588 0.999032 59
3.30814 -2.2146 0.623578 4
3.46665 -1.51838 0.728236 67
3.29726 -2.20649 0.344047 8
3.45952 -1.52099 0.459099 61
1.71813 -1.14939 0.035472 27
2.07647 -1.39051 -0.129569 49
2.21757 -0.979586 -0.0417112 45
2.07595 -1.3912 -0.302111 47
2.22328 -0.98211 -0.209191 47
3.10442 -2.08283 -0.718534 12
2.22774 -0.982243 -0.380555 47
2.22834 -0.979771 -0.553104 45
3.31036 -2.22528 0.911359 2
3.45833 -1.51481 1.00097 58
3.30837 -2.22312 0.624359 3
3.46597 -1.52602 0.728712 64
3.32441 -2.23308 0.347316 1
3.45913 -1.52802 0.459403 64
1.70763 -1.14711 0.0352975 45
2.07611 -1.39552 -0.1297 47
2.22043 -0.985474 -0.0417985 45
2.07558 -1.39621 -0.302415 45
2.22612 -0.988001 -0.209626 47
3.10688 -2.09236 -0.719963 12
2.22828 -0.987125 -0.380946 47
2.22886 -0.984639 -0.553666 45
3.31236 -2.25276 0.915289 2
3.44787 -1.53252 1.00032 58
3.31058 -2.25072 0.62709 3
3.46242 -1.54614 0.729666 64
3.32463 -2.25944 0.348623 3
3.45988 -1.55076 0.46062 65
1.69746 -1.15322 0.0352102 35
2.06878 -1.40638 -0.1297 45
2.21278 -0.996451 -0.0417549 45
2.07209 -1.41021 -0.303023 47
2.22774 -1.0027 -0.210279 47
3.10566 -2.11605 -0.722344 14
2.23209 -1.00281 -0.382512 47
2.22572 -0.997675 -0.554227 47
3.31083 -2.25933 0.915851 15
3.45623 -1.54344 1.00356 59
3.31928 -2.26427 0.629432 15
3.4642 -1.55418 0.730619 67
3.35154 -2.2863 0.351891 21
3.4597 -1.55721 0.460924 65
1.68926 -1.15195 0.0350793 36
2.07869 -1.41843 -0.130488 45
2.22016 -1.00442 -0.0419294 45
2.07807 -1.41907 -0.30424 45
2.22144 -1.00454 -0.209844 47
3.08373 -2.10899 -0.718058 15
2.23034 -1.0067 -0.382512 45
2.22638 -1.00217 -0.554789 49
3.38515 -2.33616 0.939997 15
3.44617 -1.55992 1.00291 62
3.32973 -2.29705 0.633724 15
3.46076 -1.57372 0.731572 71
3.41166 -2.35274 0.359517 15
3.45602 -1.57736 0.461532 65
1.6834 -1.16049 0.0350793 49
2.07764 -1.43319 -0.130882 45
2.21505 -1.01564 -0.0419294 45
2.22539 -1.0199 -0.210714 47
3.05687 -2.1134 -0.714249 15
2.22279 -1.01734 -0.382121 47
2.22332 -1.01482 -0.55535 47
3.38949 -2.34703 0.942243 12
3.44784 -1.56793 1.0042 61
3.30542 -2.28879 0.629822 12
3.46024 -1.58078 0.732049 62
3.37684 -2.33742 0.356249 14
3.45777 -1.58545 0.462141 50
1.67316 -1.15773 0.0349048 36
2.07514 -1.43682 -0.130882 45
2.21554 -1.02055 -0.041973 45
2.22361 -1.02379 -0.210714 47
3.05318 -2.11873 -0.714249 17
2.22775 -1.0243 -0.383295 45
2.22376 -1.01971 -0.555912 45
3.37275 -2.36254 0.94112 11
3.43739 -1.58495 1.00356 44
3.28126 -2.29756 0.627481 14
3.44746 -1.59682 0.731095 39
3.41147 -2.38794 0.361261 20
3.44717 -1.60249 0.461837 56
1.66298 -1.1636 0.0348176 41
2.07347 -1.45232 -0.131276 45
2.21697 -1.03529 -0.0421039 45
2.22256 -1.0379 -0.211148 45
2.22684 -1.03803 -0.384078 47
2.22502 -1.0344 -0.557597 47
3.38257 -2.37823 0.94505 11
3.44119 -1.59399 1.00549 50
3.30552 -2.32317 0.632944 14
3.45552 -1.6086 0.733478 52
3.42767 -2.40821 0.363439 21
3.45337 -1.6127 0.463054 59
1.66074 -1.16679 0.0348176 44
2.08114 -1.46313 -0.131932 45
2.21742 -1.04022 -0.0421476 45
2.223 -1.04283 -0.211366 45
2.22726 -1.04296 -0.38447 45
2.22542 -1.03931 -0.558158 47
3.38355 -2.40639 0.948981 11
3.43689 -1.61463 1.00679 59
3.24663 -2.3081 0.623969 32
3.45371 -1.6298 0.734908 59
3.42068 -2.43105 0.364093 15
3.44908 -1.63347 0.463662 56
1.6485 -1.17113 0.0346867 39
2.07752 -1.4769 -0.132195 45
2.21628 -1.05434 -0.0422348 45
2.22651 -1.05872 -0.212236 45
2.22623 -1.05672 -0.385253 47
2.21977 -1.05134 -0.558158 45
3.38769 -2.41736 0.951227 11
3.445 -1.62577 1.01002 58
3.38168 -2.41219 0.650894 11
3.45974 -1.64002 0.736815 59
3.451 -1.64102 0.464271 50
1.64849 -1.17546 0.0347303 39
2.0729 -1.47907 -0.132063 45
2.22121 -1.06142 -0.0423657 45
1.68454 -1.20252 -0.249477 14
2.22466 -1.0626 -0.212236 45
2.22885 -1.06272 -0.386036 45
2.22692 -1.05899 -0.560404 47
3.37894 -2.43792 0.95235 11
3.44327 -1.6463 1.01196 58
3.38301 -2.43998 0.653626 11
3.4536 -1.65857 0.737291 50
3.45354 -1.66444 0.465792 59
1.64252 -1.18378 0.0347303 35
2.0712 -1.49429 -0.132457 44
2.21356 -1.07157 -0.0423221 45
1.66213 -1.1997 -0.247043 15
2.21907 -1.07423 -0.212236 45
2.22548 -1.07544 -0.386427 45
2.22354 -1.07169 -0.560966 49
3.3806 -2.4481 0.954035 11
3.44474 -1.65439 1.01325 58
3.39075 -2.45457 0.655967 11
3.45262 -1.66626 0.737768 55
3.44393 -1.66722 0.464879 59
2.07061 -1.49937 -0.132588 44
2.21843 -1.0787 -0.042453 45
1.652 -1.19677 -0.245826 15
2.2284 -1.08353 -0.213323 45
2.23027 -1.08255 -0.387602 45
2.22167 -1.07557 -0.560966 45
3.37909 -2.475 0.957404 11
3.44009 -1.67511 1.01454 58
3.3834 -2.47726 0.657138 11
3.44606 -1.68539 0.738244 59
3.45046 -1.69347 0.467009 58
2.0728 -1.51757 -0.133245 44
2.21705 -1.09288 -0.0425402 44
1.6315 -1.19541 -0.243696 21
2.22269 -1.09518 -0.213323 45
1.66101 -1.21795 -0.392837 33
2.22679 -1.09529 -0.387993 45
2.22019 -1.08971 -0.562089 47
3.38305 -2.48607 0.95965 11
3.4415 -1.68323 1.01583 56
3.38945 -2.48988 0.659089 11
3.44311 -1.69141 0.738244 47
3.44334 -1.6967 0.4664 58
2.07015 -1.52118 -0.133245 44
2.21739 -1.09786 -0.0425839 44
1.62362 -1.19356 -0.242784 18
2.22301 -1.10016 -0.21354 45
1.6569 -1.21939 -0.392361 24
2.22709 -1.10027 -0.388385 45
2.22067 -1.09427 -0.56265 45
3.36998 -2.50375 0.95965 11
3.44593 -1.70704 1.01971 58
3.3724 -2.50465 0.658308 9
3.4455 -1.71426 0.740627 62
3.44107 -1.71802 0.467313 56
2.06817 -1.53647 -0.133639 44
2.22075 -1.11353 -0.0427584 44
1.60142 -1.19019 -0.24035 26
2.22391 -1.11512 -0.214193 45
1.6389 -1.21897 -0.389504 21
2.23235 -1.11742 -0.390343 45
2.22582 -1.1113 -0.565458 45
3.37342 -2.51546 0.961896 11
3.44295 -1.71306 1.01971 56
3.44879 -1.72416 0.742057 59
3.44029 -1.72513 0.467617 56
3.45546 -1.73571 0.200839 52
2.06948 -1.54306 -0.133901 44
2.2188 -1.11741 -0.0427584 44
1.59537 -1.19001 -0.239741 23
2.22641 -1.12123 -0.214628 45
1.63874 -1.22329 -0.38998 35
2.22818 -1.12021 -0.389951 45
2.21951 -1.11301 -0.564335 45
3.36365 -2.53661 0.963019 11
3.44441 -1.73708 1.02294 58
3.44848 -1.74662 0.743963 61
1.55986 -1.17456 0.167775 47
3.43976 -1.74821 0.468834 58
3.44601 -1.75438 0.200839 52
2.21272 -1.12939 -0.0427584 39
1.58099 -1.19265 -0.238524 18
2.22717 -1.13626 -0.21528 45
1.62622 -1.2277 -0.388551 36
2.2289 -1.13521 -0.391126 45
1.66911 -1.26194 -0.550925 42
2.2265 -1.1316 -0.567704 47
3.3752 -2.55365 0.967512 11
3.44353 -1.74418 1.02359 58
3.44762 -1.75374 0.74444 61
1.56178 -1.18029 0.168211 49
3.44143 -1.75586 0.469443 58
1.91196 -1.44584 0.0412313 12
3.43658 -1.75639 0.200447 44
2.21075 -1.13325 -0.0427584 24
1.57911 -1.19513 -0.238524 17
2.22518 -1.14014 -0.21528 45
1.62994 -1.23499 -0.38998 38
2.22691 -1.1391 -0.391126 45
1.68229 -1.27654 -0.556098 50
2.22038 -1.13289 -0.566581 45
3.35985 -2.56981 0.96695 11
3.44111 -1.76489 1.02553 59
3.44524 -1.77453 0.74587 61
1.55183 -1.18515 0.167775 50
3.44322 -1.77954 0.470964 59
1.89271 -1.44639 0.0409695 15
3.44065 -1.78123 0.201232 49
2.21164 -1.14787 -0.0428893 38
1.56101 -1.19432 -0.236699 18
2.22381 -1.15368 -0.215715 45
1.62562 -1.24472 -0.390456 39
2.22311 -1.15187 -0.391517 47
1.67198 -1.2821 -0.554805 45
2.22091 -1.14784 -0.568266 47
3.37126 -2.58695 0.971442 11
3.44232 -1.77309 1.02682 58
3.44868 -1.78392 0.7473 59
1.54778 -1.18634 0.167557 50
3.44892 -1.7901 0.472181 61
1.8882 -1.44817 0.0409259 21
3.45305 -1.79528 0.202148 58
2.22073 -1.15748 -0.0431074 49
1.55499 -1.19402 -0.23609 15
2.22622 -1.15985 -0.21615 50
1.62733 -1.25055 -0.391408 38
2.22767 -1.15916 -0.392692 50
1.67356 -1.28796 -0.556098 41
2.2254 -1.15507 -0.56995 50
3.36107 -2.60814 0.972565 11
3.44156 -1.79555 1.0294 58
3.44582 -1.80536 0.748729 59
1.53958 -1.1929 0.167339 49
3.4417 -1.80929 0.472485 61
1.88651 -1.46263 0.0410568 21
3.44802 -1.81566 0.202409 58
2.21464 -1.1691 -0.0431074 53
1.54088 -1.19606 -0.234873 15
2.22893 -1.17612 -0.21702 55
1.6227 -1.26056 -0.391884 33
2.22595 -1.1731 -0.393475 56
1.66299 -1.29374 -0.554805 38
2.23011 -1.17235 -0.572758 58
3.3685 -2.6224 0.975934 11
3.44056 -1.80267 1.03005 58
3.44701 -1.81365 0.749683 59
1.5316 -1.19099 0.166685 49
3.44732 -1.81992 0.473702 59
1.89185 -1.47207 0.0412313 26
3.42939 -1.81352 0.201493 35
2.22144 -1.17763 -0.043282 76
1.52901 -1.19111 -0.233352 17
2.23128 -1.18233 -0.217455 68
1.6205 -1.26339 -0.391884 32
2.23045 -1.18044 -0.394649 62
1.66263 -1.29813 -0.555452 38
2.22806 -1.17624 -0.572758 64
3.36336 -2.64872 0.978742 11
3.4393 -1.82578 1.03263 58
1.6422 -1.2919 0.324667 17
3.44799 -1.83803 0.752066 59
1.52318 -1.19772 0.166467 49
3.43961 -1.83971 0.474006 59
1.876 -1.47609 0.0410568 26
3.44155 -1.84381 0.202802 35
2.22165 -1.19316 -0.0434129 86
1.51475 -1.19322 -0.232135 17
2.22485 -1.19439 -0.217455 59
1.61171 -1.27061 -0.391408 27
2.22206 -1.19094 -0.394258 50
1.64611 -1.29961 -0.552219 38
2.21307 -1.1837 -0.570512 42
3.36875 -2.66155 0.98155 11
3.43824 -1.83291 1.03328 58
1.64405 -1.29754 0.325447 15
3.44477 -1.84405 0.752066 59
1.51913 -1.19884 0.16625 49
3.44328 -1.84862 0.474919 59
1.87342 -1.47936 0.0410568 30
3.44965 -1.85511 0.203456 59
2.21296 -1.19349 -0.043282 50
1.50509 -1.18944 -0.230918 20
2.2096 -1.1912 -0.21615 32
2.20692 -1.18782 -0.391909 24
1.64762 -1.30549 -0.553512 36
2.19831 -1.18029 -0.567143 23
3.36238 -2.68524 0.983796 11
3.4353 -1.85373 1.03522 56
1.62372 -1.29534 0.322715 15
3.44619 -1.86729 0.754449 59
1.50916 -1.2034 0.165814 47
3.4401 -1.87018 0.475832 59
1.86395 -1.48727 0.0410132 33
3.44647 -1.87672 0.203849 59
2.18273 -1.19155 -0.042802 23
1.49497 -1.1942 -0.23031 20
2.18603 -1.19286 -0.21441 21
2.18114 -1.18876 -0.388385 21
1.64288 -1.31532 -0.554159 39
2.17496 -1.18251 -0.56265 21
3.36957 -2.69966 0.987165 11
3.44056 -1.86431 1.0378 56
1.62531 -1.30126 0.323496 12
3.44724 -1.87565 0.755402 59
1.50511 -1.20448 0.165596 45
3.44555 -1.88092 0.477049 59
3.44977 -1.88632 0.204241 59
2.16309 -1.18578 -0.042453 21
1.48514 -1.19059 -0.229093 21
2.16864 -1.18833 -0.212888 20
2.16171 -1.18311 -0.385253 20
2.15791 -1.17816 -0.55872 21
3.36059 -2.72245 0.98885 11
3.43499 -1.88462 1.0391 56
1.60505 -1.29887 0.320764 11
3.44383 -1.89721 0.756832 58
1.49491 -1.2092 0.16516 45
3.43565 -1.89894 0.477049 59
3.4464 -1.90798 0.204634 59
2.1481 -1.19225 -0.0422784 20
1.47311 -1.19366 -0.22818 23
2.14474 -1.19041 -0.211148 20
2.14252 -1.18726 -0.382904 20
2.14104 -1.18357 -0.555912 21
3.3615 -2.73292 0.990534 11
3.43804 -1.8941 1.04104 56
1.60278 -1.30167 0.320764 11
3.44662 -1.90738 0.758261 58
1.49087 -1.21024 0.164942 45
3.44319 -1.91094 0.47857 58
3.4518 -1.91883 0.205157 59
2.07082 -1.68353 -0.138496 41
2.12853 -1.1863 -0.0419294 20
2.13613 -1.19053 -0.210496 20
2.12316 -1.18143 -0.379772 20
2.12405 -1.17906 -0.551981 21
3.35419 -2.75726 0.99278 11
3.42985 -1.91385 1.04168 56
1.58808 -1.30405 0.319203 11
3.44087 -1.92779 0.759214 58
1.48045 -1.21513 0.164506 50
3.43713 -1.93197 0.479178 58
3.4479 -1.94115 0.205549 58
2.06776 -1.6991 -0.13889 42
2.10247 -1.18678 -0.0415367 18
2.11249 -1.19194 -0.208756 20
2.33667 -1.92371 -0.580446 33
2.10618 -1.18649 -0.377814 20
2.10488 -1.1834 -0.548612 21
3.36113 -2.77183 0.996149 11
3.43705 -1.92572 1.04491 56
1.58413 -1.30497 0.318813 11
3.44607 -1.9386 0.761121 58
1.47833 -1.21771 0.164506 52
3.44058 -1.94101 0.480091 58
3.44702 -1.94779 0.20568 58
2.06479 -1.70271 -0.13889 42
2.09386 -1.18676 -0.0414058 20
2.09522 -1.18706 -0.207234 20
2.32196 -1.9184 -0.577589 33
2.08904 -1.18169 -0.375073 20
2.09027 -1.17954 -0.545243 21
3.36341 -2.80343 1.0012 11
3.43146 -1.94547 1.04621 56
1.57538 -1.31167 0.318423 12
3.44048 -1.95844 0.762074 58
1.47214 -1.22518 0.164506 47
3.43468 -1.96146 0.4807 58
1.4945 -1.24425 0.0333341 24
3.44545 -1.97076 0.206204 58
2.05968 -1.7167 -0.139152 41
2.07263 -1.18867 -0.0411004 20
2.076 -1.19061 -0.20593 21
2.30281 -1.92226 -0.575208 35
2.0721 -1.18649 -0.373116 20
2.15208 -1.79885 -0.74168 9
2.06077 -1.17723 -0.539066 21
3.36411 -2.81399 1.00289 9
3.43226 -1.95384 1.0475 58
1.58256 -1.32234 0.320374 12
3.44311 -1.96869 0.763504 58
1.46618 -1.22455 0.164071 49
3.43987 -1.97237 0.481917 58
1.4787 -1.23589 0.0330287 27
3.44633 -1.97925 0.206465 58
2.05754 -1.18483 -0.0408386 21
2.05879 -1.18556 -0.204407 21
2.29005 -1.91839 -0.572827 35
2.05502 -1.18152 -0.370375 21
2.15047 -1.80453 -0.742327 9
2.05237 -1.1772 -0.537382 21
3.42792 -1.97599 1.04944 56
1.56218 -1.31972 0.317643 14
3.43913 -1.99037 0.764934 58
1.45573 -1.22925 0.163635 42
3.43344 -1.99344 0.482525 58
1.46457 -1.23716 0.0328542 27
2.04029 -1.18967 -0.0406205 21
2.03963 -1.18882 -0.203103 21
2.2684 -1.92123 -0.56997 36
2.04026 -1.18732 -0.368809 21
2.14284 -1.81733 -0.742973 9
2.0291 -1.17853 -0.532889 21
3.42865 -1.98438 1.05073 56
1.55822 -1.32057 0.317252 15
3.44414 -2.00129 0.76684 58
1.44979 -1.22856 0.163199 39
3.43889 -2.00382 0.483742 58
1.45288 -1.23162 0.032636 32
3.20803 -1.87265 0.192858 38
2.02526 -1.18568 -0.0403587 21
2.02895 -1.18737 -0.202233 21
2.2557 -1.91724 -0.56759 35
2.02111 -1.18095 -0.365677 21
2.13966 -1.82107 -0.742973 9
2.01671 -1.17561 -0.530082 21
2.49935 -2.14262 0.750762 1
3.42691 -2.00658 1.05331 56
1.54379 -1.32228 0.315691 15
3.44032 -2.02242 0.76827 58
1.43788 -1.23102 0.162545 42
3.43477 -2.02557 0.484655 58
1.43524 -1.2292 0.0323742 33
3.4305 -2.02627 0.206989 58
2.00631 -1.1883 -0.0400969 21
2.01218 -1.1913 -0.201146 21
2.23294 -1.91743 -0.564256 35
2.00213 -1.184 -0.363328 21
2.13408 -1.83502 -0.744267 9
1.99792 -1.17875 -0.526713 23
2.48675 -2.13859 0.747954 2
3.43173 -2.01745 1.0559 56
1.52838 -1.3137 0.31296 12
3.4389 -2.02967 0.768746 58
1.43762 -1.23515 0.162763 49
3.4355 -2.03409 0.485263 58
1.42552 -1.22518 0.0321997 35
3.38183 -2.00557 0.204241 58
1.99563 -1.1867 -0.0399224 21
1.99724 -1.1872 -0.199841 21
2.22215 -1.91491 -0.562352 36
1.98944 -1.18121 -0.36137 21
2.12904 -1.83717 -0.74362 11
1.98537 -1.17605 -0.523905 23
2.47882 -2.15522 0.749077 3
3.42528 -2.03785 1.05719 56
1.50844 -1.31034 0.310228 14
3.43244 -2.05016 0.7697 58
1.41985 -1.23286 0.161456 47
3.43545 -2.05841 0.486784 58
1.40966 -1.22442 0.0319815 35
3.44198 -2.06556 0.208559 58
1.97652 -1.18943 -0.0396606 21
1.98031 -1.19124 -0.198754 21
2.201 -1.91684 -0.559495 35
1.97263 -1.18527 -0.359413 23
2.1194 -1.84829 -0.74362 11
1.96454 -1.17769 -0.519974 24
2.4736 -2.1575 0.748516 9
3.43001 -2.04877 1.05978 56
1.51173 -1.31784 0.311399 14
3.43729 -2.06118 0.771606 58
1.41957 -1.23697 0.161674 42
3.43611 -2.06696 0.487393 58
1.40375 -1.22359 0.0318943 36
3.44051 -2.07285 0.20869 58
1.96373 -1.18644 -0.0394424 23
1.96115 -1.18443 -0.197014 23
2.18841 -1.9126 -0.557114 35
1.95362 -1.17855 -0.356281 23
2.1198 -1.85517 -0.744913 11
1.94994 -1.17361 -0.516605 24
2.46371 -2.17247 0.749077 9
3.42338 -2.0692 1.06107 56
1.51036 -1.33064 0.31257 14
3.43485 -2.08423 0.773512 59
1.40561 -1.2378 0.160802 39
3.43585 -2.09136 0.488914 59
1.38795 -1.22266 0.0316761 36
3.43814 -2.09602 0.209213 59
1.94254 -1.18761 -0.039137 23
1.94429 -1.18822 -0.195927 23
