# .PCD v0.7 - Point Cloud Data file format
VERSION 0.7
FIELDS x y z intensity
SIZE 4 4 4 4
TYPE F F F F
COUNT 1 1 1 1
WIDTH 1581
HEIGHT 1
VIEWPOINT 0 0 0 1 0 0 0
POINTS 1581
DATA ascii
-2.78169 -5.5223 1.64524 14
-2.80077 -5.53625 1.19816 15
-2.84954 -5.61342 0.767598 33
-1.22724 -1.62913 0.0349921 11
-1.14196 -2.23939 0.129924 44
-1.14411 -2.24169 -0.0433256 47
-1.1747 -1.55723 -0.234873 3
-1.14528 -2.24494 -0.21702 49
-1.13783 -2.2331 -0.391909 47
-1.67301 -2.21206 -0.733274 49
-1.1327 -2.22868 -0.568266 47
-2.81636 -5.56702 1.6601 14
-2.85593 -5.62109 1.2177 21
-2.85258 -5.59517 0.765773 27
-1.22857 -1.62499 0.0349484 11
-1.147 -2.23962 0.130055 44
-1.1716 -1.54918 -0.100295 15
-1.14689 -2.23747 -0.043282 45
-1.17591 -1.5532 -0.234569 4
-1.14919 -2.24293 -0.21702 49
-1.14397 -2.23551 -0.392692 47
-1.1399 -2.23321 -0.56995 47
-2.87297 -5.60595 1.67625 15
-2.87187 -5.57987 1.21198 18
-2.86723 -5.55419 0.762122 24
-1.23554 -1.61655 0.0349048 11
-1.16101 -2.23802 0.130317 44
-1.17818 -1.54104 -0.100163 15
-1.15973 -2.23365 -0.0433256 44
-1.17923 -1.54132 -0.233657 14
-1.16321 -2.24131 -0.217455 47
-1.1564 -2.23189 -0.393083 47
-1.15119 -2.22741 -0.56995 49
-2.87171 -5.57944 1.66979 14
-2.87035 -5.55304 1.20721 15
-2.86323 -5.52273 0.758471 21
-1.24141 -1.61835 0.0349921 11
-1.16682 -2.24063 0.130578 44
-1.18391 -1.54294 -0.100426 15
-1.16669 -2.23848 -0.0434565 44
-1.18495 -1.54319 -0.234265 23
-1.16902 -2.2439 -0.21789 47
-1.16074 -1.51063 -0.362838 17
-1.16256 -2.23425 -0.393866 45
-1.15731 -2.22973 -0.571073 47
-2.89003 -5.5482 1.66462 14
-2.8861 -5.51719 1.20245 15
-2.88424 -5.49498 0.756646 21
-1.2539 -1.61819 0.035123 11
-1.17814 -2.23469 0.130578 44
-1.19296 -1.53911 -0.100557 14
-1.18149 -2.23919 -0.0435874 44
-1.18665 -1.52934 -0.233048 17
-1.18384 -2.24457 -0.218542 45
-1.15632 -1.48924 -0.359029 18
-1.17501 -2.23053 -0.394258 45
-1.17084 -2.22816 -0.572196 47
-2.88406 -5.51318 1.65558 14
-2.89344 -5.5078 1.20149 15
-2.91809 -5.53606 0.763035 21
-1.25979 -1.61995 0.0352102 11
-1.18553 -2.23926 0.130971 44
-1.19565 -1.53703 -0.100557 14
-1.1854 -2.23712 -0.0435874 44
-1.18932 -1.52726 -0.233048 15
-1.18659 -2.2403 -0.218324 45
-1.15741 -1.48528 -0.358553 20
-1.18235 -2.23503 -0.395432 45
-1.17699 -2.23043 -0.573319 47
-2.92418 -5.51935 1.66204 14
-3.03044 -5.69631 1.24629 14
-1.72854 -2.19882 0.241639 12
-3.03221 -5.68057 0.785244 15
-1.27289 -1.61922 0.0353411 11
-1.19724 -2.23302 0.130971 44
-1.21322 -1.5423 -0.101345 14
-1.19828 -2.23309 -0.043631 44
-1.1973 -1.52101 -0.233048 14
-1.19987 -2.23604 -0.218542 45
-1.15757 -1.46957 -0.356172 18
-1.19403 -2.2288 -0.395432 45
-1.18751 -2.22208 -0.572758 45
-3.04028 -5.71473 1.72278 20
-3.03559 -5.67966 1.24391 15
-1.73083 -2.19385 0.241421 12
-3.01169 -5.61838 0.777334 15
-1.28375 -1.62658 0.0355593 11
-1.20586 -2.23973 0.131494 44
-1.21281 -1.53626 -0.101082 14
-1.20453 -2.2354 -0.0437183 44
-1.19995 -1.51892 -0.233048 14
-1.20612 -2.23834 -0.218977 47
-1.15404 -1.45985 -0.354267 17
-1.20025 -2.23107 -0.396215 44
-1.19597 -2.2286 -0.575004 45
-3.04484 -5.64928 1.70792 14
-3.04196 -5.6205 1.23438 18
-3.04559 -5.60855 0.778247 35
-1.29693 -1.62569 0.0356902 11
-1.21915 -2.23537 0.131625 44
-1.22863 -1.53964 -0.101739 14
-1.21661 -2.22885 -0.0437183 44
-1.21435 -1.52016 -0.234265 14
-1.21783 -2.23199 -0.218977 44
-1.15885 -1.44975 -0.353315 15
-1.21584 -2.23105 -0.39739 45
-1.21033 -2.22638 -0.576127 45
-3.04436 -5.62484 1.7021 24
-3.05644 -5.62381 1.23629 32
-3.0613 -5.61412 0.779768 35
-1.29977 -1.62343 0.0356902 11
-1.22424 -2.23543 0.131756 44
-1.23756 -1.54529 -0.102264 14
-1.2217 -2.22892 -0.0437619 45
-1.22011 -1.52191 -0.234873 14
-1.22172 -2.22986 -0.218977 44
-1.15216 -1.43625 -0.350458 15
-1.22091 -2.2311 -0.397781 44
-1.21538 -2.22641 -0.576689 45
-3.07841 -5.6173 1.70469 32
-3.09176 -5.61849 1.23867 36
-3.08826 -5.59367 0.779159 21
-1.3114 -1.62048 0.0357774 12
-1.23593 -2.22899 0.131756 44
-1.25821 -1.5543 -0.103314 14
-1.23698 -2.22905 -0.0438928 44
-1.22806 -1.5155 -0.234873 14
-1.2382 -2.23215 -0.219847 44
-1.16121 -1.4321 -0.350934 15
-1.23616 -2.23116 -0.398956 44
-1.2282 -2.22215 -0.57725 45
-3.09402 -5.6225 1.70792 30
-3.09563 -5.60234 1.23629 20
-3.11003 -5.60998 0.782202 33
-1.32053 -1.62595 0.035952 12
-1.24224 -2.23119 0.132017 44
-1.26092 -1.5521 -0.103314 14
-1.24329 -2.23126 -0.0439801 44
-1.23071 -1.51335 -0.234873 14
-1.24209 -2.22999 -0.219847 44
-1.15905 -1.42437 -0.349506 14
-1.24124 -2.23116 -0.399347 44
-1.23561 -2.2264 -0.578935 44
-3.12459 -5.60833 1.70856 26
-3.13928 -5.61177 1.242 32
-3.14422 -5.60228 0.783419 32
-1.33379 -1.62481 0.0360828 12
-1.25513 -2.22683 0.132148 44
-1.27565 -1.55297 -0.103839 14
-1.25618 -2.2269 -0.0440237 44
-1.24177 -1.51072 -0.235482 14
-1.25901 -2.23192 -0.220716 44
-1.15557 -1.40502 -0.346173 14
-1.25412 -2.22678 -0.399739 44
-1.24963 -2.22415 -0.580058 45
-3.14144 -5.61552 1.71244 32
-3.15845 -5.62071 1.24534 32
-3.16007 -5.6076 0.78494 32
-1.3385 -1.62417 0.0361265 12
-1.26269 -2.23117 0.132541 44
-1.28948 -1.56422 -0.104758 14
-1.26252 -2.22906 -0.044111 44
-1.2523 -1.51811 -0.237003 14
-1.26413 -2.23189 -0.220934 44
-1.15646 -1.40111 -0.345696 14
-1.26285 -2.2332 -0.401305 44
-1.82182 -2.20208 -0.755906 14
-1.25708 -2.22834 -0.581742 45
-3.17772 -5.60895 1.71567 32
-3.19632 -5.61904 1.24868 33
-3.19774 -5.60336 0.786765 32
-1.35659 -1.62866 0.0363883 12
-1.27722 -2.22864 0.132802 44
-1.30085 -1.56128 -0.105021 14
-1.27704 -2.22654 -0.0441982 44
-1.26845 -1.52084 -0.238524 14
-1.2795 -2.23173 -0.221586 44
-1.16245 -1.39295 -0.34522 14
-1.27575 -2.2287 -0.401697 44
-1.83643 -2.19621 -0.757199 12
-1.27033 -2.22362 -0.582304 44
-4.56369 -5.4545 1.63124 12
-3.19228 -5.6118 1.71826 32
-4.56449 -5.45738 1.11877 11
-3.2122 -5.62411 1.25106 33
-4.50269 -5.38349 0.610962 1
-3.21023 -5.60479 0.787678 32
-1.36424 -1.63204 0.0365192 12
-1.28071 -2.22663 0.132802 44
-1.30518 -1.56092 -0.105152 14
-1.28341 -2.22864 -0.0442855 44
-1.27881 -1.52835 -0.240046 14
-1.28587 -2.23382 -0.222021 44
-1.16172 -1.38715 -0.344268 12
-1.28331 -2.2329 -0.402871 44
-1.84958 -2.2041 -0.761079 11
-1.27623 -2.22585 -0.583427 44
-4.64096 -5.48819 1.64864 9
-3.22665 -5.60604 1.72149 29
-4.65678 -5.50882 1.13438 12
-3.24676 -5.61841 1.25344 33
-4.65368 -5.50709 0.627739 14
-3.2445 -5.5965 0.788895 30
-1.3741 -1.62702 0.0365628 12
-1.29862 -2.23069 0.133457 45
-1.3214 -1.56359 -0.105808 14
-1.29844 -2.22861 -0.0444164 44
-1.29 -1.52543 -0.240654 14
-1.30005 -2.23136 -0.222456 44
-1.16397 -1.37564 -0.342839 14
-1.29746 -2.23042 -0.403654 44
-1.8654 -2.20023 -0.763019 9
-1.29031 -2.22336 -0.58455 44
-4.68364 -5.51908 1.66044 11
-3.24729 -5.61923 1.72731 29
-4.67598 -5.51198 1.13672 12
-3.26 -5.61641 1.2544 32
-4.67456 -5.51225 0.629264 14
-3.24679 -5.57795 0.78707 26
-1.39016 -1.63962 0.0369118 12
-1.30251 -2.22842 0.133457 44
-1.33059 -1.5689 -0.106333 14
-1.30359 -2.2285 -0.04446 44
-1.3023 -1.53452 -0.242479 14
-1.3052 -2.23124 -0.222674 44
-1.16319 -1.36987 -0.341887 14
-1.30259 -2.23029 -0.404046 44
-1.87275 -2.20032 -0.764312 9
-1.29663 -2.22532 -0.585673 44
-4.71344 -5.49366 1.66044 11
-3.28496 -5.61409 1.73118 29
-4.70091 -5.48098 1.13555 12
-3.28688 -5.59503 1.25344 14
-4.68648 -5.46608 0.626868 12
-3.28699 -5.57741 0.789503 2
-1.40524 -1.63991 0.0370864 12
-1.31708 -2.22564 0.133718 44
-1.33878 -1.56191 -0.106333 14
-1.31816 -2.22572 -0.0445473 42
-1.31382 -1.53121 -0.243088 14
-1.31813 -2.22652 -0.222891 44
-1.17378 -1.36727 -0.342839 14
-1.31715 -2.22746 -0.404829 44
-1.8874 -2.19415 -0.765605 9
-1.30865 -2.21827 -0.585673 44
-4.72524 -5.48994 1.66156 11
-3.28987 -5.60001 1.7286 8
-4.71369 -5.47651 1.13633 12
-3.2954 -5.58717 1.25297 1
-4.69439 -5.45601 0.62665 14
-3.28409 -5.5503 0.786461 1
-1.4081 -1.63746 0.0370864 12
-1.32351 -2.22764 0.13398 44
-1.34966 -1.56903 -0.10699 14
-1.32459 -2.22771 -0.0446345 42
-1.32783 -1.54207 -0.245218 14
-1.32455 -2.2285 -0.223326 44
-1.16494 -1.35222 -0.339506 12
-1.32229 -2.22729 -0.40522 42
-1.88806 -2.1872 -0.764312 11
-1.31747 -2.22438 -0.587919 44
-4.75007 -5.45878 1.65987 11
-3.28956 -5.53287 1.71309 1
-4.74554 -5.45548 1.13711 11
-3.32963 -5.57827 1.25487 1
-4.73434 -5.44451 0.628175 12
-3.22526 -5.38607 0.765469 1
-1.42322 -1.6376 0.0372609 12
-1.33772 -2.22496 0.134242 44
-1.36113 -1.56571 -0.107252 15
-1.34009 -2.22718 -0.0447654 42
-1.33915 -1.53884 -0.245826 14
-1.3362 -2.22154 -0.223326 44
-1.17201 -1.3461 -0.339506 14
-1.33735 -2.22692 -0.406395 44
-1.8979 -2.17546 -0.763665 11
-1.3316 -2.22163 -0.589042 44
-4.76345 -5.45682 1.66156 9
-3.30045 -5.52919 1.71373 3
-4.75735 -5.45174 1.13789 11
-3.34818 -5.58719 1.25821 3
-4.7422 -5.43436 0.627957 12
-1.42443 -1.63323 0.0372173 12
-1.34635 -2.23142 0.134765 44
-1.36879 -1.56897 -0.107646 14
-1.34398 -2.22484 -0.0447654 42
-1.34973 -1.54607 -0.247347 14
-1.34521 -2.22774 -0.224196 42
-1.34504 -2.23094 -0.407569 44
-1.90965 -2.18123 -0.766899 11
-1.33759 -2.22372 -0.590165 44
-4.79357 -5.43363 1.66212 8
-3.33836 -5.52896 1.7189 14
-4.78583 -5.42676 1.13789 8
-3.37387 -5.56598 1.25726 2
-4.79435 -5.4383 0.631225 4
-3.39319 -5.58035 0.796501 11
-1.43929 -1.6335 0.0373918 12
-1.36061 -2.22861 0.135027 44
-1.38194 -1.56739 -0.10804 14
-1.35782 -2.22228 -0.0448527 42
-1.36274 -1.54457 -0.24826 14
-1.36203 -2.22918 -0.225066 42
-1.35799 -2.22597 -0.407961 42
-1.92227 -2.17334 -0.767545 12
-1.34921 -2.21668 -0.590165 44
-4.80143 -5.42343 1.66156 4
-3.32675 -5.488 1.70792 12
-4.81494 -5.44058 1.14258 4
-3.40112 -5.58675 1.26345 11
-4.8385 -5.46909 0.635801 8
-3.38743 -5.54899 0.79285 12
-1.44574 -1.63448 0.037479 12
-1.3671 -2.23049 0.135288 42
-1.38633 -1.56685 -0.108171 14
-1.36691 -2.22844 -0.0450272 44
-1.37202 -1.54961 -0.249477 14
-1.36722 -2.22892 -0.225283 42
-1.36316 -2.22571 -0.408352 42
-1.92644 -2.16965 -0.767545 12
-1.35561 -2.21849 -0.591288 44
-4.87945 -5.45182 1.67841 3
-3.34126 -5.44521 1.70016 12
-4.93818 -5.51933 1.16482 8
-3.40976 -5.53542 1.25583 11
-4.92614 -5.50779 0.643427 9
-3.39395 -5.49257 0.787374 12
-1.45928 -1.63247 0.0376099 12
-1.38309 -2.22943 0.135681 42
-1.40284 -1.56887 -0.108827 14
-1.37895 -2.22101 -0.0450272 42
-1.38701 -1.54956 -0.250694 14
-1.38149 -2.22597 -0.225718 42
-1.37739 -2.22274 -0.409135 42
-1.94584 -2.16851 -0.770778 11
-1.37143 -2.21734 -0.592973 44
-4.97429 -5.54021 1.70817 12
-3.32672 -5.40028 1.68789 11
-4.97654 -5.54464 1.17184 11
-3.40652 -5.50858 1.25106 12
-4.98067 -5.54922 0.64931 11
-3.39343 -5.47246 0.785244 14
-1.46547 -1.63364 0.0376972 12
-1.38527 -2.22513 0.13555 39
-1.40725 -1.56827 -0.108959 14
-1.38546 -2.22285 -0.0451145 41
-1.39441 -1.55291 -0.251607 14
-1.38537 -2.22355 -0.225718 42
-1.38647 -2.22873 -0.410701 42
-1.95447 -2.17049 -0.772718 9
-1.37747 -2.21933 -0.594096 44
-5.01796 -5.53032 1.71322 11
-3.33488 -5.35262 1.67819 11
-5.01214 -5.52582 1.1734 11
-3.44086 -5.50167 1.25344 12
-5.01873 -5.53501 0.650618 11
-3.43257 -5.47144 0.787678 12
-1.47707 -1.62991 0.0377845 12
-1.39823 -2.21997 0.135681 38
-1.42047 -1.56643 -0.109353 14
-1.39935 -2.22004 -0.0452017 41
-1.4042 -1.54743 -0.251911 14
-1.40229 -2.22471 -0.226588 42
-1.39812 -2.22144 -0.410701 42
-1.96381 -2.15879 -0.772072 8
-1.38907 -2.21209 -0.594096 44
-5.04565 -5.54137 1.7194 12
-3.32247 -5.31196 1.66721 11
-5.04172 -5.53897 1.17809 11
-3.514 -5.59486 1.27632 11
-5.04515 -5.54466 0.652797 11
-3.51344 -5.57888 0.804107 12
-1.48357 -1.63076 0.0378717 12
-1.40609 -2.22386 0.136073 36
-1.42993 -1.57133 -0.109878 14
-1.40722 -2.22394 -0.0453326 41
-1.41149 -2.23068 -0.227458 41
-1.40594 -2.22527 -0.411876 42
-1.96958 -2.1568 -0.772718 3
-1.39682 -2.21585 -0.59578 42
-5.08381 -5.52295 1.7222 9
-3.33439 -5.26737 1.65881 11
-5.08834 -5.52978 1.18199 9
-3.54456 -5.57846 1.2768 12
-5.09362 -5.53744 0.655193 11
-3.53825 -5.55141 0.80289 12
-1.49886 -1.63033 0.0380462 12
-1.42079 -2.22043 0.136335 35
-1.4449 -1.57117 -0.110403 14
-1.42326 -2.22261 -0.0454635 41
-1.42449 -2.22536 -0.227675 42
-1.42022 -2.22204 -0.412659 42
-1.98904 -2.15532 -0.775951 2
-1.4114 -2.21237 -0.596904 42
-5.11397 -5.53822 1.7295 11
-3.32029 -5.22483 1.64718 11
-5.1121 -5.53811 1.1855 11
-3.54506 -5.55777 1.27346 9
-5.11004 -5.53586 0.656065 11
-3.53761 -5.53121 0.80076 9
-1.5 -1.62587 0.0380026 12
-1.42562 -2.2203 0.136466 30
-1.44256 -1.56314 -0.110009 14
-1.42714 -2.22013 -0.0454635 41
-1.42971 -2.22497 -0.227892 42
-1.42543 -2.22164 -0.413051 42
-2.00265 -2.16248 -0.779831 2
-1.4188 -2.21632 -0.598588 42
-5.1562 -5.52561 1.734 9
-3.32453 -5.1734 1.63619 11
-5.15619 -5.52752 1.18901 9
-3.57182 -5.53769 1.27298 11
-5.15328 -5.52632 0.658026 12
-3.56653 -5.51261 0.80076 9
-1.50992 -1.62009 0.0380462 12
-1.44265 -2.22119 0.136989 30
-1.46436 -1.57016 -0.111059 14
-1.44244 -2.21917 -0.0455944 41
-1.44405 -2.22164 -0.228327 42
-1.43972 -2.21829 -0.413834 42
-2.02182 -2.16112 -0.783064 2
-1.43435 -2.215 -0.600273 44
-5.17916 -5.53083 1.73849 11
-3.31786 -5.14323 1.62844 11
-5.18608 -5.54014 1.1937 9
-3.57045 -5.51228 1.26869 4
-5.18845 -5.54459 0.661294 8
-3.56804 -5.49389 0.798935 9
-1.5267 -1.63178 0.0383953 12
-1.44516 -2.21657 0.136859 26
-1.46027 -1.56032 -0.110534 14
-1.44903 -2.22084 -0.0456817 41
-1.45199 -2.22538 -0.22898 42
-1.44493 -2.21785 -0.414225 42
-2.0392 -2.17132 -0.788237 2
-1.43689 -2.21045 -0.599711 42
-5.19393 -5.4868 1.73343 1
-3.32718 -5.09687 1.61939 11
-5.24824 -5.54607 1.20111 1
-3.59523 -5.48735 1.26726 4
-5.1927 -5.4893 0.658026 9
-3.59948 -5.47928 0.799543 8
-1.46125 -2.21498 0.137251 24
-1.46515 -2.21923 -0.0458126 41
-1.47183 -2.23023 -0.230285 44
-1.45924 -2.21438 -0.415008 42
-2.05719 -2.16761 -0.790824 2
-1.45378 -2.21104 -0.601957 42
-5.22435 -5.5016 1.74073 8
-3.31272 -5.05728 1.6084 11
-5.21273 -5.49126 1.19096 11
-3.60923 -5.4899 1.26917 4
-5.19102 -5.4703 0.656718 9
-3.67863 -5.57869 0.81506 8
-1.46885 -2.21894 0.137644 21
-1.47138 -2.2211 -0.0458998 42
-1.47534 -2.22792 -0.230285 42
-1.1837 -1.24591 -0.32665 14
-1.46543 -2.21621 -0.415791 42
-2.06226 -2.16613 -0.79147 2
-1.46127 -2.21487 -0.603642 44
-5.23431 -5.45842 1.73512 9
-3.31875 -5.01282 1.59936 11
-5.21216 -5.43721 1.18472 9
-3.71199 -5.58672 1.29586 4
-3.7086 -5.56478 0.815668 9
-1.48521 -2.22004 0.138167 18
-1.48499 -2.21804 -0.0459871 41
-1.48897 -2.22482 -0.230719 42
-1.18298 -1.23303 -0.324745 14
-1.4821 -2.21699 -0.417357 42
-1.47785 -2.21556 -0.605888 44
-3.3048 -4.97281 1.58837 11
-3.72854 -5.59045 1.29824 4
-3.70728 -5.54179 0.813234 8
-1.48631 -2.2133 0.137905 17
-1.49164 -2.2196 -0.0460743 41
-1.49423 -2.22429 -0.230937 42
-1.18683 -1.23273 -0.325221 14
-1.48734 -2.21645 -0.417749 41
-1.48307 -2.215 -0.606449 42
-3.3133 -4.92937 1.57997 11
-3.74953 -5.55863 1.29538 8
-3.73486 -5.52024 0.81293 9
-1.50207 -2.21169 0.138298 15
-1.50465 -2.21383 -0.046118 41
-1.50625 -2.21618 -0.230937 42
-1.18984 -1.22298 -0.324269 12
-1.50169 -2.21272 -0.418532 42
-1.50146 -2.2173 -0.609257 42
-3.30166 -4.89353 1.57028 12
-3.74645 -5.5311 1.29062 4
-3.74031 -5.50756 0.812017 8
-1.50453 -2.207 0.138167 15
-1.51132 -2.21534 -0.0462052 41
-1.51431 -2.21972 -0.231589 41
-1.18854 -1.2174 -0.323317 12
-1.50832 -2.21418 -0.419315 41
-1.50396 -2.21266 -0.608696 42
-3.24904 -3.29443 1.05848 2
-3.31177 -4.85165 1.56252 12
-3.77536 -5.5114 1.29062 4
-3.23592 -3.2834 0.400263 4
-3.7518 -5.46064 0.808062 8
-2.1406 -2.17192 0.052619 36
-1.52634 -2.21323 0.139083 14
-1.52753 -2.21331 -0.0463361 41
-1.52874 -2.21587 -0.232024 41
-1.19684 -1.21269 -0.323793 9
-1.52587 -2.21413 -0.420881 41
-1.52279 -2.21454 -0.611503 44
-3.22336 -3.25816 1.04837 3
-3.30114 -4.81795 1.55348 12
-3.22707 -3.26189 0.719573 8
-3.76553 -5.47648 1.28394 4
-3.20836 -3.24411 0.396123 12
-3.79651 -5.50517 0.815668 8
-2.16725 -2.19127 0.0531862 35
-1.53304 -2.21467 0.139344 14
-1.53543 -2.2173 -0.232459 41
-1.19204 -1.20363 -0.321888 9
-1.53254 -2.21553 -0.421664 41
-1.52803 -2.21389 -0.612065 42
-3.23749 -3.23723 1.04725 3
-3.31121 -4.77875 1.54637 11
-3.24759 -3.24844 0.720354 8
-3.82914 -5.50709 1.29586 4
-3.23763 -3.23959 0.397648 8
-3.86924 -5.54835 0.8251 9
-2.184 -2.1852 0.0533171 32
-1.54033 -2.20047 0.138952 12
-1.54987 -2.21331 -0.232894 41
-1.2018 -1.20084 -0.32284 8
-1.54835 -2.21356 -0.422839 41
-1.54239 -2.20986 -0.613188 44
-3.30027 -4.74519 1.53732 12
-3.88224 -5.56281 1.31063 8
-3.88034 -5.54362 0.825404 9
-2.19844 -2.19197 0.0535789 29
-1.55276 -2.21005 0.139737 12
-1.55659 -2.21468 -0.233329 41
-1.20041 -1.19528 -0.321888 8
-1.55363 -2.21287 -0.42323 41
-1.55042 -2.21316 -0.614872 44
-3.30842 -4.70413 1.52957 12
-3.91131 -5.54241 1.31063 8
-3.90072 -5.51107 0.823578 9
-2.217 -2.18744 0.0537534 27
-1.56287 -2.19985 0.139606 11
-1.55356 -1.5313 -0.263168 15
-1.57574 -2.21639 -0.234416 42
-1.2084 -1.1907 -0.322364 9
-1.5662 -2.21098 -0.616557 42
-5.49742 -5.4005 1.76825 12
-3.29854 -4.67268 1.52117 12
-5.49011 -5.39519 1.21087 12
-3.91911 -5.53089 1.30968 8
-5.48976 -5.39671 0.670446 14
-3.90746 -5.5002 0.82297 9
-2.22833 -2.19019 0.0539279 26
-1.56815 -2.19916 0.139737 11
-1.56509 -1.53727 -0.264689 15
-1.21399 -1.19203 -0.323317 4
-1.57569 -2.21619 -0.618803 44
-5.61567 -5.45725 1.79689 11
-3.30695 -4.63117 1.51341 12
-5.606 -5.44974 1.22999 11
-3.92946 -5.48434 1.30348 4
-5.61888 -5.46415 0.682647 12
-3.92559 -5.46285 0.820536 8
-2.24335 -2.18198 0.0540152 23
-1.58294 -2.19469 0.139999 9
-1.16969 -1.61842 -0.0342503 11
-1.57694 -1.53224 -0.265298 15
-1.22042 -1.18544 -0.323317 4
-1.59192 -2.21358 -0.620488 44
-5.65224 -5.47554 1.80587 12
-3.29957 -4.60378 1.5063 11
-5.66162 -5.48461 1.24013 12
-3.93043 -5.46551 1.30063 3
-5.51393 -5.34343 0.668702 1
-2.25255 -2.18327 0.0541461 21
-1.59407 -2.20205 0.140653 9
-1.16374 -1.60421 -0.0339886 12
-1.57783 -1.52776 -0.264993 15
-1.23131 -1.19184 -0.325697 4
-1.59578 -2.2108 -0.620488 42
-5.69234 -5.45499 1.80924 12
-3.30665 -4.56296 1.49855 11
-5.68848 -5.45318 1.23974 12
-5.67487 -5.44202 0.684826 14
-2.28019 -2.18701 0.0545388 18
-1.6144 -2.20578 0.141438 8
-1.17507 -1.60213 -0.0340758 12
-1.58939 -1.52291 -0.265602 15
-1.23221 -1.18028 -0.324269 4
-1.61449 -2.21226 -0.623295 44
-5.70442 -5.4494 1.81036 12
-3.30184 -4.5396 1.49273 4
-5.68906 -5.43472 1.23779 12
-5.69156 -5.43899 0.685698 14
-2.29123 -2.18994 0.0547133 17
-1.61678 -2.20094 0.141307 4
-1.17491 -1.59605 -0.0339886 12
-1.59744 -1.52527 -0.266514 14
-1.24315 -1.1866 -0.32665 8
-1.61548 -2.2055 -0.622172 41
-5.72851 -5.41344 1.80868 12
-3.30984 -4.50083 1.48562 4
-5.72641 -5.41333 1.23974 12
-5.72539 -5.41425 0.686351 14
-3.28629 -4.43958 0.672979 3
-2.31175 -2.18649 0.0549314 15
-1.63273 -2.19847 0.1417 3
-1.18325 -1.58987 -0.0339886 14
-1.17136 -1.57437 -0.16831 12
-1.24756 -1.17839 -0.326174 8
-1.15485 -1.55372 -0.301468 12
-1.63568 -2.20878 -0.625541 44
-5.74587 -5.41279 1.81149 11
-3.29477 -4.46394 1.47529 1
-5.73585 -5.40333 1.23974 12
-5.72396 -5.394 0.685044 12
-3.29108 -4.42985 0.672371 3
-2.32284 -2.18931 0.055106 15
-1.64103 -2.20163 0.142092 2
-1.18602 -1.58781 -0.0339886 14
-1.17262 -1.57032 -0.168092 14
-1.25856 -1.18461 -0.328554 4
-1.15756 -1.5517 -0.301468 14
-2.27329 -2.13521 -0.825742 11
-1.64244 -2.20984 -0.626664 42
-5.77686 -5.38328 1.81205 9
-3.30511 -4.42919 1.46947 3
-5.76587 -5.37491 1.24013 9
-5.78855 -5.39792 0.689402 11
-2.33793 -2.18053 0.0551932 14
-1.64954 -2.18901 0.14183 3
-1.19282 -1.57958 -0.0339449 14
-1.26295 -1.17633 -0.328078 8
-1.16566 -1.54562 -0.301468 14
-2.27029 -2.11014 -0.820569 8
-1.6569 -2.20511 -0.627787 42
-5.87373 -5.4544 1.83956 8
-3.28537 -4.38667 1.45719 14
-5.882 -5.46398 1.26316 11
-5.87643 -5.46069 0.698771 11
-2.34578 -2.17944 0.0552805 14
-1.65486 -2.18812 0.141961 2
-0.720085 -0.670098 -0.0498847 30
-1.19557 -1.57749 -0.0339449 14
-1.2632 -1.17246 -0.327602 8
-1.16539 -1.53964 -0.300685 15
-2.26901 -2.10085 -0.818629 8
-1.66807 -2.21195 -0.630595 44
-5.92648 -5.44396 1.84686 9
-3.29594 -4.35149 1.45138 14
-5.92239 -5.44209 1.2655 9
-5.90955 -5.43219 0.699207 11
-2.37557 -2.18403 0.0557168 12
-1.67273 -2.18708 0.142485 2
-0.716228 -0.659564 -0.0493596 30
-1.20712 -1.57497 -0.0340322 14
-1.15273 -1.50418 -0.162439 3
-1.27495 -1.17058 -0.329031 8
-1.17669 -1.53724 -0.301468 15
-2.2782 -2.08731 -0.817982 8
-1.68296 -2.20677 -0.631718 42
-5.93143 -5.43136 1.84574 9
-3.29186 -4.33034 1.44621 14
-5.9337 -5.43342 1.26589 9
-5.9227 -5.42523 0.699643 11
-2.39412 -2.19338 0.0560658 12
-0.713694 -0.654942 -0.0490971 30
-1.20987 -1.57287 -0.0340322 14
-1.15384 -1.50018 -0.162221 3
-1.27699 -1.16836 -0.329031 9
-1.17938 -1.53518 -0.301468 14
-2.28184 -2.08333 -0.817982 4
-5.96073 -5.39919 1.84574 9
-5.94926 -5.39067 1.26316 9
-5.93626 -5.38077 0.6979 11
-2.42596 -2.19928 0.0565458 11
-0.718964 -0.652872 -0.0492284 30
-1.22421 -1.57442 -0.0342067 14
-2.40631 -2.17844 -0.393687 36
-1.14796 -1.47639 -0.160264 3
-1.28855 -1.16659 -0.330459 11
-1.18864 -1.53115 -0.30186 14
-2.2981 -2.07621 -0.819922 4
-5.96378 -5.38492 1.84406 9
-5.95772 -5.38132 1.26316 9
-5.94379 -5.36873 0.697682 9
-0.714542 -0.646599 -0.0488345 30
-1.23155 -1.5782 -0.0343376 14
-2.4171 -2.1813 -0.394904 36
-1.13985 -1.46061 -0.158742 3
-1.28329 -1.15777 -0.328554 11
-1.19434 -1.53297 -0.302643 14
-2.30351 -2.07381 -0.820569 8
-5.99371 -5.35524 1.84462 8
-0.719668 -0.644637 -0.0489658 32
-1.2457 -1.57981 -0.0345121 14
-2.4396 -2.17853 -0.396729 36
-1.14261 -1.44895 -0.15809 3
-1.2983 -1.15943 -0.330935 11
-1.20692 -1.53253 -0.303817 14
-2.30676 -2.0557 -0.817982 8
-0.718927 -0.64172 -0.0488345 32
-1.25154 -1.58156 -0.0345994 14
-2.44525 -2.17591 -0.397034 36
-1.30032 -1.15716 -0.330935 12
-1.20501 -1.5246 -0.302643 14
-2.31035 -2.05167 -0.817982 8
-6.44595 -5.67875 1.97208 2
-6.57228 -5.79405 0.763484 3
-0.720403 -0.636297 -0.0487033 32
-1.26292 -1.5789 -0.0346867 14
-2.46965 -2.17455 -0.399163 36
-1.3082 -1.15196 -0.331411 9
-1.21758 -1.52407 -0.303817 14
-2.3265 -2.04433 -0.819922 8
-6.4512 -5.66541 1.97096 3
-6.35517 -5.58108 1.33105 2
-6.56367 -5.76614 0.761305 3
-0.719636 -0.633392 -0.048572 32
-1.27036 -1.58255 -0.0348176 14
-2.48277 -2.17842 -0.400684 35
-1.31575 -1.15452 -0.33284 11
-1.22178 -1.52387 -0.304209 14
-2.33007 -2.04027 -0.819922 8
-6.48091 -5.62769 1.9704 3
-6.35544 -5.52071 1.32481 2
-6.59101 -5.72728 0.76087 3
-0.715512 -0.622943 -0.0480469 32
-1.28518 -1.58343 -0.0349921 14
-2.50202 -2.17146 -0.401901 35
-1.32569 -1.1506 -0.333792 11
-1.23594 -1.52514 -0.305775 14
-2.33925 -2.02605 -0.819275 8
-6.45658 -5.58881 1.96029 2
-6.38837 -5.53173 1.32988 1
-6.62924 -5.74021 0.764138 3
-0.549111 -0.476984 0.0120858 12
-0.718486 -0.623327 -0.0481782 32
-1.29424 -1.58896 -0.0351666 14
-2.51857 -2.17888 -0.404031 36
-1.32769 -1.14828 -0.333792 9
-1.24326 -1.52874 -0.306949 14
-2.34278 -2.02196 -0.819275 8
-6.49685 -5.56444 1.96366 2
-6.46226 -5.53676 1.33925 2
-6.58824 -5.64663 0.756076 3
-0.5516 -0.474102 0.0120858 12
-0.71605 -0.614686 -0.0477843 32
-1.30571 -1.58602 -0.0352539 14
-2.53938 -2.17373 -0.405552 35
-1.34302 -1.14929 -0.336173 9
-1.25907 -1.53176 -0.308907 12
-2.35885 -2.01437 -0.821215 9
-6.49914 -5.54676 1.96141 3
-6.48978 -5.53876 1.34276 1
-6.58012 -5.61781 0.753897 2
-0.554329 -0.474761 0.0121294 12
-0.713429 -0.610071 -0.0475218 32
-1.31165 -1.5876 -0.0353411 14
-2.5511 -2.17529 -0.406769 35
-1.34315 -1.14535 -0.335697 9
-1.27141 -1.54079 -0.311256 12
-2.35719 -2.00515 -0.819275 9
-6.58313 -5.55321 1.97714 8
-6.55082 -5.52791 1.34901 3
-6.58665 -5.56009 0.751065 2
-0.55124 -0.466822 0.0119985 14
-0.710994 -0.601373 -0.0471279 32
-1.32849 -1.58986 -0.0355593 14
-2.5746 -2.1706 -0.408595 35
-1.35328 -1.14099 -0.336649 11
-1.28157 -1.53557 -0.311648 12
-2.37725 -2.00013 -0.822508 9
-1.17772 -1.41347 -0.416092 3
-6.64406 -5.58676 1.99286 12
-6.58314 -5.53553 1.35369 1
-6.63256 -5.57904 0.755204 2
-4.55656 -5.4634 0.867997 11
-0.552054 -0.46586 0.0119985 12
-0.713953 -0.601738 -0.0472592 33
-1.33447 -1.59138 -0.0356465 14
-2.58598 -2.17248 -0.409812 35
-1.35339 -1.13705 -0.336173 11
-1.29531 -1.54661 -0.314388 12
-2.38073 -1.99598 -0.822508 8
-1.16928 -1.3983 -0.412161 4
-6.68543 -5.56007 1.99623 14
-6.46774 -5.38098 1.32403 1
-4.58905 -5.45956 1.37831 11
-6.64062 -5.52671 0.752808 12
-4.64743 -5.5135 0.879863 11
-0.552563 -0.461364 0.0119549 12
-1.83462 -2.16895 0.147064 9
-0.713255 -0.594799 -0.0469967 33
-1.35245 -1.59584 -0.0359083 14
-2.60687 -2.16684 -0.411333 35
-1.36688 -1.13622 -0.338078 11
-1.30472 -1.54192 -0.31478 14
-2.39115 -1.98349 -0.822508 8
-1.17188 -1.38656 -0.410476 8
-6.71103 -5.56355 2.00128 15
-6.6796 -5.53945 1.36578 14
-4.66024 -5.52474 1.3969 11
-6.68094 -5.54054 0.756294 14
-4.66089 -5.51188 0.880776 12
-0.551443 -0.458804 0.0119113 14
-1.8477 -2.1775 0.147849 4
-0.708524 -0.588775 -0.0466028 33
-1.35685 -1.59538 -0.035952 14
-2.61791 -2.16907 -0.41255 35
-1.36697 -1.13227 -0.337602 12
-1.31697 -1.55095 -0.317129 14
-2.39461 -1.97931 -0.822508 8
-1.16935 -1.37913 -0.408792 8
-6.66284 -5.46501 1.97826 12
-6.69323 -5.49187 1.36266 14
-4.6945 -5.50856 1.3988 12
-6.69349 -5.49402 0.754551 14
-4.69452 -5.49306 0.881688 14
-0.549893 -0.452837 0.011824 14
-1.86719 -2.17729 0.148503 4
-0.709565 -0.583599 -0.0464716 33
-1.37303 -1.59799 -0.0361701 14
-2.64267 -2.16634 -0.414679 35
-1.31769 -1.53381 -0.173529 12
-1.37458 -1.12689 -0.338078 11
-1.32961 -1.5499 -0.318303 14
-2.4046 -1.96717 -0.822508 8
-1.17339 -1.36928 -0.407669 9
-6.62237 -5.41445 1.96366 11
-6.63686 -5.42821 1.3494 12
-4.71208 -5.50969 1.40119 11
-6.66258 -5.44922 0.749975 12
-4.70152 -5.4838 0.881384 12
-0.546812 -0.448713 0.0117367 14
-1.87223 -2.17625 0.148634 4
-0.714449 -0.585518 -0.0467341 33
-1.3807 -1.60128 -0.036301 14
-2.65953 -2.17317 -0.416809 35
-1.32847 -1.54096 -0.174616 12
-1.38416 -1.13069 -0.339982 11
-1.33553 -1.55133 -0.319086 14
-2.41364 -1.96754 -0.824448 8
-1.17079 -1.36189 -0.405984 9
-6.63926 -5.37051 1.96029 11
-6.64023 -5.37319 1.34432 12
-4.7351 -5.48019 1.39976 9
-6.67072 -5.39977 0.747796 12
-4.72693 -5.45535 0.880776 11
-0.545189 -0.442795 0.0116495 14
-0.709638 -0.575616 -0.046209 33
-1.39043 -1.59616 -0.0363446 14
-2.68052 -2.16701 -0.41833 35
-1.34441 -1.54362 -0.175703 14
-1.38222 -1.11751 -0.338078 12
-1.34983 -1.55202 -0.320653 14
-2.41793 -1.95075 -0.822508 8
-1.16835 -1.34468 -0.402615 9
-6.63062 -5.34632 1.95524 9
-6.63136 -5.34881 1.34081 14
-4.74626 -5.47377 1.40023 8
-6.64329 -5.35841 0.743656 12
-4.73224 -5.44417 0.880167 11
-0.549853 -0.44498 0.0117367 14
-0.712586 -0.575943 -0.0463403 33
-1.39813 -1.59939 -0.0364755 14
-2.69358 -2.17058 -0.419852 35
-1.35037 -1.54503 -0.176138 14
-1.388 -1.11817 -0.33903 12
-1.35739 -1.55525 -0.321827 14
-2.42133 -1.94653 -0.822508 8
-1.16408 -1.33548 -0.400369 9
-6.68709 -5.33431 1.96366 9
-6.66121 -5.31555 1.3412 12
-4.77714 -5.45337 1.40119 8
-6.6567 -5.31385 0.742131 12
-4.76231 -5.42118 0.880471 9
-0.542328 -0.434398 0.0115186 14
-0.71364 -0.570648 -0.046209 33
-1.41281 -1.5998 -0.0366501 14
-2.71656 -2.16573 -0.421677 35
-1.3994 -1.11572 -0.340459 12
-1.36714 -1.54998 -0.322219 14
-1.1534 -1.30921 -0.394192 4
-6.72119 -5.34233 1.97096 9
-6.6956 -5.32389 1.34627 14
-4.79407 -5.45157 1.40309 8
-6.67376 -5.30842 0.743003 12
-4.8144 -5.46129 0.888382 4
-0.541204 -0.4318 0.011475 14
-0.71268 -0.567848 -0.0460777 33
-1.41725 -1.59921 -0.0366937 14
-2.73005 -2.16869 -0.423198 35
-1.37474 -1.55315 -0.323393 14
-1.14442 -1.29438 -0.390261 3
-6.79405 -5.34051 1.98388 8
-3.30968 -3.73485 1.32601 1
-6.74178 -5.30132 1.34979 14
-4.8421 -5.44842 1.40881 4
-6.77482 -5.32919 0.751065 11
-4.89172 -5.48891 0.897205 4
-0.537562 -0.424327 0.0113441 14
-0.715643 -0.564109 -0.0460777 33
-1.42589 -1.59152 -0.0366937 14
-2.76322 -2.17075 -0.426545 32
-1.13846 -1.27361 -0.385769 4
-6.97312 -5.46352 2.03385 9
-3.28895 -3.69836 1.31503 3
-6.93281 -5.43389 1.38647 11
-4.91689 -5.51327 1.42788 8
-4.96148 -5.54971 0.908461 9
-0.538302 -0.423388 0.0113441 14
-0.708764 -0.556703 -0.0455526 33
-1.44033 -1.60206 -0.0369991 14
-2.77444 -2.17252 -0.427762 15
-1.13235 -1.26272 -0.382962 4
-3.29795 -3.67088 1.31115 4
-4.99891 -5.54851 1.4436 11
-5.00876 -5.54392 0.911808 9
-0.536487 -0.417595 0.0112568 14
-0.709695 -0.551455 -0.0454214 35
-1.44674 -1.5929 -0.0369555 14
-1.13406 -1.25135 -0.381277 4
-3.28497 -3.64357 1.30339 4
-5.01942 -5.54983 1.44646 11
-5.01843 -5.53517 0.911808 9
-0.539266 -0.418092 0.0113004 14
-0.70868 -0.54869 -0.0452901 33
-1.45624 -1.59777 -0.03713 14
-1.13787 -1.25117 -0.381839 4
-3.19413 -3.50426 1.25945 2
-2.86467 -2.18959 0.564264 3
-5.05834 -5.53435 1.44932 11
-2.85493 -2.18293 0.311364 9
-5.06673 -5.52807 0.915155 9
-0.539461 -0.413745 0.0112568 14
-0.709559 -0.543457 -0.0451588 33
-1.46993 -1.5954 -0.0372609 14
-1.14791 -1.2486 -0.382962 3
-2.84187 -2.16435 0.815338 9
-3.2849 -3.59143 1.29306 8
-2.84453 -2.16714 0.559582 9
-5.08291 -5.5418 1.45361 9
-2.8409 -2.16436 0.309403 11
-5.09387 -5.54021 0.918501 9
-0.536204 -0.409776 0.0111695 14
-0.712493 -0.54373 -0.0452901 35
-1.4761 -1.59651 -0.0373481 14
-1.15316 -1.25038 -0.384085 4
-2.85706 -2.15237 0.816461 9
-2.85387 -2.15073 0.559191 11
-5.13256 -5.53942 1.45981 8
-2.84983 -2.14846 0.309185 14
-5.13631 -5.52802 0.920935 9
-0.538272 -0.407057 0.0111695 14
-0.711247 -0.537114 -0.0450275 36
-1.48927 -1.59451 -0.037479 14
-1.15307 -1.23718 -0.381839 12
-2.87407 -2.15811 0.820391 8
-2.86552 -2.15167 0.560752 17
-5.15892 -5.54844 1.46457 8
-2.85756 -2.14647 0.309621 18
-5.16456 -5.53902 0.924282 9
-0.532983 -0.401616 0.0110386 14
-0.708189 -0.532876 -0.044765 35
-1.49376 -1.59373 -0.0375227 14
-1.14694 -1.22625 -0.379031 14
-2.89158 -2.14688 0.822076 2
-2.86683 -2.12928 0.558801 1
-5.20469 -5.53924 1.46934 8
-2.85677 -2.12257 0.308313 18
-5.20029 -5.51913 0.925499 1
-0.535078 -0.39882 0.0110386 14
-0.712974 -0.530648 -0.0448963 36
-1.50551 -1.58953 -0.0376099 14
-1.15668 -1.22377 -0.380154 14
-2.87144 -2.12496 0.815338 2
-2.87054 -2.12428 0.558801 2
-5.22781 -5.54445 1.47315 1
-2.85045 -2.11018 0.307224 2
-5.19628 -5.49561 0.923065 11
-0.529744 -0.393427 0.0109078 14
-0.709884 -0.526435 -0.0446337 38
-1.51 -1.58871 -0.0376536 14
-1.15213 -1.21466 -0.377908 14
-2.89703 -2.11895 0.819268 2
-2.87402 -2.10288 0.55724 2
-5.23066 -5.48764 1.46553 8
-5.20538 -5.44588 0.919414 8
-0.531865 -0.390555 0.0109078 14
-0.710706 -0.521113 -0.0445024 38
-1.52203 -1.58413 -0.0377408 14
-0.867168 -0.634768 -0.127477 41
-0.862149 -0.63065 -0.200466 39
-0.862866 -0.630272 -0.276756 41
-1.15532 -1.20489 -0.376785 14
-0.530525 -0.388155 0.0108641 14
-0.707578 -0.516933 -0.0442399 38
-1.52999 -1.58688 -0.0378717 14
-0.864151 -0.630485 -0.126868 41
-0.863248 -0.629145 -0.200466 41
-0.867873 -0.631602 -0.278049 42
-1.15384 -1.19955 -0.375662 14
-0.536539 -0.388387 0.0109514 14
-0.714327 -0.516139 -0.0445024 38
-1.53974 -1.58091 -0.0379153 14
-0.873482 -0.6303 -0.127781 42
-0.866422 -0.624767 -0.200466 41
-0.869097 -0.625793 -0.277403 42
-1.14995 -1.18298 -0.372293 14
-0.533222 -0.384441 0.0108641 14
-0.71117 -0.51198 -0.0442399 38
-1.54772 -1.5836 -0.0380462 14
-0.862481 -0.620099 -0.125955 42
-0.867511 -0.623254 -0.200466 41
-0.866368 -0.621314 -0.276109 42
-1.1554 -1.18447 -0.373416 14
-0.53319 -0.380197 0.0108205 14
-0.705697 -0.50247 -0.0437148 36
-1.55627 -1.5752 -0.0380462 14
-0.871897 -0.619729 -0.126868 41
-1.52076 -1.53962 -0.185924 15
-0.862859 -0.612877 -0.198561 41
-0.871581 -0.618163 -0.276756 42
-1.15498 -1.17124 -0.37117 14
-3.07678 -2.17779 0.860821 2
-3.18355 -3.24508 1.20711 2
-3.10187 -2.19633 0.595092 3
-3.2249 -3.27592 0.885989 1
-3.07532 -2.17754 0.326616 9
-3.21917 -3.26216 0.557672 9
-0.533852 -0.379266 0.0108205 14
-0.708611 -0.502679 -0.0438461 39
-1.56077 -1.57426 -0.0380899 14
-0.864763 -0.612631 -0.125651 42
-1.52519 -1.53874 -0.186141 15
-0.863927 -0.61137 -0.198561 42
-1.52862 -1.54433 -0.339054 14
-0.860815 -0.608295 -0.272876 42
-1.15852 -1.17116 -0.371731 14
-3.09812 -2.16863 0.863629 4
-3.22201 -3.25125 1.21551 1
-3.0931 -2.16591 0.59119 9
-3.20513 -3.22297 0.87598 1
-3.07814 -2.15623 0.325745 11
-3.23971 -3.24877 0.558281 9
-0.535765 -0.376559 0.0108205 14
-0.709188 -0.497532 -0.0437148 39
-1.57578 -1.57342 -0.0382644 14
-0.865924 -0.606674 -0.125347 41
-1.5385 -1.53602 -0.186794 15
-0.867011 -0.60699 -0.198561 42
-1.54017 -1.53981 -0.339837 14
-0.863882 -0.603931 -0.272876 42
-1.1612 -1.16162 -0.370608 14
-3.08991 -2.15486 0.86026 9
-3.24299 -3.26104 1.22133 3
-3.08674 -2.15344 0.589239 9
-3.07782 -2.14801 0.325309 12
-0.712103 -0.49772 -0.0438461 41
-1.57852 -1.57067 -0.0382644 14
-0.862909 -0.602326 -0.124739 41
-1.54118 -1.53333 -0.186794 15
-0.86001 -0.59987 -0.196656 41
-1.54984 -1.5441 -0.341403 14
-0.863057 -0.600894 -0.27223 42
-1.15635 -1.1527 -0.368362 14
-3.10152 -2.13811 0.86026 8
-3.09835 -2.13671 0.589239 8
-3.08939 -2.13132 0.325309 12
-0.708532 -0.489736 -0.0434522 41
-0.85583 -0.590765 -0.123217 42
-1.5545 -1.5305 -0.187446 15
-0.859198 -0.592427 -0.195704 41
-1.55966 -1.53771 -0.341794 14
-0.862209 -0.593633 -0.270936 42
-1.16583 -1.15006 -0.369485 14
-3.10488 -2.13324 0.86026 2
-3.1017 -2.13184 0.589239 2
-3.103 -2.13352 0.326398 2
-5.48379 -5.40856 0.940102 12
-0.707327 -0.487086 -0.043321 42
-0.858907 -0.590674 -0.123522 42
-1.5569 -1.52805 -0.187446 15
-0.862152 -0.592464 -0.19618 42
-1.57113 -1.54365 -0.343752 14
-0.867127 -0.595005 -0.27223 42
-1.1609 -1.14117 -0.367239 14
-3.12369 -2.12297 0.862506 2
-5.50122 -5.40484 2.05428 11
-3.10837 -2.11334 0.588458 2
-3.11582 -2.11918 0.326616 4
-5.53238 -5.40155 0.943753 12
-0.707718 -0.482097 -0.0431897 42
-0.863939 -0.587712 -0.123826 42
-1.57201 -1.52684 -0.188316 15
-0.857014 -0.582585 -0.194276 42
-1.57362 -1.5305 -0.342577 12
-0.864127 -0.586548 -0.27029 42
-1.17015 -1.13869 -0.368362 14
-3.13345 -2.12161 0.864191 2
-5.53479 -5.4189 2.06333 11
-3.13864 -2.1259 0.593531 2
-3.13807 -2.12631 0.328577 4
-5.63245 -5.48019 0.95927 14
-0.708558 -0.480861 -0.0431897 42
-0.858796 -0.582035 -0.122913 41
-1.57646 -1.52583 -0.188533 15
-0.858029 -0.581088 -0.194276 42
-1.56744 -1.51914 -0.34062 11
-0.863249 -0.583538 -0.269643 42
-1.17388 -1.13834 -0.368923 15
-3.15501 -2.1114 0.866998 3
-5.66459 -5.48638 2.10081 8
-3.16856 -2.12125 0.597043 4
-5.66849 -5.47109 1.52319 12
-3.16195 -2.11761 0.329884 11
-5.67453 -5.46169 0.961399 14
-0.711066 -0.477145 -0.0431897 42
-0.863995 -0.578759 -0.123217 42
-1.58981 -1.52273 -0.189186 15
-0.857078 -0.573713 -0.193323 42
-1.5703 -1.5055 -0.339445 11
-0.864283 -0.577671 -0.268996 42
-1.18177 -1.13367 -0.369485 15
-3.1644 -2.11049 0.868683 3
-5.69499 -5.49663 2.10857 9
-3.17637 -2.11845 0.597824 3
-5.68687 -5.4697 1.52558 12
-3.15943 -2.10794 0.329231 3
-5.67689 -5.4449 0.960182 14
-0.711898 -0.475903 -0.0431897 41
-0.860872 -0.5745 -0.122609 42
-1.59966 -1.52685 -0.190055 15
-0.858078 -0.572216 -0.193323 42
-1.56046 -1.49079 -0.336705 11
-0.861266 -0.57349 -0.267703 42
-1.1855 -1.13329 -0.370046 15
-3.18798 -2.10138 0.872052 4
-5.74115 -5.48343 2.11503 11
-3.19979 -2.10995 0.600165 3
-5.72431 -5.44832 1.52796 12
-3.1829 -2.0996 0.330538 4
-5.70892 -5.41852 0.960791 12
-0.708125 -0.46805 -0.0427959 42
-2.30651 -2.18069 -0.0548006 36
-0.851431 -0.561802 -0.120783 41
-1.61125 -1.52188 -0.19049 15
-0.856961 -0.565019 -0.192371 42
-1.56466 -1.4792 -0.335922 11
-0.864257 -0.568973 -0.267703 42
-1.18789 -1.12371 -0.368923 15
-5.74372 -5.46673 2.11244 11
-5.73203 -5.43663 1.52748 12
-3.1699 -2.0831 0.328795 3
-5.7508 -5.43926 0.966267 12
-3.19432 -2.09834 0.066101 3
-0.706853 -0.465443 -0.0426646 42
-2.32122 -2.18696 -0.0550623 35
-0.85241 -0.560315 -0.120783 41
-1.61571 -1.52078 -0.190708 15
-0.855892 -0.562178 -0.191895 42
-1.56007 -1.46968 -0.334356 11
-0.855143 -0.560856 -0.26447 42
-1.19515 -1.12666 -0.370608 14
-5.77753 -5.44156 2.11438 11
-5.75327 -5.39982 1.52558 11
-3.18076 -2.06648 0.328795 3
-5.74299 -5.37514 0.960182 9
-3.18849 -2.0707 0.0657519 3
-0.705172 -0.458896 -0.042402 42
-2.34177 -2.18331 -0.0552805 35
-0.847002 -0.550447 -0.119566 41
-1.62573 -1.51371 -0.190925 14
-0.860884 -0.559022 -0.192371 44
-1.56954 -1.46318 -0.334747 11
-0.858068 -0.55637 -0.26447 42
-1.19748 -1.11706 -0.369485 15
-5.7923 -5.43642 2.11632 9
-5.77975 -5.40386 1.52987 9
-3.18646 -2.06227 0.329013 2
-5.81765 -5.42608 0.971135 8
-3.17567 -2.05372 0.0654029 1
-0.708069 -0.459019 -0.0425333 42
-2.35289 -2.18604 -0.055455 35
-0.847961 -0.548968 -0.119566 41
-1.64113 -1.52276 -0.192447 14
-0.849484 -0.549538 -0.189514 42
-1.56849 -1.45707 -0.333964 11
-0.859134 -0.554722 -0.26447 42
-1.20121 -1.11663 -0.370046 15
-5.87646 -5.45598 2.13635 8
-5.91059 -5.46859 1.55703 11
-3.17868 -2.03293 0.327052 2
-5.89796 -5.44167 0.979654 11
-3.17795 -2.03168 0.0652284 2
-0.706254 -0.452618 -0.0422708 42
-2.37387 -2.18175 -0.0556732 33
-0.855103 -0.547041 -0.120175 41
-1.65091 -1.51583 -0.192665 14
-0.854514 -0.546253 -0.18999 41
-1.57972 -1.45219 -0.334747 11
-0.855915 -0.546327 -0.26253 42
-1.20723 -1.11011 -0.370046 15
-5.94444 -5.49987 2.15768 11
-5.91651 -5.45493 1.55608 11
-3.15701 -2.01133 0.324437 9
-5.90285 -5.42903 0.979045 11
-3.16462 -2.0154 0.0648793 12
-0.707043 -0.451384 -0.0422708 41
-2.38136 -2.18098 -0.0557604 30
-0.851773 -0.543035 -0.119566 41
-1.65172 -1.51126 -0.192447 4
-0.845106 -0.538183 -0.187609 41
-1.57317 -1.44107 -0.33279 11
-0.854828 -0.543539 -0.261884 42
-1.20719 -1.10657 -0.369485 14
-6.01492 -5.50889 2.17319 12
-5.94405 -5.42492 1.55608 9
-5.93487 -5.4014 0.979654 11
-3.1769 -2.00069 0.064923 21
-0.709397 -0.447676 -0.0422708 42
-2.40346 -2.17899 -0.0560222 29
-0.850402 -0.535928 -0.118958 41
-0.851977 -0.536509 -0.188562 41
-1.58252 -1.43447 -0.333181 11
-0.863706 -0.543053 -0.263823 44
-1.21296 -1.10023 -0.369485 14
-6.04414 -5.5163 2.18029 12
-5.94356 -5.40358 1.55322 9
-5.94061 -5.38769 0.979045 11
-3.16802 -1.98662 0.0646612 26
-0.710177 -0.446437 -0.0422708 42
-2.41467 -2.18151 -0.0561967 27
-0.84713 -0.53181 -0.118349 41
-0.84875 -0.532418 -0.187609 41
-1.58319 -1.43005 -0.33279 11
-0.858601 -0.537558 -0.261884 42
-1.21849 -1.10139 -0.370608 14
-6.08465 -5.49324 2.18417 11
-7.31379 -4.53109 1.35408 39
-5.97725 -5.37731 1.55465 9
-7.41768 -4.5972 0.760434 38
-3.16988 -1.96474 0.0644866 26
-0.706137 -0.438771 -0.0418769 41
-2.43574 -2.17675 -0.0564149 26
-0.849995 -0.527219 -0.118349 41
-0.853706 -0.529109 -0.188085 41
-1.5909 -1.42146 -0.33279 11
-0.857294 -0.530519 -0.26059 42
-1.22805 -1.09804 -0.371731 14
-7.31268 -4.51277 1.97265 41
-6.11576 -5.502 2.19193 9
-7.30698 -4.50924 1.35135 42
-7.40873 -4.57378 0.758691 33
-3.16692 -1.95527 0.0643557 26
-0.709026 -0.438848 -0.0420082 42
-2.447 -2.17916 -0.0565894 24
-0.846688 -0.523132 -0.117741 41
-0.850448 -0.525045 -0.187133 41
-1.5989 -1.42362 -0.333964 11
-0.854103 -0.526493 -0.259297 42
-1.23722 -1.1024 -0.373977 14
-7.32373 -4.46681 1.96928 39
-6.16877 -5.49348 2.20097 11
-7.31706 -4.46448 1.34901 39
-7.4084 -4.52196 0.756294 32
-6.5799 -5.82318 1.07306 2
-3.16824 -1.93401 0.0641812 27
-0.709183 -0.43383 -0.0418769 42
-2.46361 -2.17171 -0.0567203 21
-0.853564 -0.521421 -0.118349 41
-0.855191 -0.52201 -0.187609 42
-1.60794 -1.41715 -0.334356 11
-0.854693 -0.52091 -0.25865 42
-1.24643 -1.09935 -0.3751 14
-7.31277 -4.44264 1.96422 36
-6.20723 -5.50837 2.21131 11
-7.2974 -4.43504 1.34393 38
-6.42825 -5.68278 1.6595 2
-7.39713 -4.49738 0.754333 32
-6.57889 -5.80184 1.07123 2
-3.16981 -1.92663 0.0641376 29
-0.70567 -0.430001 -0.0416144 44
-2.47865 -2.17732 -0.0569821 21
-0.848107 -0.516069 -0.117437 41
-0.847706 -0.515428 -0.185705 41
-1.59745 -1.4029 -0.331615 12
-0.853625 -0.518018 -0.258004 42
-1.24652 -1.09556 -0.374539 14
-7.30746 -4.38547 1.95636 33
-6.26053 -5.49543 2.21971 9
-7.30647 -4.3866 1.3412 35
-6.50592 -5.69108 1.67189 3
-7.40641 -4.44832 0.752808 32
-6.58963 -5.7482 1.06788 3
-3.17343 -1.90614 0.0640067 29
-0.707912 -0.4263 -0.0416144 45
-2.5017 -2.17373 -0.0572439 18
-0.84663 -0.508922 -0.116828 41
-0.856799 -0.514616 -0.187133 41
-1.59919 -1.38965 -0.33044 12
-0.854253 -0.512302 -0.257357 41
-1.25426 -1.09041 -0.3751 14
-7.29552 -4.36273 1.95131 30
-6.29554 -5.50677 2.22876 9
-7.29004 -4.36117 1.33691 32
-6.58796 -5.74265 1.69048 3
-7.39279 -4.4226 0.750629 30
-6.58742 -5.72807 1.06606 3
-3.16602 -1.89419 0.0637885 30
-0.706512 -0.423783 -0.0414831 45
-2.5187 -2.18083 -0.0575493 17
-0.847429 -0.507592 -0.116828 41
-2.49047 -2.15706 -0.284648 26
-0.85348 -0.510606 -0.186181 41
-1.59603 -1.38199 -0.329266 12
-0.857221 -0.512046 -0.258004 42
-1.25965 -1.09164 -0.376223 14
-7.30148 -4.31456 1.94682 30
-6.33976 -5.48907 2.23458 9
-7.30002 -4.3154 1.33457 33
-6.60023 -5.69479 1.68619 4
-7.40007 -4.37626 0.749104 32
-6.61356 -5.69026 1.06545 3
-3.17126 -1.8756 0.0637013 30
-0.706499 -0.418932 -0.0413518 47
-2.5354 -2.17295 -0.0576802 15
-0.847937 -0.501887 -0.116524 41
-2.52969 -2.16879 -0.28791 30
-0.858168 -0.507526 -0.186657 41
-1.59201 -1.36395 -0.326917 12
-0.851477 -0.502801 -0.255417 41
-1.27273 -1.09139 -0.378469 14
-7.28306 -4.28826 1.94008 29
-6.3804 -5.50483 2.24556 9
-7.28626 -4.29013 1.33066 32
-6.59899 -5.67366 1.68333 4
-7.39267 -4.35449 0.747578 32
-6.60654 -5.66416 1.06271 3
-3.16807 -1.86625 0.0635704 32
-0.702925 -0.415166 -0.0410893 45
-2.55058 -2.17827 -0.057942 15
-0.844533 -0.497892 -0.115916 41
-2.5486 -2.17733 -0.28965 32
-0.846354 -0.498571 -0.1838 41
-1.59064 -1.35796 -0.326134 12
-0.85652 -0.503757 -0.256711 42
-1.28017 -1.09393 -0.380154 14
-7.2893 -4.239 1.93558 29
-6.433 -5.49175 2.25396 9
-7.30222 -4.2482 1.32949 33
-6.62674 -5.63744 1.68285 4
-7.40461 -4.30946 0.746489 33
-6.56612 -5.57006 1.05145 2
-3.17132 -1.84587 0.0634395 32
-0.702931 -0.410226 -0.040958 47
-2.5753 -2.1762 -0.0582474 14
-0.844983 -0.492217 -0.115611 41
-2.57326 -2.17523 -0.291172 29
-0.848953 -0.494133 -0.1838 41
-1.59961 -1.35121 -0.326525 12
-0.857056 -0.498055 -0.256064 42
-1.29516 -1.09511 -0.382962 14
-7.28752 -4.22266 1.93334 30
-6.46096 -5.49617 2.26042 9
-7.29253 -4.22555 1.32637 33
-6.57857 -5.57663 1.66808 2
-7.39057 -4.28404 0.74431 33
-6.5872 -5.56821 1.05328 2
-3.16588 -1.83532 0.063265 32
-0.701485 -0.407747 -0.0408267 45
-2.59819 -2.18783 -0.0586837 14
-0.847989 -0.491984 -0.115916 41
-2.58657 -2.17877 -0.292259 23
-0.845564 -0.490195 -0.182848 41
-1.59066 -1.33885 -0.324176 12
-0.851649 -0.492938 -0.254124 42
-1.29521 -1.09127 -0.3824 14
-7.28277 -4.16744 1.92604 29
-6.5155 -5.48405 2.26947 9
-7.28883 -4.17259 1.32169 32
-6.56257 -5.50424 1.65664 2
-7.39777 -4.23663 0.742785 32
-6.62958 -5.5448 1.05541 4
-3.16677 -1.81375 0.0630904 32
-0.699276 -0.401589 -0.0405642 47
-2.63263 -2.19343 -0.0592073 12
-0.844089 -0.483844 -0.115003 41
-2.60558 -2.17159 -0.293129 27
-0.843857 -0.483327 -0.181895 41
-1.59764 -1.3305 -0.324176 12
-0.850022 -0.48608 -0.252831 42
-1.31024 -1.0923 -0.385208 14
-7.27661 -4.14876 1.92267 26
-6.55096 -5.49442 2.27852 9
-7.28109 -4.1513 1.31896 33
-6.66439 -5.56994 1.67999 9
-7.39001 -4.21507 0.74126 32
-6.66783 -5.55706 1.05997 14
-3.15907 -1.80204 0.0628723 33
-0.704315 -0.40284 -0.0408267 47
-2.65758 -2.20642 -0.0596872 11
-0.844932 -0.48237 -0.115003 41
-2.62276 -2.1782 -0.294651 29
-0.842565 -0.480641 -0.181419 41
-1.59048 -1.3198 -0.322219 12
-0.848769 -0.483404 -0.252184 42
-1.30841 -1.08689 -0.384085 14
-7.2756 -4.09619 1.91649 23
-6.60379 -5.4801 2.28692 9
-7.27905 -4.09979 1.31467 33
-6.71237 -5.55062 1.68476 14
-7.39462 -4.16654 0.739516 32
-6.69301 -5.51891 1.05936 14
-3.16193 -1.78179 0.0627414 33
-0.699956 -0.395351 -0.0404329 47
-0.840957 -0.474292 -0.11409 39
-2.64604 -2.17347 -0.295956 33
-0.85149 -0.479828 -0.182848 41
-1.59547 -1.30989 -0.321827 12
-0.853394 -0.480134 -0.252831 44
-1.32534 -1.08933 -0.387454 12
-7.26786 -4.07515 1.91256 21
-6.63753 -5.48859 2.29532 9
-7.27758 -4.08225 1.3131 33
-6.66621 -5.49088 1.67046 12
-7.38667 -4.1451 0.737991 35
-6.67388 -5.48358 1.0548 14
-3.1588 -1.77205 0.0626105 33
-0.702823 -0.395349 -0.0405642 50
-0.841784 -0.472823 -0.11409 41
-2.65561 -2.17359 -0.296608 33
-0.848042 -0.475945 -0.181895 41
-1.59012 -1.30083 -0.320261 12
-0.856423 -0.479672 -0.253477 44
-1.331 -1.09012 -0.388577 12
-7.25996 -4.01925 1.9047 18
-6.69889 -5.47861 2.3063 9
-7.28876 -4.03684 1.31115 32
-6.66444 -5.43108 1.66284 11
-7.38938 -4.09421 0.73603 33
-6.67073 -5.42077 1.04963 12
-3.16366 -1.75307 0.0625232 33
-0.693962 -0.38562 -0.0399078 47
-0.664505 -0.533298 -0.0142673 11
-0.837814 -0.464661 -0.113177 41
-2.68242 -2.17222 -0.298348 33
-0.846308 -0.468977 -0.180943 42
-1.60074 -1.2956 -0.321044 12
-0.850464 -0.470517 -0.250891 44
-1.34255 -1.08751 -0.390261 12
-7.25133 -3.99961 1.90077 18
-6.7309 -5.48523 2.31406 9
-7.28428 -4.01942 1.3092 33
-6.63583 -5.38848 1.65331 11
-7.38343 -4.0741 0.734723 33
-6.63684 -5.3759 1.04294 12
-3.16234 -1.74513 0.062436 33
-0.699007 -0.386818 -0.0401703 47
-0.659605 -0.527421 -0.0141364 11
-0.845064 -0.466935 -0.11409 42
-2.69202 -2.17223 -0.299 33
-0.842824 -0.465133 -0.179991 41
-1.59341 -1.28503 -0.319086 12
-0.855517 -0.471357 -0.252184 44
-1.35371 -1.09308 -0.393069 12
-7.24436 -3.94644 1.89347 15
-6.78488 -5.47233 2.32311 9
-7.29005 -3.97295 1.30647 33
-6.65728 -5.35021 1.65188 12
-7.38209 -4.02475 0.732544 32
-6.65522 -5.33331 1.04141 14
-3.16016 -1.72312 0.0622178 33
-2.6935 -2.15177 0.178858 3
-0.701023 -0.383153 -0.0401703 47
-0.840958 -0.458947 -0.113177 42
-2.71891 -2.17056 -0.30074 32
-0.849481 -0.463205 -0.180943 44
-1.59626 -1.27358 -0.318303 12
-0.849402 -0.462415 -0.249598 44
-1.36511 -1.09056 -0.394754 12
-7.22125 -3.91753 1.88561 14
-6.81888 -5.48016 2.33151 8
-7.28612 -3.95434 1.30452 33
-6.6752 -5.34356 1.65378 11
-7.38473 -4.00949 0.732108 33
-6.66645 -5.32324 1.04172 12
-3.15467 -1.71229 0.0620433 33
-2.70701 -2.15485 0.179512 3
-0.699495 -0.380739 -0.0400391 47
-0.846121 -0.459842 -0.113786 44
-2.72658 -2.16892 -0.301175 20
-0.852446 -0.46289 -0.181419 42
-0.854537 -0.463078 -0.250891 44
-1.36892 -1.0897 -0.395315 12
-7.21228 -3.86231 1.87775 14
-6.88245 -5.47025 2.34314 8
-7.28782 -3.90437 1.30101 33
-6.73193 -5.3314 1.66093 9
-7.38217 -3.95654 0.729711 32
-6.71851 -5.30556 1.04537 12
-3.15919 -1.69338 0.061956 35
-2.72842 -2.14791 0.180167 4
-0.694876 -0.373536 -0.0396452 49
-0.839844 -0.450578 -0.112569 42
-2.75745 -2.17004 -0.303349 14
-0.848444 -0.454802 -0.179991 42
-0.852689 -0.456325 -0.249598 44
-1.38052 -1.08681 -0.397 12
-7.18824 -3.83492 1.86989 14
-6.91658 -5.47774 2.35154 9
-7.27869 -3.88478 1.29828 35
-6.77011 -5.34247 1.66808 11
-7.38027 -3.93896 0.72884 32
-6.74438 -5.30882 1.04811 11
-3.15773 -1.68551 0.0618688 35
-2.75534 -2.16215 0.181737 4
-0.69773 -0.373498 -0.0397765 49
-0.842741 -0.450425 -0.112873 44
-2.75732 -2.16215 -0.302914 11
-0.84707 -0.452168 -0.179515 42
-0.855617 -0.455968 -0.250244 44
-7.17804 -3.78134 1.86202 14
-6.96702 -5.46055 2.35929 8
-7.27927 -3.83626 1.29476 33
-7.38028 -3.8911 0.726879 32
-3.15958 -1.66602 0.0617379 35
-2.77844 -2.15689 0.182522 4
-0.690839 -0.365188 -0.0392514 49
-0.845087 -0.446006 -0.112873 42
-0.84283 -0.44445 -0.178086 42
-0.849359 -0.447145 -0.247658 44
-7.1609 -3.75637 1.85585 15
-7.27502 -3.81781 1.29281 33
-7.38045 -3.87474 0.726225 32
-3.16056 -1.65879 0.0616943 35
-2.8039 -2.16887 0.183961 8
-0.695898 -0.366299 -0.039514 49
-0.843666 -0.443379 -0.112569 44
-0.843604 -0.442978 -0.178086 42
-0.854498 -0.447748 -0.248951 44
-7.16381 -3.70861 1.85136 18
-7.27802 -3.76931 1.28969 33
-7.38361 -3.82559 0.724482 33
-2.86804 -2.19706 0.438714 3
-3.1581 -1.63647 0.0614761 35
-2.82946 -2.16431 0.184877 9
-0.691155 -0.359209 -0.0391201 49
-0.83944 -0.43539 -0.111656 44
-0.87038 -0.661348 -0.0924182 39
-0.839447 -0.435029 -0.176658 42
-0.858812 -0.653389 -0.165612 26
-0.846098 -0.437736 -0.245718 44
-7.15014 -3.68731 1.8463 20
-7.27077 -3.75108 1.28735 33
-2.86684 -2.1945 0.694398 3
-7.38142 -3.80813 0.723611 33
-2.84982 -2.17596 0.435368 9
-3.16318 -1.6321 0.0615197 36
-2.82889 -2.15683 0.184615 11
-0.694 -0.359145 -0.0392514 49
-0.842329 -0.435207 -0.11196 44
-0.867575 -0.656804 -0.0919833 44
-0.84457 -0.435808 -0.17761 44
-0.865834 -0.65639 -0.166786 32
-0.853306 -0.439567 -0.247658 44
-7.16066 -3.6454 1.84406 21
-2.86914 -2.18113 0.95509 8
-7.28371 -3.7096 1.28618 35
-2.8525 -2.16066 0.688202 11
-7.38285 -3.76168 0.721868 33
-2.8493 -2.15202 0.433542 14
-3.16026 -1.6104 0.0613016 36
