# .PCD v0.7 - Point Cloud Data file format
VERSION 0.7
FIELDS x y z intensity
SIZE 4 4 4 4
TYPE F F F F
COUNT 1 1 1 1
WIDTH 1589
HEIGHT 1
VIEWPOINT 0 0 0 1 0 0 0
POINTS 1589
DATA ascii
-3.17339 -5.60723 1.01263 33
-1.95754 -5.58147 1.14192 15
-1.9047 -5.40627 0.698536 1
-1.2612 -2.23015 0.044111 49
-0.798848 -2.25405 0.123513 47
-1.26252 -2.23158 -0.132982 45
-0.798923 -2.25177 -0.0411004 49
-1.26469 -2.23269 -0.310325 49
-0.80066 -2.25792 -0.206147 61
-1.26268 -2.22735 -0.489975 49
-0.795239 -2.2462 -0.372333 50
-1.26929 -2.2354 -0.678957 55
-0.792204 -2.24495 -0.540751 49
-3.21628 -5.6097 1.48243 33
-1.979 -5.57696 1.57415 14
-3.21228 -5.60497 1.01536 33
-2.00088 -5.60779 1.14955 15
-1.93977 -5.41225 0.700665 1
-1.27324 -2.2233 0.044111 49
-0.813558 -2.25675 0.123905 47
-1.27457 -2.22471 -0.132982 45
-0.811938 -2.24977 -0.041144 49
-1.27798 -2.22797 -0.310629 49
-0.815385 -2.26059 -0.206799 90
-1.27838 -2.22687 -0.491403 49
-0.806989 -2.242 -0.372333 50
-1.28498 -2.23478 -0.680897 55
-0.805975 -2.24522 -0.541874 49
-3.23117 -5.6152 1.48524 35
-2.00007 -5.60535 1.5832 14
-3.22724 -5.61062 1.01731 35
-2.02637 -5.64819 1.1586 18
-1.94827 -5.40919 0.700665 1
-1.28336 -2.2319 0.0443291 49
-0.816256 -2.25312 0.123775 47
-1.28219 -2.22898 -0.133376 47
-0.816711 -2.2507 -0.0411877 49
-1.28396 -2.23026 -0.311238 49
-0.817641 -2.25447 -0.206364 49
-1.28472 -2.22889 -0.492355 49
-0.814243 -2.24989 -0.373899 52
-1.29129 -2.23672 -0.682191 55
-0.811145 -2.24854 -0.542997 49
-3.2642 -5.60452 1.48692 36
-2.04319 -5.63603 1.59483 15
-3.26155 -5.60218 1.01888 35
-2.06248 -5.65862 1.16289 24
-2.06338 -5.63667 0.731698 26
-1.29464 -2.22538 0.0443291 49
-0.829758 -2.2535 0.124036 47
-1.2951 -2.22439 -0.133507 47
-0.828093 -2.24654 -0.0411877 49
-1.29562 -2.22351 -0.311238 49
-0.831147 -2.25484 -0.206799 52
-1.29846 -2.22659 -0.493308 47
-0.825165 -2.24327 -0.373507 50
-1.3026 -2.23015 -0.682191 55
-0.822907 -2.24426 -0.542997 50
-3.27521 -5.60091 1.48749 30
-2.05798 -5.64608 1.59871 15
-3.26384 -5.58369 1.01653 15
-2.06913 -5.64313 1.16051 21
-1.98342 -5.38847 0.699753 1
-1.30269 -2.22936 0.04446 49
-0.831966 -2.24736 0.123775 42
-1.3015 -2.22643 -0.13377 47
-0.83374 -2.24978 -0.0412749 49
-1.30201 -2.22552 -0.311846 49
-0.834221 -2.25105 -0.206582 49
-1.30358 -2.22644 -0.493784 47
-0.831634 -2.24878 -0.374682 49
-1.30566 -2.22556 -0.681544 53
-0.829337 -2.24969 -0.544681 50
-3.29553 -5.56634 1.48299 3
-2.08766 -5.63259 1.59806 15
-3.2789 -5.54045 1.01185 1
-2.09095 -5.61151 1.15622 17
-2.0082 -5.36604 0.698231 1
-1.31562 -2.22466 0.0445036 49
-0.846737 -2.24984 0.124167 47
-1.31823 -2.22818 -0.134295 47
-0.846777 -2.24758 -0.0413186 50
-1.31656 -2.22272 -0.312455 49
-0.848615 -2.25365 -0.207234 59
-1.31811 -2.22358 -0.494736 49
-0.844261 -2.24671 -0.375073 49
-1.32099 -2.22492 -0.683484 52
-0.842347 -2.24745 -0.545243 49
-3.30178 -5.55697 1.48187 2
-2.09244 -5.61536 1.59419 15
-3.23967 -5.45462 0.997023 1
-2.09473 -5.59176 1.15288 17
-2.01053 -5.34661 0.696102 1
-1.3195 -2.22236 0.0445036 49
-0.851148 -2.25085 0.124298 47
-1.32467 -2.23017 -0.134558 47
-0.849818 -2.24375 -0.0412749 49
-1.32386 -2.22704 -0.313367 47
-0.852547 -2.25216 -0.207234 55
-1.3245 -2.22549 -0.495689 47
-0.849049 -2.24754 -0.375465 47
-1.32859 -2.22884 -0.685424 53
-0.84673 -2.2484 -0.545805 50
-3.32832 -5.53543 1.48075 4
-2.11572 -5.59114 1.59031 15
-3.27455 -5.44817 0.998974 3
-2.11778 -5.56732 1.15002 17
-2.11714 -5.54238 0.723179 21
-1.3346 -2.22208 0.0446345 47
-0.863813 -2.24869 0.124429 45
-1.34148 -2.23176 -0.135083 47
-0.863841 -2.24643 -0.0414058 47
-1.33806 -2.22433 -0.313976 47
-0.864327 -2.24767 -0.207234 49
-1.33955 -2.22506 -0.497117 47
-0.863446 -2.24999 -0.376639 47
-1.3436 -2.22829 -0.687364 52
-0.858491 -2.24394 -0.545805 50
-3.31783 -5.49625 1.47176 12
-2.1169 -5.56486 1.58385 14
-3.23555 -5.36211 0.984145 2
-2.12059 -5.54261 1.14573 15
-2.12148 -5.52478 0.721354 23
-1.34016 -2.22165 0.0446782 47
-0.867736 -2.24718 0.124429 45
-1.34279 -2.22514 -0.13482 47
-0.868657 -2.24725 -0.0414495 47
-1.34451 -2.22624 -0.314584 47
-0.869142 -2.24848 -0.207452 49
-1.3447 -2.22482 -0.497593 47
-0.866487 -2.24617 -0.376248 47
-1.34662 -2.22364 -0.686717 53
-0.864146 -2.24699 -0.546928 50
-3.331 -5.4512 1.46446 14
-2.1435 -5.54431 1.58126 14
-3.38813 -5.5468 1.02161 9
-2.14514 -5.51999 1.14335 15
-2.15854 -5.53172 0.723788 18
-1.35568 -2.221 0.0448091 47
-0.882603 -2.24943 0.124821 45
-1.35742 -2.2221 -0.135083 45
-0.881712 -2.24485 -0.0414931 47
-1.35913 -2.22317 -0.315193 47
-0.882201 -2.24606 -0.207669 49
-1.35929 -2.2217 -0.498546 47
-0.879524 -2.24375 -0.376639 49
-1.36456 -2.22685 -0.68995 52
-0.87629 -2.24228 -0.546928 49
-3.32139 -5.41423 1.45604 12
-2.14532 -5.5203 1.57545 14
-3.3836 -5.51773 1.01731 12
-2.17981 -5.5776 1.15622 15
-3.40494 -5.55466 0.566948 11
-2.20979 -5.63424 0.737783 23
-1.36386 -2.22479 0.0449399 47
-0.885617 -2.24556 0.12469 45
-1.36652 -2.22824 -0.135608 47
-0.887456 -2.24796 -0.0415804 49
-1.363 -2.22079 -0.315193 44
-0.887029 -2.24684 -0.207887 47
-1.36702 -2.22559 -0.499974 47
-0.884339 -2.24451 -0.377031 49
-1.3701 -2.22628 -0.690597 53
-0.881089 -2.24302 -0.547489 47
-3.32878 -5.361 1.44649 12
-2.18312 -5.52883 1.58126 14
-3.40559 -5.48675 1.01497 12
-2.23879 -5.64141 1.17195 23
-3.35876 -5.41343 0.554311 1
-2.23657 -5.61298 0.736566 32
-1.37681 -2.21974 0.0449836 47
-0.898677 -2.24306 0.124821 45
-1.37948 -2.22317 -0.135739 47
-0.900531 -2.24545 -0.041624 49
-1.37893 -2.2197 -0.316106 47
-0.901548 -2.2491 -0.208539 49
-1.38034 -2.22025 -0.50045 47
-0.900122 -2.24887 -0.378597 49
-1.38557 -2.22522 -0.692537 53
-0.895008 -2.24275 -0.548612 47
-3.31529 -5.32062 1.43695 12
-2.23278 -5.62606 1.61034 15
-3.42039 -5.48918 1.01653 12
-2.24228 -5.62153 1.16861 20
-3.34845 -5.37585 0.551042 1
-2.24176 -5.59754 0.735044 27
-1.38465 -2.2237 0.0451145 45
-0.904447 -2.24612 0.125083 45
-1.386 -2.225 -0.136002 47
-0.904449 -2.24387 -0.041624 47
-1.38412 -2.2194 -0.31641 47
-0.905472 -2.24753 -0.208539 47
-1.38811 -2.22408 -0.501879 45
-0.904046 -2.2473 -0.378597 50
-1.39201 -2.2269 -0.69383 53
-0.900726 -2.24571 -0.549735 47
-3.32193 -5.26758 1.4274 12
-2.2577 -5.60309 1.60711 15
-3.47148 -5.50671 1.02317 12
-2.26525 -5.59378 1.16527 18
-3.43632 -5.45305 0.560847 12
-2.26358 -5.56733 0.732611 26
-1.40161 -2.22487 0.045289 47
-0.918075 -2.24598 0.125345 45
-1.40163 -2.22405 -0.136395 47
-0.917127 -2.24142 -0.0416676 49
-1.39969 -2.21841 -0.317323 47
-0.919104 -2.24737 -0.208974 49
-1.40236 -2.22093 -0.502831 45
-0.916729 -2.24482 -0.378989 47
-1.40494 -2.22162 -0.694476 53
-0.911558 -2.2387 -0.549174 47
-3.30935 -5.22943 1.41842 12
-2.25933 -5.57899 1.60129 15
-3.50354 -5.53611 1.0298 12
-2.26855 -5.5739 1.16194 18
-3.51243 -5.55226 0.571742 12
-2.27142 -5.55878 0.732002 27
-1.40683 -2.22454 0.0453326 47
-0.921994 -2.24437 0.125345 45
-1.40551 -2.2216 -0.136395 47
-0.92293 -2.24444 -0.0417549 47
-1.40755 -2.22226 -0.318235 47
-0.923025 -2.24576 -0.208974 47
-1.40755 -2.22055 -0.503307 45
-0.922512 -2.24779 -0.379772 47
-1.414 -2.22731 -0.697063 53
-0.919136 -2.24613 -0.55142 52
-3.31919 -5.18273 1.41056 12
-2.28393 -5.55591 1.59806 15
-3.52449 -5.50521 1.02746 12
-2.29396 -5.55287 1.16003 18
-3.54682 -5.54219 0.572613 11
-2.2929 -5.52847 0.729568 29
-1.4225 -2.22345 0.0454635 47
-0.935645 -2.24413 0.125606 44
-1.41982 -2.21841 -0.136658 45
-0.934669 -2.23958 -0.0417549 47
-1.42185 -2.21903 -0.318844 49
-0.93668 -2.2455 -0.209409 49
-1.42181 -2.21728 -0.50426 45
-0.932932 -2.24081 -0.37938 49
-1.42826 -2.22394 -0.698356 52
-0.931814 -2.24354 -0.551981 52
-3.30625 -5.14472 1.40157 12
-2.29178 -5.54745 1.59677 15
-3.54381 -5.51629 1.03058 11
-2.30083 -5.54206 1.1586 18
-3.54706 -5.52132 0.571088 11
-2.29968 -5.52027 0.72896 30
-1.42773 -2.22307 0.0455071 47
-0.939169 -2.24266 0.125606 45
-1.42909 -2.22433 -0.137183 47
-0.942425 -2.24717 -0.0419294 45
-1.42667 -2.21888 -0.319148 45
-0.942514 -2.24846 -0.209844 47
-1.42701 -2.21686 -0.504736 45
-0.939687 -2.24602 -0.380555 49
-1.43606 -2.22753 -0.700296 52
-0.93347 -2.23757 -0.550858 47
-3.31455 -5.09875 1.39371 12
-2.31704 -5.52909 1.59483 15
-3.57668 -5.50387 1.03175 9
-2.3241 -5.51903 1.15622 15
-3.56682 -5.49077 0.569781 11
-2.33144 -5.51502 0.729872 23
-1.44305 -2.2221 0.045638 49
-0.953814 -2.24461 0.125999 45
-1.44169 -2.21916 -0.137314 45
-0.953787 -2.24237 -0.0419294 47
-1.44233 -2.21762 -0.320061 45
-0.954852 -2.24595 -0.210061 47
-1.44625 -2.22195 -0.507593 44
-0.953923 -2.24806 -0.381729 50
-1.45128 -2.2263 -0.702236 52
-0.949899 -2.24388 -0.553666 49
-3.30258 -5.06294 1.38529 11
-2.32575 -5.52281 1.59419 14
-3.57993 -5.48997 1.03019 9
-2.35664 -5.56923 1.16766 14
-3.58184 -5.49288 0.570652 11
-2.38657 -5.62102 0.744476 29
-1.44829 -2.22167 0.0456817 47
-0.957339 -2.24311 0.125999 47
-1.44966 -2.22291 -0.137708 47
-0.959655 -2.24531 -0.0420167 45
-1.44853 -2.21951 -0.320669 45
-0.958771 -2.24428 -0.210061 47
-1.45012 -2.21942 -0.507593 45
-0.958809 -2.24866 -0.382121 47
-1.45516 -2.22377 -0.702236 52
-0.95532 -2.24687 -0.554789 50
-3.31697 -5.02728 1.38023 9
-2.38113 -5.5754 1.61293 12
-3.60998 -5.47321 1.03058 8
-2.41474 -5.62716 1.18243 21
-3.63702 -5.51626 0.57501 8
-2.41205 -5.59933 0.743259 27
-1.45952 -2.21431 0.0456817 47
-0.971045 -2.24265 0.12626 45
-1.46364 -2.21971 -0.137971 45
-0.971997 -2.24272 -0.0420603 45
-1.46424 -2.2181 -0.321582 47
-0.97406 -2.24855 -0.210931 49
-1.46269 -2.2141 -0.508069 44
-0.97057 -2.24361 -0.382121 49
-1.4704 -2.22241 -0.704176 52
-0.967072 -2.24184 -0.554789 50
-3.3141 -5.00581 1.37574 4
-2.41272 -5.6223 1.62779 14
-3.68635 -5.56778 1.0497 9
-2.42456 -5.62294 1.18243 21
-3.68239 -5.56389 0.580675 11
-2.42181 -5.59511 0.743259 26
-1.46752 -2.21802 0.0458126 45
-0.974958 -2.24095 0.12626 47
-1.47165 -2.2234 -0.138365 45
-0.976903 -2.24331 -0.0421039 45
-1.47085 -2.21968 -0.32219 47
-0.977983 -2.24685 -0.210931 47
-1.47198 -2.21972 -0.509974 44
-0.976444 -2.24645 -0.382904 47
-1.47829 -2.22588 -0.706116 52
-0.973876 -2.24686 -0.556474 49
-2.44212 -5.60959 1.62779 15
-3.72232 -5.55866 1.05165 9
-2.44906 -5.59892 1.18005 17
-3.7087 -5.5404 0.580239 11
-2.4461 -5.57099 0.741738 26
-1.4819 -2.21445 0.0458998 47
-0.990692 -2.24496 0.126784 47
-1.48605 -2.21981 -0.138627 45
-0.990647 -2.24274 -0.0421912 45
-1.4866 -2.21813 -0.323103 45
-0.990735 -2.24398 -0.211148 50
-1.48769 -2.2181 -0.511402 45
-0.989185 -2.24356 -0.383295 47
-1.49262 -2.22211 -0.707409 52
-0.986604 -2.24396 -0.557035 49
-2.44901 -5.59868 1.62585 14
-3.73753 -5.56035 1.05322 9
-2.4539 -5.5834 1.17766 17
-3.71003 -5.52151 0.578932 11
-2.45082 -5.55536 0.740217 23
-1.48855 -2.21601 0.0459871 45
-0.994609 -2.24323 0.126784 45
-1.4955 -2.2255 -0.139152 45
-0.996579 -2.24558 -0.0422784 45
-1.49047 -2.21553 -0.323103 44
-0.996661 -2.2468 -0.211583 47
-1.49293 -2.21753 -0.511878 45
-0.994095 -2.24409 -0.383687 47
-1.49785 -2.22151 -0.708056 52
-0.989538 -2.24001 -0.556474 50
-2.47536 -5.57915 1.62391 14
-3.74576 -5.51007 1.04736 8
-2.47512 -5.55254 1.17385 15
-3.73749 -5.49995 0.578714 11
-2.47178 -5.52432 0.737783 23
-1.50435 -2.21439 0.046118 45
-1.00838 -2.24255 0.127046 45
-1.50994 -2.22177 -0.139415 45
-1.00934 -2.24261 -0.0423221 45
-1.50903 -2.21795 -0.324624 45
-1.01248 -2.25064 -0.212453 49
-1.51005 -2.2178 -0.513783 45
-1.00785 -2.24337 -0.38447 47
-1.5149 -2.22161 -0.710642 52
-1.00522 -2.2437 -0.55872 49
-2.48019 -5.56379 1.62068 14
-3.75816 -5.50761 1.04814 4
-2.4758 -5.52804 1.16956 15
-3.73726 -5.47902 0.577189 9
-2.48345 -5.52452 0.738391 26
-1.51103 -2.21589 0.0462052 45
-1.01434 -2.24534 0.127307 45
-1.51522 -2.22119 -0.139546 45
-1.01428 -2.24313 -0.0423657 47
-1.5157 -2.21941 -0.325233 45
-1.01539 -2.2466 -0.212236 47
-1.51669 -2.21921 -0.514735 45
-1.01277 -2.24386 -0.384861 47
-1.52287 -2.22494 -0.712582 52
-1.00913 -2.24194 -0.55872 49
-2.50628 -5.54148 1.6181 14
-3.76966 -5.46078 1.04307 8
-2.50871 -5.52127 1.17099 18
-3.76543 -5.45667 0.576971 9
-2.52461 -5.53585 0.741738 26
-1.52584 -2.2118 0.0462925 45
-1.02751 -2.24209 0.127438 45
-1.53005 -2.21707 -0.139809 44
-1.02848 -2.24216 -0.042453 45
-1.53333 -2.21934 -0.32645 45
-1.03166 -2.25014 -0.213106 49
-1.53147 -2.215 -0.515688 45
-1.02758 -2.24526 -0.386036 47
-1.53626 -2.21865 -0.713229 50
-1.02326 -2.24088 -0.559843 50
-2.50797 -5.51951 1.61293 14
-3.80636 -5.49544 1.05087 8
-2.53767 -5.55932 1.18005 15
-3.81751 -5.5115 0.583508 9
-2.57765 -5.62893 0.75482 30
-1.53397 -2.21529 0.0464234 45
-1.02999 -2.2382 0.127307 45
-1.53677 -2.2185 -0.140071 45
-1.03447 -2.2449 -0.0425402 45
-1.53823 -2.21897 -0.326754 45
-1.03455 -2.24607 -0.212888 49
-1.53813 -2.21636 -0.51664 45
-1.03149 -2.24347 -0.386036 47
-1.54565 -2.2239 -0.715815 50
-1.02678 -2.23927 -0.559843 49
-2.54596 -5.52869 1.61939 14
-3.8691 -5.52397 1.06024 9
-2.58944 -5.59765 1.19101 18
-3.87536 -5.53495 0.588083 11
-2.60709 -5.61535 0.75482 27
-1.54947 -2.21364 0.0465543 45
-1.04485 -2.23957 0.1277 45
-1.55123 -2.21451 -0.140334 44
-1.04688 -2.2419 -0.0425839 47
-1.04839 -2.24514 -0.213323 49
-1.55356 -2.21457 -0.518068 45
-1.0453 -2.24252 -0.386819 47
-1.55828 -2.21802 -0.716462 52
-1.03952 -2.23608 -0.560404 50
-2.57281 -5.56151 1.63037 14
-3.89862 -5.54549 1.0657 9
-2.61154 -5.61716 1.19625 18
-3.88501 -5.52817 0.588083 11
-2.60013 -5.5748 0.749952 18
-1.55659 -2.21475 0.0466416 45
-1.04876 -2.23774 0.1277 44
-1.55796 -2.21588 -0.140596 44
-1.05185 -2.24234 -0.0426275 45
-1.05231 -2.24331 -0.213323 49
-1.56167 -2.21787 -0.519497 45
-1.04922 -2.24069 -0.386819 47
-1.56671 -2.22094 -0.718402 50
-1.04547 -2.23868 -0.561527 49
-3.35706 -4.71929 1.32689 3
-2.62744 -5.6 1.64588 14
-3.92427 -5.51828 1.06453 8
-2.62629 -5.57232 1.18958 15
-3.90765 -5.49692 0.586994 11
-2.61013 -5.51801 0.744172 15
-1.57251 -2.21268 0.0467724 45
-1.06512 -2.24106 0.128223 44
-1.06717 -2.24339 -0.0427584 45
-1.06617 -2.24227 -0.213758 45
-1.5765 -2.21339 -0.520449 45
-1.06554 -2.24391 -0.388385 47
-1.58253 -2.21861 -0.720341 50
-1.05757 -2.23299 -0.561527 50
-3.3857 -4.74375 1.33531 4
-2.62385 -5.567 1.63748 14
-3.92242 -5.49534 1.06141 8
-2.62134 -5.53666 1.18291 14
-3.91 -5.47996 0.585904 9
-2.61657 -5.50672 0.743259 20
-1.0701 -2.24146 0.128354 45
-1.07323 -2.24604 -0.0428457 47
-1.07115 -2.24266 -0.213975 45
-1.58464 -2.21662 -0.521878 45
-1.07052 -2.24428 -0.388776 47
-1.58921 -2.21977 -0.721635 50
-1.06355 -2.23554 -0.56265 49
-3.44555 -4.77276 1.34879 9
-2.64153 -5.5292 1.63037 14
-3.93957 -5.45871 1.05829 4
-2.64287 -5.50737 1.17957 15
-3.92261 -5.4372 0.583508 11
-2.64966 -5.50189 0.744476 23
-1.08182 -2.23582 0.128354 44
-1.08498 -2.24039 -0.0428457 47
-1.08504 -2.2415 -0.21441 45
-1.084 -2.24328 -0.38956 47
-1.60223 -2.21337 -0.722281 49
-1.07629 -2.23214 -0.563212 49
-2.65848 -5.53983 1.6349 14
-2.65354 -5.50496 1.18005 15
-2.65615 -5.49326 0.743867 23
-1.0875 -2.23862 0.128616 44
-1.08997 -2.24074 -0.0428893 47
-1.09221 -2.24633 -0.215063 47
-1.09006 -2.24583 -0.390343 49
-1.61035 -2.21643 -0.724221 50
-1.08085 -2.23264 -0.563773 49
-2.67489 -5.5024 1.62779 14
-2.68675 -5.50249 1.18243 17
-2.69032 -5.49042 0.745389 27
-1.10141 -2.23738 0.128877 44
-1.1046 -2.24193 -0.0430202 45
-1.10615 -2.24505 -0.215498 45
-1.10181 -2.24009 -0.390343 47
-1.62584 -2.21409 -0.726161 49
-1.09574 -2.23352 -0.565458 49
-2.69189 -5.51292 1.63231 15
-2.69623 -5.49511 1.18195 17
-2.69881 -5.48349 0.745084 24
-1.10751 -2.23993 0.129139 44
-1.16169 -1.58147 -0.101345 12
-1.11072 -2.24449 -0.0431074 45
-1.11226 -2.24759 -0.215932 49
-1.10898 -2.24481 -0.391517 47
-1.63152 -2.2129 -0.726808 49
-1.10178 -2.23598 -0.566581 49
-3.31268 -4.45639 1.27186 4
-2.72061 -5.49611 1.63167 14
-3.30231 -4.44405 0.86942 1
-2.73696 -5.5051 1.1872 18
-3.28506 -4.42244 0.478921 4
-2.74392 -5.4999 0.749344 21
-1.22478 -1.64969 0.0352539 12
-1.12185 -2.23837 0.129401 44
-1.16697 -1.57136 -0.101082 14
-1.12397 -2.24068 -0.0431511 45
-1.12291 -2.23951 -0.215715 45
-1.12182 -2.24119 -0.391909 47
-1.64886 -2.21207 -0.729394 49
-1.11386 -2.22998 -0.566581 47
-3.32259 -4.45508 1.27298 4
-2.74201 -5.51515 1.63877 15
-3.30043 -4.42698 0.867078 1
-2.76846 -5.54425 1.19673 18
-3.30171 -4.42867 0.480228 3
-2.77031 -5.5311 0.754212 21
-1.2172 -1.63353 0.0349484 11
-1.12648 -2.23884 0.129531 44
-1.16673 -1.56532 -0.10082 14
-1.129 -2.24095 -0.0431947 47
-1.16328 -1.55958 -0.234265 3
-1.12904 -2.242 -0.21615 49
-1.1692 -1.5658 -0.372362 12
-1.12463 -2.23702 -0.391517 47
-1.65707 -2.21499 -0.731334 49
-1.11954 -2.23259 -0.567704 47
-2.77422 -5.50983 1.64136 14
-2.80312 -5.54331 1.19959 15
-2.84632 -5.60949 0.76699 35
-1.14157 -2.23959 0.129924 44
-1.17313 -1.5574 -0.100688 15
-1.14259 -2.23966 -0.043282 45
-1.16994 -1.55149 -0.233961 4
-1.14489 -2.24514 -0.21702 49
-1.16379 -1.54224 -0.368076 15
-1.13856 -2.2355 -0.3923 47
-1.67117 -2.21043 -0.732627 49
-1.13341 -2.23105 -0.568827 47
-2.81974 -5.57613 1.66268 14
-2.85495 -5.62159 1.2177 21
-2.85048 -5.59346 0.765469 27
-1.14548 -2.2376 0.129924 44
-1.17133 -1.54938 -0.100295 15
-1.14763 -2.23989 -0.0433256 45
-1.16815 -1.54352 -0.233048 8
-1.14993 -2.24535 -0.217237 49
-1.16203 -1.53434 -0.366648 15
-1.14358 -2.23571 -0.392692 47
-1.1384 -2.23124 -0.569389 47
-2.86869 -5.6 1.67432 15
-2.86978 -5.57819 1.2115 17
-2.86723 -5.55419 0.762122 24
-1.23526 -1.61676 0.0349048 11
-1.16062 -2.23822 0.130317 44
-1.17791 -1.54125 -0.100163 15
-1.16164 -2.23829 -0.0434129 45
-1.1747 -1.53541 -0.232744 14
-1.16053 -2.23709 -0.21702 45
-1.16109 -1.51655 -0.363791 15
-1.15601 -2.23209 -0.393083 47
-1.1523 -2.22958 -0.570512 47
-2.86081 -5.56061 1.66398 14
-2.86938 -5.55354 1.20721 15
-2.85999 -5.51883 0.757863 21
-1.24265 -1.62055 0.0350357 11
-1.16413 -2.2364 0.130317 44
-1.17755 -1.53523 -0.0999007 15
-1.16554 -2.23626 -0.0434129 45
-1.17863 -1.53553 -0.233048 24
-1.17017 -2.24611 -0.218107 47
-1.15625 -1.5048 -0.36141 17
-1.16217 -2.23445 -0.393866 47
-1.15804 -2.2321 -0.571635 47
-2.88446 -5.53749 1.66139 14
-2.88723 -5.51936 1.20292 15
-2.88654 -5.49938 0.757254 21
-1.2493 -1.61227 0.0349921 11
-1.17814 -2.23469 0.130578 44
-1.19296 -1.53911 -0.100557 14
-1.17917 -2.23476 -0.0435001 45
-1.18513 -1.52738 -0.232744 17
-1.18268 -2.24237 -0.218324 45
-1.15933 -1.49311 -0.359981 18
-1.17386 -2.22834 -0.393866 45
-1.16971 -2.226 -0.571635 47
-2.8863 -5.51746 1.65687 14
-2.8923 -5.50562 1.20102 15
-2.91809 -5.53606 0.763035 21
-1.25672 -1.616 0.035123 11
-1.18321 -2.23484 0.130709 44
-1.19411 -1.53506 -0.100426 14
-1.18657 -2.23933 -0.043631 44
-1.18932 -1.52726 -0.233048 15
-1.18659 -2.2403 -0.218324 45
-1.1559 -1.48335 -0.358077 18
-1.1812 -2.23284 -0.395041 45
-1.17812 -2.23258 -0.573881 47
-2.92192 -5.51508 1.66075 14
-3.03504 -5.70498 1.2482 14
-1.72392 -2.19295 0.240986 12
-3.03338 -5.68276 0.785548 15
-1.27444 -1.62118 0.0353848 11
-1.19842 -2.23522 0.131102 44
-1.21013 -1.53838 -0.101082 14
-1.19828 -2.23309 -0.043631 44
-1.19576 -1.51907 -0.232744 14
-1.19987 -2.23604 -0.218542 45
-1.15909 -1.4715 -0.356648 18
-1.19403 -2.2288 -0.395432 45
-1.19094 -2.22853 -0.574442 45
-3.04028 -5.71473 1.72278 20
-3.03328 -5.67533 1.24296 15
-1.73083 -2.19385 0.241421 12
-3.01871 -5.63151 0.779159 17
-1.28065 -1.62266 0.035472 11
-1.2035 -2.23533 0.131232 44
-1.21591 -1.54018 -0.101345 14
-1.20453 -2.2354 -0.0437183 44
-1.19841 -1.51698 -0.232744 14
-1.2073 -2.24053 -0.219194 47
-1.14947 -1.45408 -0.352839 17
-1.20142 -2.23325 -0.396607 44
-1.19483 -2.22645 -0.574442 44
-3.04369 -5.64716 1.70727 14
-3.04429 -5.62482 1.23533 17
-3.04677 -5.61073 0.778551 35
-1.29381 -1.62179 0.0356029 11
-1.21796 -2.23317 0.131494 44
-1.23175 -1.54354 -0.102001 14
-1.21661 -2.22885 -0.0437183 44
-1.21125 -1.51628 -0.233657 14
-1.21902 -2.23418 -0.219194 44
-1.15732 -1.44784 -0.352839 15
-1.21466 -2.22888 -0.396998 45
-1.20917 -2.22424 -0.575566 45
-3.04436 -5.62484 1.7021 24
-3.05644 -5.62381 1.23629 33
-3.06012 -5.61194 0.779464 35
-1.30133 -1.62538 0.0357338 11
-1.22185 -2.23104 0.131494 44
-1.23912 -1.54724 -0.102395 14
-1.22289 -2.23111 -0.0438055 44
-1.217 -1.51804 -0.234265 15
-1.22411 -2.23423 -0.219412 44
-1.15369 -1.43816 -0.350934 17
-1.22209 -2.23327 -0.398173 44
-1.21538 -2.22641 -0.576689 45
-3.07957 -5.61941 1.70533 32
-3.08821 -5.61204 1.23724 35
-3.09066 -5.59802 0.779768 21
-1.31297 -1.62243 0.0358211 11
-1.23593 -2.22899 0.131756 44
-1.25192 -1.54654 -0.102789 14
-1.23698 -2.22905 -0.0438928 44
-1.22494 -1.51164 -0.234265 14
-1.2382 -2.23215 -0.219847 44
-1.15502 -1.42448 -0.34903 15
-1.23616 -2.23116 -0.398956 44
-1.22937 -2.22428 -0.577812 45
-3.09286 -5.62038 1.70727 30
-3.098 -5.60664 1.23724 20
-3.10883 -5.60781 0.781897 33
-1.32211 -1.62789 0.0359956 12
-1.24224 -2.23119 0.132017 44
-1.2625 -1.55404 -0.103445 14
-1.24208 -2.22908 -0.0439364 44
-1.22914 -1.51143 -0.234569 14
-1.24692 -2.2387 -0.220716 44
-1.15285 -1.41676 -0.347601 15
-1.24244 -2.23332 -0.399739 44
-1.23561 -2.2264 -0.578935 45
-3.12342 -5.60622 1.70792 27
-3.14167 -5.61605 1.24296 32
-3.14543 -5.60445 0.783723 32
-1.33696 -1.62867 0.0361701 12
-1.25513 -2.22683 0.132148 44
-1.27406 -1.55104 -0.103708 14
-1.25618 -2.2269 -0.0440237 44
-1.24334 -1.51263 -0.235786 14
-1.25901 -2.23192 -0.220716 44
-1.15557 -1.40502 -0.346173 15
-1.25653 -2.23109 -0.400522 44
-1.25082 -2.22628 -0.580619 45
-3.14262 -5.61763 1.71309 32
-3.15845 -5.62071 1.24534 32
-3.15764 -5.60327 0.784331 32
-1.34327 -1.62995 0.0362574 12
-1.26269 -2.23117 0.132541 44
-1.28312 -1.55652 -0.104233 14
-1.26252 -2.22906 -0.044111 44
-1.25072 -1.5162 -0.236699 14
-1.26536 -2.23406 -0.221151 44
-1.1549 -1.39921 -0.34522 14
-1.26164 -2.23105 -0.400914 44
-1.25589 -2.22621 -0.581181 45
-3.17891 -5.61105 1.71632 32
-3.19753 -5.62117 1.24915 33
-3.19651 -5.6012 0.786461 33
-1.35178 -1.6229 0.0362574 12
-1.2735 -2.22213 0.13241 44
-1.29925 -1.55936 -0.104889 14
-1.27704 -2.22654 -0.0441982 44
-1.26686 -1.51893 -0.23822 14
-1.27827 -2.22957 -0.221369 44
-1.1656 -1.39671 -0.346173 14
-1.27575 -2.2287 -0.401697 44
-1.26912 -2.2215 -0.581742 44
-4.559 -5.4489 1.62955 12
-3.19347 -5.6139 1.7189 32
-4.56291 -5.45548 1.11838 11
-3.21099 -5.62198 1.25058 33
-3.21269 -5.6091 0.788287 32
-1.36745 -1.63587 0.0366064 12
-1.28071 -2.22663 0.132802 44
-1.30999 -1.56666 -0.105546 14
-1.28341 -2.22864 -0.0442855 44
-1.27403 -1.52265 -0.239133 14
-1.28587 -2.23382 -0.222021 44
-1.16172 -1.38715 -0.344268 12
-1.28331 -2.2329 -0.402871 44
-1.84958 -2.2041 -0.761079 11
-1.27503 -2.22374 -0.582865 45
-4.63939 -5.48633 1.64808 9
-3.22425 -5.60185 1.7202 30
-4.65838 -5.51071 1.13477 12
-3.24799 -5.62053 1.25392 32
-4.65368 -5.50709 0.627739 14
-3.24575 -5.59864 0.789199 32
-1.37571 -1.62893 0.0366064 12
-1.29486 -2.22421 0.133064 44
-1.32435 -1.56764 -0.106071 14
-1.29719 -2.22644 -0.0443727 44
-1.29 -1.52543 -0.240654 14
-1.29966 -2.23159 -0.222456 44
-1.16714 -1.37938 -0.343792 14
-1.29622 -2.22829 -0.403263 44
-1.86227 -2.19655 -0.761726 9
-1.29153 -2.22547 -0.585111 45
-4.68268 -5.5199 1.66044 11
-3.24126 -5.60877 1.72407 30
-4.67278 -5.50822 1.13594 12
-3.26148 -5.62123 1.25535 30
-4.67618 -5.51415 0.629482 14
-3.2605 -5.60155 0.790416 24
-1.38502 -1.63415 0.0367809 12
-1.30125 -2.22626 0.133326 44
-1.32385 -1.56152 -0.105808 14
-1.30233 -2.22634 -0.0444164 44
-1.3007 -1.53263 -0.242175 14
-1.30356 -2.22932 -0.222456 44
-1.1616 -1.368 -0.341411 14
-1.30259 -2.23029 -0.404046 44
-1.86454 -2.19146 -0.761079 8
-1.29541 -2.22321 -0.585111 44
-4.71089 -5.49263 1.65987 11
-3.28398 -5.61466 1.73118 29
-4.70477 -5.48742 1.13672 12
-3.29583 -5.61254 1.25726 12
-4.68877 -5.47068 0.627303 14
-3.28601 -5.57799 0.789503 2
-1.4017 -1.63636 0.0369991 12
-1.32049 -2.23233 0.134111 45
-1.33878 -1.56191 -0.106333 14
-1.31778 -2.22595 -0.0445473 42
-1.31517 -1.53332 -0.243392 14
-1.32066 -2.23081 -0.223326 44
-1.16395 -1.35631 -0.339982 14
-1.31676 -2.22769 -0.404829 44
-1.88229 -2.18899 -0.763665 9
-1.31073 -2.2227 -0.586796 44
-4.72365 -5.4881 1.661 11
-3.28645 -5.59642 1.72731 4
-4.71434 -5.47921 1.13672 12
-3.32528 -5.63792 1.2644 1
-4.69994 -5.46438 0.627521 12
-3.23266 -5.4654 0.774291 1
-1.40484 -1.63367 0.0369991 12
-1.32312 -2.22787 0.13398 44
-1.34966 -1.56903 -0.10699 14
-1.3242 -2.22794 -0.0446345 42
-1.33081 -1.54606 -0.245826 14
-1.32836 -2.23493 -0.223978 42
-1.1615 -1.3487 -0.338554 12
-1.32441 -2.23177 -0.406003 44
-1.88491 -2.18354 -0.763019 9
-1.31585 -2.22251 -0.587358 44
-4.75167 -5.46062 1.66044 11
-3.29449 -5.54117 1.71567 1
-4.74716 -5.45734 1.1375 11
-3.35224 -5.61622 1.26345 1
-4.72943 -5.43887 0.627521 12
-3.23545 -5.40311 0.767902 1
-1.41993 -1.63383 0.0371736 12
-1.34156 -2.23139 0.134634 45
-1.35785 -1.56194 -0.10699 15
-1.34009 -2.22718 -0.0447654 42
-1.33915 -1.53884 -0.245826 14
-1.34004 -2.22795 -0.223978 42
-1.16556 -1.3387 -0.337602 14
-1.33861 -2.22904 -0.406786 42
-1.90267 -2.18092 -0.765605 11
-1.3316 -2.22163 -0.589042 44
-4.76345 -5.45682 1.66156 9
-3.31034 -5.54579 1.7189 2
-4.75086 -5.4443 1.13633 11
-3.33684 -5.56824 1.25392 3
-4.73728 -5.42873 0.627303 12
-3.2835 -5.46398 0.777334 2
-1.42772 -1.637 0.0373045 12
-1.34507 -2.22928 0.134634 42
-1.3655 -1.56521 -0.107383 14
-1.34656 -2.22912 -0.0448527 42
-1.34973 -1.54607 -0.247347 14
-1.34649 -2.22987 -0.224413 42
-1.34377 -2.22882 -0.407178 42
-1.90329 -2.17396 -0.764312 11
-1.33634 -2.22163 -0.589604 44
-4.78712 -5.42632 1.65987 8
-3.33587 -5.52483 1.71761 14
-4.794 -5.43601 1.13984 9
-3.38658 -5.58697 1.26202 2
-4.79435 -5.4383 0.631225 8
-3.38933 -5.57398 0.795588 11
-1.43929 -1.6335 0.0373918 12
-1.36061 -2.22861 0.135027 42
-1.38194 -1.56739 -0.10804 14
-1.36172 -2.22868 -0.0449836 42
-1.36274 -1.54457 -0.24826 14
-1.36333 -2.2313 -0.225283 42
-1.35671 -2.22386 -0.407569 42
-1.92387 -2.17515 -0.768192 12
-1.35048 -2.21877 -0.590727 44
-4.8095 -5.43255 1.66437 4
-3.3255 -5.48594 1.70727 14
-4.81494 -5.44058 1.14258 4
-3.40112 -5.58675 1.26345 11
-4.83189 -5.46163 0.63493 8
-3.38743 -5.54899 0.79285 12
-1.4474 -1.63635 0.0375227 12
-1.3658 -2.22836 0.135158 42
-1.38964 -1.57059 -0.108434 14
-1.36691 -2.22844 -0.0450272 42
-1.36708 -1.54404 -0.248564 14
-1.36852 -2.23105 -0.2255 44
-1.36444 -2.22782 -0.408744 42
-1.92804 -2.17145 -0.768192 11
-1.35688 -2.22057 -0.59185 44
-4.8957 -5.46997 1.68402 3
-3.33874 -5.44109 1.69887 12
-4.94147 -5.52301 1.1656 9
-3.4149 -5.54378 1.25773 11
-4.94274 -5.52635 0.645606 11
-3.40828 -5.5158 0.79072 12
-1.45761 -1.63061 0.0375663 12
-1.38177 -2.22731 0.13555 42
-1.40118 -1.56701 -0.108696 14
-1.38026 -2.22313 -0.0450708 42
-1.38701 -1.54956 -0.250694 14
-1.3828 -2.22809 -0.225935 42
-1.37868 -2.22484 -0.409527 42
-1.94584 -2.16851 -0.770778 11
-1.37271 -2.21942 -0.593534 45
-4.95475 -5.51846 1.70143 12
-3.32293 -5.39411 1.68595 11
-4.96994 -5.53729 1.17028 11
-3.40781 -5.51067 1.25154 12
-4.97401 -5.54181 0.648439 11
-3.39604 -5.47668 0.785853 12
-1.46547 -1.63364 0.0376972 12
-1.38659 -2.22726 0.135681 39
-1.41225 -1.57385 -0.109353 14
-1.38546 -2.22285 -0.0451145 41
-1.39441 -1.55291 -0.251607 14
-1.38669 -2.22567 -0.225935 42
-1.38516 -2.22663 -0.41031 42
-1.95447 -2.17049 -0.772718 9
-1.37747 -2.21933 -0.594096 44
-5.02124 -5.53393 1.71434 11
-3.33105 -5.34646 1.67625 11
-5.02541 -5.54045 1.17653 11
-3.46296 -5.53706 1.26154 12
-5.01873 -5.53501 0.650618 12
-3.43653 -5.47775 0.788591 11
-1.47539 -1.62805 0.0377408 12
-1.39956 -2.22208 0.135812 38
-1.42383 -1.57013 -0.109615 14
-1.40068 -2.22216 -0.0452454 41
-1.40229 -2.22471 -0.226588 42
-1.40074 -2.22563 -0.411485 42
-1.96706 -2.16236 -0.773365 8
-1.39037 -2.21415 -0.594657 44
-5.04565 -5.54137 1.7194 12
-3.32247 -5.31196 1.66721 11
-5.04339 -5.5408 1.17848 9
-3.50226 -5.57615 1.27203 11
-5.0418 -5.54098 0.652361 11
-3.5108 -5.57468 0.803499 12
-1.48525 -1.63261 0.0379153 12
-1.40609 -2.22386 0.136073 36
-1.42993 -1.57133 -0.109878 14
-1.40455 -2.21971 -0.0452454 41
-1.40883 -2.22647 -0.227023 41
-1.40594 -2.22527 -0.411876 42
-1.97447 -2.16214 -0.774658 3
-1.39682 -2.21585 -0.59578 42
-5.08711 -5.52653 1.72333 9
-3.32923 -5.2592 1.65622 11
-5.09169 -5.53342 1.18277 11
-3.54587 -5.58053 1.27727 11
-5.08856 -5.53194 0.65454 11
-3.53692 -5.54932 0.802586 9
-1.49547 -1.62665 0.037959 12
-1.42213 -2.22254 0.136466 35
-1.44321 -1.56933 -0.110272 14
-1.42058 -2.2184 -0.0453763 41
-1.42449 -2.22536 -0.227675 42
-1.42022 -2.22204 -0.412659 42
-1.99232 -2.15887 -0.777245 3
-1.41401 -2.21649 -0.598027 44
-5.12389 -5.54895 1.73287 9
-3.319 -5.22279 1.64653 11
-5.11713 -5.54355 1.18667 11
-3.5477 -5.56191 1.27441 9
-5.10666 -5.5322 0.655629 12
-3.54029 -5.53539 0.801369 9
-1.5034 -1.62955 0.0380899 12
-1.42427 -2.2182 0.136335 29
-1.44595 -1.56681 -0.110272 14
-1.42579 -2.21802 -0.0454199 41
-1.42971 -2.22497 -0.227892 42
-1.42676 -2.22372 -0.413442 42
-2.00921 -2.16956 -0.782418 2
-1.42142 -2.22042 -0.599711 44
-5.15952 -5.52917 1.73512 9
-3.32714 -5.17747 1.63748 11
-5.15956 -5.53113 1.18979 11
-3.57315 -5.53976 1.27346 11
-5.15328 -5.52632 0.658026 12
-3.56518 -5.51053 0.800456 9
-1.51333 -1.62374 0.0381335 12
-1.444 -2.22328 0.13712 30
-1.46265 -1.56834 -0.110928 14
-1.44515 -2.22337 -0.0456817 42
-1.44675 -2.22582 -0.228762 42
-1.43838 -2.21622 -0.413442 42
-2.02017 -2.15936 -0.782418 1
-1.43435 -2.215 -0.600273 44
-5.18415 -5.53616 1.74017 9
-3.31394 -5.13714 1.6265 11
-5.1844 -5.53834 1.19331 9
-3.57311 -5.5164 1.26965 4
-5.17143 -5.5264 0.659115 4
-3.56669 -5.4918 0.798631 9
-1.52499 -1.62996 0.0383517 12
-1.44652 -2.21867 0.136989 27
-1.45856 -1.5585 -0.110403 14
-1.45175 -2.22503 -0.0457689 41
-1.45199 -2.22538 -0.22898 42
-1.44493 -2.21785 -0.414225 42
-2.03424 -2.16604 -0.786297 2
-1.44086 -2.21658 -0.601396 44
-5.22743 -5.52218 1.74467 1
-3.32586 -5.09485 1.61874 11
-5.24824 -5.54607 1.20111 1
-3.59658 -5.4894 1.26774 4
-5.19783 -5.49473 0.65868 9
-3.59404 -5.47098 0.798326 8
-1.45988 -2.21289 0.13712 23
-1.46498 -1.54903 -0.110272 12
-1.46652 -2.22132 -0.0458562 42
-1.46363 -2.21774 -0.22898 42
-1.45924 -2.21438 -0.415008 42
-2.04389 -2.15361 -0.785651 2
-1.45378 -2.21104 -0.601957 42
-5.22603 -5.50336 1.7413 8
-3.31007 -5.05324 1.60711 11
-5.21103 -5.48947 1.19057 11
-3.61327 -5.49605 1.2706 4
-5.18931 -5.46849 0.656501 9
-3.67863 -5.57869 0.81506 8
-1.46747 -2.21685 0.137513 21
-1.47001 -2.21902 -0.0458562 42
-1.47534 -2.22792 -0.230285 42
-1.46679 -2.21827 -0.416183 42
-1.45993 -2.21283 -0.60308 42
-5.23094 -5.45491 1.734 9
-3.31875 -5.01282 1.59936 11
-5.21729 -5.44255 1.18589 9
-3.70114 -5.57036 1.29205 4
-3.70447 -5.55858 0.814755 9
-1.47829 -2.20965 0.137513 18
-1.48499 -2.21804 -0.0459871 41
-1.48759 -2.22275 -0.230502 42
-1.18808 -1.23834 -0.326174 14
-1.47936 -2.21287 -0.416574 42
-1.4792 -2.21759 -0.606449 44
-3.30747 -4.97684 1.58966 11
-3.71902 -5.57615 1.29491 4
-3.71417 -5.5521 0.814755 9
-1.48631 -2.2133 0.137905 15
-1.49164 -2.2196 -0.0460743 41
-1.49146 -2.22015 -0.230502 42
-1.18002 -1.22566 -0.323317 14
-1.48734 -2.21645 -0.417749 42
-1.48577 -2.21906 -0.607573 44
-3.31281 -4.92678 1.57932 11
-3.73816 -5.53966 1.29109 4
-3.73443 -5.51754 0.812626 9
-1.50246 -2.21142 0.138298 15
-1.50503 -2.21357 -0.046118 41
-1.50625 -2.21618 -0.230937 42
-1.19006 -1.22278 -0.324269 12
-1.50069 -2.21041 -0.41814 41
-1.50184 -2.21704 -0.609257 44
-3.30116 -4.89095 1.56963 11
-3.74645 -5.5311 1.29062 4
-3.74127 -5.5069 0.812017 8
-1.50632 -2.2088 0.138298 14
-1.5117 -2.21507 -0.0462052 41
-1.51431 -2.21972 -0.231589 41
-1.18704 -1.21543 -0.32284 12
-1.50871 -2.21392 -0.419315 41
-1.50571 -2.21442 -0.609257 44
-3.20284 -3.24761 1.04332 2
-3.31041 -4.84965 1.56188 12
-3.77675 -5.51343 1.29109 4
-3.21844 -3.26566 0.398084 3
-3.75321 -5.46268 0.808366 8
-2.1406 -2.17192 0.052619 36
-1.52634 -2.21323 0.139083 14
-1.52753 -2.21331 -0.0463361 41
-1.52874 -2.21587 -0.232024 41
-1.19684 -1.21269 -0.323793 9
-1.52587 -2.21413 -0.420881 41
-1.52141 -2.21253 -0.610942 42
-3.2165 -3.25123 1.04613 3
-3.30251 -4.81995 1.55412 12
-3.14194 -3.17589 0.700452 1
-3.77525 -5.49064 1.28728 4
-3.21187 -3.24765 0.396559 12
-3.81621 -5.53379 0.819928 8
-2.16901 -2.19305 0.0532298 38
-1.53304 -2.21467 0.139344 14
-1.5326 -2.2132 -0.232024 41
-1.19895 -1.2106 -0.323793 9
-1.53254 -2.21553 -0.421664 41
-1.52803 -2.21389 -0.612065 42
-3.23405 -3.23378 1.04613 4
-3.30847 -4.77478 1.54508 12
-3.16202 -3.16289 0.701233 1
-3.83334 -5.51313 1.29729 4
-3.23587 -3.23783 0.39743 8
-3.8664 -5.54428 0.824491 9
-2.18577 -2.18696 0.0533607 36
-1.54461 -2.20661 0.139344 12
-1.54844 -2.21127 -0.232677 41
-1.2018 -1.20084 -0.32284 8
-1.54694 -2.21153 -0.422447 41
-1.54517 -2.21386 -0.614311 44
-3.29751 -4.74123 1.53603 12
-3.88224 -5.56281 1.31063 8
-3.88034 -5.54362 0.825404 9
-2.19489 -2.18844 0.0534916 35
-1.55419 -2.2121 0.139868 12
-1.55516 -2.21264 -0.233111 41
-1.20563 -1.20047 -0.323317 8
-1.55787 -2.21894 -0.424405 41
-1.54903 -2.21116 -0.614311 42
-3.30703 -4.70215 1.52892 12
-3.91697 -5.55044 1.31254 8
-3.90358 -5.51512 0.824187 9
-2.21522 -2.18569 0.0537098 32
-1.56287 -2.19985 0.139606 11
-1.55533 -1.53304 -0.263472 15
-1.57286 -2.21233 -0.233981 41
-1.2084 -1.1907 -0.322364 8
-1.56947 -2.21076 -0.424405 41
-1.56901 -2.21496 -0.61768 44
-5.50089 -5.40392 1.76937 12
-3.29715 -4.67071 1.52052 12
-5.48835 -5.39346 1.21048 12
-3.91911 -5.53089 1.30968 4
-5.48621 -5.39322 0.67001 14
-3.90028 -5.49009 0.821449 9
-2.23012 -2.19194 0.0539716 29
-1.5696 -2.20119 0.139868 11
-1.56154 -1.5338 -0.264081 15
-1.21399 -1.19203 -0.323317 4
-1.57569 -2.21619 -0.618803 44
-5.60344 -5.44537 1.79296 11
-3.29854 -4.61937 1.50953 12
-5.60246 -5.4463 1.22921 11
-3.93517 -5.49232 1.30539 4
-5.61531 -5.46068 0.682212 12
-3.9227 -5.45882 0.819928 8
-2.24515 -2.18372 0.0540588 24
-1.5844 -2.19672 0.14013 9
-1.16823 -1.61639 -0.0342067 11
-1.5716 -1.52705 -0.264385 15
-1.21689 -1.18202 -0.322364 4
-1.5905 -2.2116 -0.619926 44
-5.65399 -5.47723 1.80643 12
-3.29114 -4.592 1.50243 11
-5.65453 -5.47774 1.23857 12
-3.93043 -5.46551 1.30063 3
-5.51929 -5.34863 0.669356 1
-2.25793 -2.18849 0.054277 21
-1.59261 -2.20003 0.140522 9
-1.16081 -1.60016 -0.0339013 12
-1.58318 -1.53293 -0.265906 15
-1.22425 -1.18501 -0.323793 4
-1.60004 -2.21673 -0.622172 44
-5.69585 -5.45836 1.81036 12
-3.29815 -4.55122 1.49467 11
-5.68848 -5.45318 1.23974 12
-5.68026 -5.44719 0.68548 14
-2.28019 -2.18701 0.0545388 15
-1.60999 -2.19973 0.141045 8
-1.17359 -1.60011 -0.0340322 12
-1.59298 -1.52634 -0.26621 15
-1.23931 -1.18707 -0.326174 4
-1.61593 -2.21423 -0.623857 44
-5.70442 -5.4494 1.81036 12
-3.29474 -4.52982 1.4895 4
-5.69799 -5.44324 1.23974 12
-5.68976 -5.43727 0.68548 14
-2.29846 -2.19684 0.0548878 14
-1.61825 -2.20296 0.141438 4
-1.17638 -1.59806 -0.0340322 12
-1.59744 -1.52527 -0.266514 14
-1.24493 -1.18829 -0.327126 4
-1.61979 -2.21141 -0.623857 44
-5.72851 -5.41344 1.80868 11
-3.30269 -4.4911 1.48239 4
-5.73 -5.41673 1.24052 12
-5.73082 -5.41938 0.687005 14
-3.29956 -4.45754 0.675718 3
-2.32447 -2.19851 0.0552369 11
-1.63125 -2.19646 0.141569 3
-1.18176 -1.58786 -0.0339449 14
-1.1657 -1.56616 -0.16744 12
-1.24756 -1.17839 -0.326174 4
-1.15485 -1.55372 -0.301468 12
-1.63713 -2.21074 -0.626103 44
-5.74682 -5.41178 1.81149 11
-3.29047 -4.4581 1.47335 2
-5.73765 -5.40503 1.24013 12
-5.72396 -5.394 0.685044 12
-3.31177 -4.45776 0.67663 1
-1.63657 -2.19562 0.1417 2
-1.18453 -1.5858 -0.0339449 14
-1.16398 -1.55812 -0.166788 14
-1.25856 -1.18461 -0.328554 4
-1.15756 -1.5517 -0.301468 14
-2.27367 -2.13482 -0.825742 11
-1.64244 -2.20984 -0.626664 44
-5.7778 -5.38227 1.81205 9
-3.30156 -4.42281 1.46753 3
-5.78126 -5.38737 1.24325 9
-5.78221 -5.39012 0.68853 11
-1.65292 -2.19272 0.142092 3
-1.19159 -1.57737 -0.0339013 14
-1.26136 -1.17444 -0.327602 8
-1.16566 -1.54562 -0.301468 14
-2.2618 -2.10152 -0.817335 8
-1.65875 -2.20677 -0.628349 42
-5.84873 -5.4312 1.8317 8
-3.28469 -4.38416 1.45655 12
-5.88562 -5.46734 1.26394 11
-5.88103 -5.46306 0.699207 11
-1.65787 -2.19211 0.142223 2
-0.720085 -0.670098 -0.0498847 30
-1.19735 -1.57928 -0.0339886 14
-1.2634 -1.17224 -0.327602 8
-1.16836 -1.54358 -0.301468 15
-2.27256 -2.10413 -0.819922 8
-1.66807 -2.21195 -0.630595 44
-5.92733 -5.44664 1.84742 9
-3.29373 -4.35014 1.45073 12
-5.91417 -5.43644 1.26394 9
-5.90861 -5.43322 0.699207 12
-1.67537 -2.19135 0.142746 2
-0.716113 -0.659689 -0.0493596 30
-1.20533 -1.5732 -0.0339886 14
-1.15397 -1.50636 -0.162656 3
-1.27113 -1.16749 -0.328078 8
-1.17344 -1.53351 -0.300685 15
-2.27784 -2.08771 -0.817982 8
-1.6811 -2.20512 -0.631157 42
-5.93048 -5.43239 1.84574 9
-3.28818 -4.32706 1.44491 14
-5.92729 -5.42945 1.26472 9
-5.91992 -5.42458 0.699425 11
-0.722788 -0.663495 -0.0497535 30
-1.21415 -1.57903 -0.0341631 14
-1.14298 -1.48654 -0.160699 3
-1.27498 -1.16692 -0.328554 9
-1.18061 -1.53735 -0.30186 14
-2.27969 -2.0821 -0.817335 4
-5.96882 -5.4084 1.84855 9
-5.95381 -5.39668 1.26433 9
-5.94639 -5.39184 0.699207 11
-0.715263 -0.649521 -0.0489658 30
-1.22393 -1.57463 -0.0342067 14
-2.40225 -2.17553 -0.393078 36
-1.14187 -1.46851 -0.159394 3
-1.29199 -1.17011 -0.331411 9
-1.18864 -1.53115 -0.30186 14
-2.29236 -2.07176 -0.817982 4
-5.96197 -5.38329 1.84349 9
-5.96138 -5.38463 1.26394 9
-5.94286 -5.36977 0.697682 9
-0.718249 -0.649944 -0.0490971 32
-1.23128 -1.57842 -0.0343376 14
-2.4171 -2.1813 -0.394904 36
-1.14138 -1.46258 -0.158959 3
-1.29039 -1.16457 -0.330459 11
-1.19585 -1.53492 -0.303034 14
-2.29633 -2.06735 -0.817982 4
-5.98859 -5.35065 1.26355 3
-0.721642 -0.646174 -0.0490971 33
-1.24288 -1.57566 -0.0344249 14
-2.43813 -2.17645 -0.396425 36
-1.14902 -1.45658 -0.158959 3
-1.2985 -1.1592 -0.330935 11
-1.20718 -1.53232 -0.303817 14
-2.31073 -2.05851 -0.819275 8
-1.73615 -2.21503 0.743782 9
-6.21742 -5.53555 1.30998 1
-0.570405 -0.509532 0.0127403 9
-0.719039 -0.641595 -0.0488345 32
-1.25182 -1.58135 -0.0345994 14
-2.44749 -2.17714 -0.397338 36
-1.30236 -1.15856 -0.331411 12
-1.20986 -1.53021 -0.303817 14
-2.3089 -2.04967 -0.817335 8
-1.75072 -2.2097 0.745074 8
-6.25744 -5.51272 1.31232 1
-6.58637 -5.80443 0.76501 3
-1.74654 -2.19035 0.339228 9
-0.565562 -0.49993 0.0125657 9
-0.720515 -0.636171 -0.0487033 32
-1.2632 -1.57868 -0.0346867 14
-2.47003 -2.17412 -0.399163 35
-1.31393 -1.15659 -0.33284 9
-1.21939 -1.52579 -0.304209 14
-2.32686 -2.04392 -0.819922 8
-6.49797 -5.70445 1.985 3
-6.34872 -5.57346 1.32949 1
-6.59462 -5.79128 0.764792 3
-1.74263 -2.1776 0.337707 9
-0.566433 -0.498942 0.0125657 9
-0.71787 -0.63162 -0.0484407 32
-1.27219 -1.58428 -0.0348612 14
-2.48316 -2.17799 -0.400684 35
-1.31226 -1.15106 -0.331888 11
-1.22205 -1.52365 -0.304209 14
-2.33406 -2.04304 -0.821215 8
-6.4744 -5.62403 1.96871 3
-6.36752 -5.53315 1.32754 2
-6.58437 -5.72353 0.760216 3
-0.568951 -0.496069 0.0125657 9
-0.722943 -0.629616 -0.048572 32
-1.28176 -1.57977 -0.0349048 14
-2.50352 -2.17352 -0.402206 35
-1.32178 -1.14762 -0.33284 9
-1.23594 -1.52514 -0.305775 12
-2.33889 -2.02646 -0.819275 8
-6.44824 -5.58356 1.95805 2
-6.38464 -5.5285 1.3291 2
-6.60188 -5.71855 0.761088 3
-0.562257 -0.488531 0.0123912 9
-0.716489 -0.621818 -0.0480469 30
-1.29081 -1.5853 -0.0350793 14
-2.5167 -2.17726 -0.403727 35
-1.32378 -1.14531 -0.33284 9
-1.24637 -1.53258 -0.307732 12
-2.34243 -2.02237 -0.819275 8
-6.50056 -5.5676 1.96478 2
-6.45101 -5.52712 1.33691 1
-6.62228 -5.6758 0.759998 3
-0.564892 -0.485482 0.0123912 9
-0.717946 -0.616309 -0.0479156 32
-1.30571 -1.58602 -0.0352539 14
-2.53749 -2.17212 -0.405248 35
-1.33555 -1.14291 -0.334268 9
-1.26219 -1.53559 -0.30969 12
-2.35517 -2.01124 -0.819922 9
-6.51397 -5.55941 1.96591 3
-6.48791 -5.53716 1.34237 1
-6.56497 -5.60487 0.752154 2
-0.567725 -0.486018 0.0124348 9
-0.721028 -0.61655 -0.0480469 32
-1.3151 -1.59124 -0.0354284 14
-2.54921 -2.17368 -0.406465 35
-1.33961 -1.14194 -0.334745 9
-1.26984 -1.53888 -0.310865 12
-2.35903 -2.00671 -0.819922 9
-6.59527 -5.56148 1.98051 8
-6.55367 -5.52835 1.3494 3
-6.53051 -5.51076 0.744528 2
-0.558965 -0.473172 0.0121731 9
-0.713007 -0.602858 -0.0472592 32
-1.32557 -1.58579 -0.035472 14
-2.57118 -2.16695 -0.407986 36
-1.35912 -1.1455 -0.338078 11
-1.28342 -1.53724 -0.312039 12
-2.3702 -1.9935 -0.819922 9
-1.17796 -1.41326 -0.416092 3
-6.63944 -5.58089 1.99118 12
-6.56709 -5.52009 1.35018 1
-6.58969 -5.54102 0.750193 2
-4.55275 -5.45688 0.867085 11
-0.557876 -0.470587 0.0121294 9
-0.714059 -0.601613 -0.0472592 32
-1.33314 -1.58923 -0.0356029 14
-2.58636 -2.17203 -0.409812 35
-1.35923 -1.14155 -0.337602 11
-1.29084 -1.54069 -0.313214 12
-2.37738 -1.99247 -0.821215 9
-1.1742 -1.40371 -0.413846 4
-6.68452 -5.55735 1.99567 14
-6.66806 -5.54561 1.365 11
-4.58843 -5.45688 1.37783 11
-6.65499 -5.5367 0.754333 12
-4.65159 -5.51648 0.880471 12
-0.562254 -0.469258 0.0121731 9
-1.84144 -2.17626 0.147587 9
-0.719119 -0.599462 -0.0473905 32
-1.34789 -1.58987 -0.0357774 14
-2.60343 -2.16322 -0.410724 35
-1.36519 -1.13441 -0.337602 11
-1.30658 -1.54358 -0.315171 14
-2.38778 -1.97999 -0.821215 9
-1.17055 -1.3845 -0.409915 8
-6.70825 -5.55927 2.00016 15
-6.68437 -5.54144 1.36657 14
-4.66278 -5.5258 1.39737 11
-6.68766 -5.54415 0.756948 14
-4.66345 -5.51296 0.88108 14
-0.553448 -0.460303 0.0119549 11
-1.8513 -2.18099 0.148111 4
-0.712473 -0.591836 -0.0468654 33
-1.36036 -1.59896 -0.0360392 14
-2.6202 -2.1702 -0.412854 35
-1.37473 -1.13828 -0.339506 12
-1.31724 -1.55072 -0.317129 14
-2.39495 -1.97889 -0.822508 8
-1.17273 -1.38265 -0.409915 8
-6.66567 -5.46539 1.97882 12
-6.70947 -5.50323 1.36578 14
-4.69865 -5.51148 1.39976 12
-6.69445 -5.49285 0.754551 14
-4.69225 -5.48847 0.88108 14
-0.553838 -0.455911 0.0119113 11
-1.86919 -2.17886 0.148634 4
-0.711598 -0.585057 -0.0466028 33
-1.37168 -1.59585 -0.0361265 14
-2.63921 -2.16274 -0.414071 35
-1.31634 -1.53169 -0.173311 12
-1.37668 -1.1282 -0.338554 11
-1.32988 -1.54967 -0.318303 14
-2.40868 -1.9698 -0.823802 8
-1.16889 -1.36352 -0.405984 9
-6.62331 -5.4133 1.96366 11
-6.64163 -5.43017 1.35018 12
-4.71623 -5.5126 1.40214 11
-6.69053 -5.47013 0.753026 12
-4.70087 -5.48109 0.88108 12
-0.548826 -0.450199 0.0117804 11
-1.87911 -2.1835 0.149157 4
-0.712618 -0.583815 -0.0466028 33
-1.37935 -1.59914 -0.0362574 14
-2.65798 -2.17114 -0.416505 35
-1.33036 -1.54262 -0.174834 12
-1.38816 -1.13355 -0.340935 12
-1.33741 -1.55297 -0.319478 14
-2.4065 -1.96102 -0.821862 8
-1.17103 -1.36168 -0.405984 9
-6.64209 -5.37088 1.96085 11
-6.63925 -5.37048 1.34393 12
-4.73766 -5.48122 1.40023 11
-6.67553 -5.40174 0.748232 12
-4.7295 -5.4564 0.88108 11
-0.553041 -0.448987 0.011824 11
-0.713622 -0.578631 -0.0464716 33
-1.39234 -1.59781 -0.0363883 14
-2.6809 -2.16655 -0.41833 35
-1.34631 -1.54527 -0.175921 14
-1.39388 -1.12651 -0.340935 12
-1.34848 -1.54991 -0.320261 14
-2.41827 -1.95033 -0.822508 8
-1.1638 -1.33894 -0.40093 9
-6.62966 -5.34363 1.95468 9
-6.63229 -5.34765 1.34081 12
-4.75204 -5.47851 1.40166 8
-6.64229 -5.35569 0.743438 12
-4.73644 -5.44709 0.880776 11
-0.549931 -0.444884 0.0117367 11
-0.710742 -0.574252 -0.046209 33
-1.39841 -1.59914 -0.0364755 14
-2.69396 -2.17011 -0.419852 35
-1.35228 -1.54668 -0.176356 14
-1.39393 -1.12254 -0.340459 12
-1.35928 -1.55688 -0.322219 14
-2.42732 -1.95064 -0.824448 8
-1.16431 -1.33527 -0.400369 11
-6.69183 -5.33618 1.96478 9
-6.66406 -5.31593 1.34159 12
-4.77486 -5.44885 1.40023 8
-6.65179 -5.30803 0.741477 12
-4.76653 -5.42408 0.88108 9
-0.548267 -0.438978 0.0116495 11
-0.705831 -0.564423 -0.0456839 33
-1.41144 -1.59768 -0.0366064 14
-2.71305 -2.16216 -0.421069 35
-1.40535 -1.12006 -0.341887 12
-1.3704 -1.55369 -0.323002 14
-2.43716 -1.93833 -0.824448 8
-1.15683 -1.31267 -0.395315 4
-6.72119 -5.34233 1.97096 9
-6.68594 -5.31621 1.34432 12
-4.78112 -5.43682 1.39928 8
-6.67469 -5.30726 0.743003 12
-4.80128 -5.44639 0.885948 4
-0.539247 -0.430245 0.0114313 11
-0.70877 -0.564743 -0.0458152 33
-1.41588 -1.59709 -0.0366501 14
-2.732 -2.17024 -0.423502 35
-1.37638 -1.555 -0.323785 14
-2.43865 -1.93258 -0.823802 4
-1.15246 -1.30353 -0.393069 3
-6.79503 -5.3432 1.98444 8
-3.29784 -3.72276 1.32149 1
-6.7525 -5.31166 1.35213 12
-4.84604 -5.45477 1.41024 4
-6.76998 -5.3273 0.750629 11
-4.88911 -5.48791 0.8969 4
-0.543383 -0.429056 0.011475 12
-0.71368 -0.562566 -0.0459465 33
-1.42727 -1.59363 -0.0367373 14
-2.75503 -2.1651 -0.425328 32
-1.13985 -1.27563 -0.386331 4
-6.97312 -5.46352 2.03385 9
-3.27868 -3.6881 1.31115 3
-6.91921 -5.42323 1.38374 12
-4.91853 -5.5151 1.42835 8
-4.95487 -5.54231 0.907244 9
-0.538302 -0.423388 0.0113441 12
-0.706798 -0.555164 -0.0454214 33
-1.43838 -1.60045 -0.0369555 14
-2.77249 -2.17099 -0.427458 17
-1.14046 -1.27182 -0.385769 3
-3.30504 -3.67749 1.31373 4
-4.99823 -5.54582 1.44313 11
-5.00308 -5.53568 0.910591 9
-0.53656 -0.417501 0.0112568 12
-0.707721 -0.549927 -0.0452901 35
-1.4487 -1.5945 -0.0369991 14
-1.14406 -1.26201 -0.384646 4
-3.2856 -3.643 1.30339 4
-5.01613 -5.54619 1.44551 11
-5.02842 -5.54621 0.913633 9
-0.537288 -0.416564 0.0112568 12
-0.70868 -0.54869 -0.0452901 33
-1.45652 -1.59752 -0.03713 14
-1.13951 -1.25298 -0.3824 4
-3.28775 -3.60845 1.29693 4
-2.8741 -2.19759 0.566215 3
-5.05902 -5.53705 1.4498 11
-2.85653 -2.18494 0.311582 9
-5.06744 -5.53079 0.915459 9
-0.543362 -0.416875 0.0113441 12
-0.715512 -0.548002 -0.0455526 35
-1.46966 -1.59566 -0.0372609 14
-1.14605 -1.247 -0.3824 3
-2.84962 -2.17025 0.817584 9
-3.28265 -3.59022 1.29241 8
-2.83864 -2.16265 0.558411 9
-5.08291 -5.5418 1.45361 8
-2.83855 -2.16335 0.309185 11
-5.08716 -5.5329 0.917284 9
-0.540183 -0.412803 0.0112568 12
-0.710506 -0.542218 -0.0451588 35
-1.47582 -1.59677 -0.0373481 14
-1.14658 -1.2432 -0.381839 3
-2.85938 -2.15333 0.817022 9
-2.85424 -2.15023 0.559191 11
-5.13353 -5.53852 1.45981 8
-2.84822 -2.14646 0.308967 14
-5.13221 -5.52166 0.920023 9
-0.534348 -0.403956 0.0110823 12
-0.713336 -0.53849 -0.0451588 35
-1.48785 -1.59242 -0.0374354 14
-1.1566 -1.24055 -0.382962 12
-2.87445 -2.15761 0.820391 8
-2.86354 -2.15019 0.560362 15
-5.15655 -5.54394 1.46362 9
-2.85595 -2.14448 0.309403 20
-5.16117 -5.53539 0.923673 9
-0.537052 -0.404523 0.0111259 12
-0.710279 -0.534249 -0.0448963 35
-1.49403 -1.59347 -0.0375227 14
-1.15025 -1.22981 -0.380154 12
-2.88571 -2.14253 0.820391 2
-2.8589 -2.1234 0.55724 1
-5.19966 -5.53387 1.46791 8
-2.86476 -2.12851 0.309185 1
-5.20539 -5.52455 0.926412 1
-0.529057 -0.394351 0.0109078 12
-0.716984 -0.533623 -0.0451588 36
-1.5038 -1.58771 -0.0375663 14
-1.15501 -1.222 -0.379592 14
-2.87732 -2.1293 0.817022 2
-2.87848 -2.13015 0.560362 1
-5.21772 -5.53372 1.47029 1
-2.87248 -2.12647 0.309621 2
-5.19969 -5.49922 0.923673 11
-0.525724 -0.390455 0.0108205 14
-0.709884 -0.526435 -0.0446337 36
-1.51172 -1.59053 -0.0376972 14
-0.869164 -0.642094 -0.279989 44
-1.15045 -1.21289 -0.377346 14
-2.8931 -2.11607 0.818145 2
-2.88797 -2.11309 0.559972 2
-5.23574 -5.49297 1.46696 8
-5.20367 -5.44408 0.91911 8
-0.712722 -0.522586 -0.0446337 38
-1.52376 -1.58594 -0.0377845 14
-0.871176 -0.637694 -0.128085 41
-0.862149 -0.63065 -0.200466 41
-0.876529 -0.640225 -0.281282 42
-1.15196 -1.20136 -0.375662 14
-0.70556 -0.515463 -0.0441086 38
-1.52825 -1.58508 -0.0378281 14
-0.866267 -0.631794 -0.127172 41
-0.867219 -0.63203 -0.201418 42
-0.869828 -0.633021 -0.278696 42
-1.149 -1.19407 -0.373977 14
-0.708249 -0.511762 -0.0441086 36
-1.54175 -1.58244 -0.037959 14
-0.867549 -0.625801 -0.126868 42
-0.862545 -0.621751 -0.199513 41
-0.87313 -0.628458 -0.278696 42
-1.15354 -1.18628 -0.373416 14
-0.705085 -0.507614 -0.0438461 36
-1.54626 -1.58154 -0.0380026 14
-0.862481 -0.620099 -0.125955 41
-0.863629 -0.620245 -0.199513 41
-0.86244 -0.618504 -0.274816 41
-1.14862 -1.17747 -0.37117 14
-0.707733 -0.503915 -0.0438461 38
-1.556 -1.57547 -0.0380462 14
-0.865716 -0.615575 -0.125955 41
-1.52076 -1.53962 -0.185924 15
-0.858747 -0.61019 -0.197609 41
-0.867531 -0.615526 -0.275463 42
-1.15648 -1.17318 -0.371731 14
-3.08672 -2.18482 0.863629 2
-3.20663 -3.2698 1.21616 2
-3.08978 -2.18778 0.592751 3
-3.19566 -3.24616 0.877886 1
-3.06884 -2.17376 0.325962 9
-3.21221 -3.25508 0.556455 9
-0.708611 -0.502679 -0.0438461 38
-1.56401 -1.57809 -0.0381771 14
-0.860709 -0.609768 -0.125043 39
-1.52869 -1.54228 -0.186576 15
-0.859811 -0.60869 -0.197609 42
-1.53036 -1.54609 -0.339445 14
-0.864763 -0.611077 -0.274169 41
-1.15852 -1.17116 -0.371731 14
-3.10049 -2.16949 0.864191 8
-3.22428 -3.2524 1.21616 1
-3.09145 -2.16395 0.590799 9
-3.17976 -3.19629 0.868831 1
