# .PCD v0.7 - Point Cloud Data file format
VERSION 0.7
FIELDS x y z intensity
SIZE 4 4 4 4
TYPE F F F F
COUNT 1 1 1 1
WIDTH 1621
HEIGHT 1
VIEWPOINT 0 0 0 1 0 0 0
POINTS 1621
DATA ascii
-2.73423 0.793714 0.546177 50
-1.43619 0.708573 0.137052 4
-2.73469 0.79743 0.345008 49
-1.40748 0.694992 0.0267894 4
-2.76503 0.808296 0.149157 101
-0.620362 0.305595 -0.0345255 56
-1.39044 0.687456 -0.185891 4
-0.634564 0.189586 -0.0547986 55
-1.25219 0.619489 -0.264272 4
-0.968298 0.479718 -0.279989 4
-2.65577 1.33065 0.67664 88
-2.7139 0.798183 0.747659 47
-2.64986 1.32712 0.462806 88
-2.72768 0.807327 0.5457 52
-1.43678 0.718565 0.137488 4
-2.73033 0.812214 0.345008 47
-1.40606 0.703472 0.0268331 4
-2.75822 0.822535 0.149027 74
-0.618753 0.308839 -0.0345255 58
-1.39113 0.697197 -0.186499 4
-0.633563 0.192906 -0.0547986 55
-1.24005 0.621846 -0.262367 4
-0.963616 0.483695 -0.279342 4
-2.62757 1.32167 0.669902 38
-2.71482 0.8036 0.748305 47
-2.63012 1.3224 0.459684 45
-2.72627 0.812086 0.5457 52
-1.4422 0.724431 0.138142 4
-2.72906 0.816502 0.345008 49
-1.39813 0.702553 0.0267022 4
-2.74735 0.824013 0.148503 53
-0.618213 0.309918 -0.0345255 58
-1.38117 0.694912 -0.185282 4
-0.635612 0.194724 -0.055016 55
-1.24335 0.626222 -0.26332 3
-0.960615 0.484286 -0.278696 4
-2.60108 1.32545 0.664848 33
-2.71072 0.81733 0.748305 45
-2.60336 1.32606 0.456172 35
-2.72683 0.827292 0.546653 49
-1.43408 0.729459 0.137706 4
-2.73187 0.832939 0.345921 55
-1.40124 0.713027 0.0268331 4
-0.621029 0.315421 -0.034788 58
-1.37972 0.703263 -0.185587 4
-0.634584 0.19805 -0.055016 55
-1.23798 0.63139 -0.262844 3
-0.958152 0.489142 -0.278696 4
-2.57491 1.31777 0.658671 33
-2.71622 0.824152 0.750244 47
-2.57907 1.31934 0.45227 33
-2.72288 0.831812 0.546177 50
-1.43724 0.734231 0.138142 4
-2.72329 0.835534 0.345008 82
-1.39319 0.712296 0.0267022 8
-0.618256 0.315366 -0.0346568 58
-1.37849 0.70567 -0.185587 4
-0.631855 0.198428 -0.0547986 53
-1.23687 0.633549 -0.262844 3
-0.963653 0.494296 -0.280636 4
-2.55261 1.32382 0.654741 33
-2.70942 0.838126 0.749597 47
-2.54997 1.3219 0.448368 33
-2.72552 0.848234 0.547607 47
-1.4244 0.737409 0.13727 4
-2.72347 0.85173 0.345617 50
-1.40054 0.725339 0.0269203 4
-0.618812 0.319749 -0.034788 58
-1.37466 0.713118 -0.185587 4
-0.630808 0.201733 -0.0547986 53
-1.2356 0.641365 -0.26332 3
-0.954627 0.495986 -0.278696 4
-2.5246 1.31432 0.648003 33
-2.71026 0.843567 0.750244 50
-2.53037 1.31678 0.445246 32
-2.72404 0.852989 0.547607 47
-1.42532 0.741045 0.137488 4
-2.71739 0.854526 0.345008 47
-1.39262 0.724316 0.0267894 4
-0.613826 0.31852 -0.0345255 56
-1.37793 0.717573 -0.186195 4
-0.632831 0.20358 -0.055016 53
-1.23013 0.641247 -0.262367 3
-1.98746 0.627119 -0.324959 14
-0.95376 0.497652 -0.278696 4
-2.50476 1.32069 0.644633 33
-2.69904 0.855098 0.748305 49
-2.50597 1.32079 0.442124 33
-2.72203 0.867507 0.548083 49
-1.41935 0.747087 0.13727 4
-2.71761 0.870248 0.345617 47
-1.38451 0.729022 0.0267022 4
-0.616565 0.324061 -0.034788 56
-1.36758 0.721299 -0.185282 4
-0.631756 0.20689 -0.055016 49
-1.2247 0.646318 -0.261891 3
-1.97473 0.634518 -0.323393 12
-0.955497 0.504734 -0.279989 4
-2.48093 1.31365 0.639018 35
-2.69985 0.860537 0.748951 47
-2.48403 1.31475 0.438612 33
-2.72269 0.873477 0.54856 50
-1.42244 0.751895 0.137706 4
-2.71845 0.875747 0.345921 47
-1.38974 0.735191 0.0268331 4
-0.618204 0.326307 -0.0349193 56
-1.37947 0.730665 -0.187108 4
-0.629023 0.207231 -0.0547986 45
-1.2214 0.647303 -0.261415 3
-1.97362 0.637963 -0.323393 14
-0.952394 0.505433 -0.279342 4
-2.45662 1.31783 0.634526 35
-2.69515 0.875132 0.748951 45
-2.45947 1.31883 0.43549 33
-2.71808 0.887721 0.54856 52
-1.41616 0.758402 0.137488 4
-2.71603 0.891212 0.346225 47
-1.37926 0.738911 0.0267022 8
-0.614287 0.328358 -0.034788 58
-1.36894 0.734592 -0.186195 4
-0.625563 0.209747 -0.0545811 39
-1.22221 0.656228 -0.262367 3
-1.96087 0.645223 -0.321827 14
-0.949735 0.510413 -0.279342 4
-2.43524 1.31129 0.629472 35
-2.68673 0.877597 0.747013 45
-2.44001 1.31332 0.432368 35
-2.7142 0.891702 0.548083 50
-1.42141 0.764417 0.138142 4
-2.7217 0.897797 0.347138 47
-1.38457 0.744875 0.0268331 4
-0.613713 0.329429 -0.034788 56
-1.3787 0.742635 -0.187716 4
-0.629927 0.212396 -0.055016 35
-1.22538 0.660694 -0.26332 3
-1.95974 0.648645 -0.321827 14
-0.959461 0.517818 -0.282576 4
-2.41338 1.31585 0.625541 36
-2.67767 0.889669 0.74572 45
-2.42009 1.31898 0.430027 35
-2.70266 0.903107 0.546653 47
-1.41752 0.771602 0.138142 4
-2.71225 0.910464 0.34653 49
-1.3742 0.748282 0.0267022 4
-0.620745 0.337425 -0.0353131 56
-1.36826 0.746273 -0.186804 4
-0.631168 0.216482 -0.0552335 30
-1.21341 0.662176 -0.261415 4
-1.94929 0.656549 -0.320653 14
-0.950474 0.519186 -0.280636 4
-2.39826 1.31303 0.622172 35
-2.6784 0.895103 0.746366 45
-2.3918 1.30896 0.425344 35
-2.70325 0.909072 0.54713 45
-2.71772 0.917566 0.347442 90
-1.37714 0.753322 0.0267894 4
-0.615777 0.336107 -0.0350506 56
-1.36696 0.74866 -0.186804 4
-0.628429 0.216788 -0.055016 24
-1.21655 0.666656 -0.262367 3
-1.9458 0.659163 -0.320261 14
-0.94736 0.519845 -0.279989 4
-2.37195 1.31535 0.617118 36
-2.67123 0.908807 0.74572 49
-2.37604 1.31709 0.423784 35
-2.69148 0.920842 0.5457 45
-2.70802 0.930652 0.346834 50
-1.37755 0.762948 0.0268767 4
-0.618374 0.34175 -0.0353131 56
-1.37156 0.760868 -0.18802 4
-0.631997 0.221691 -0.0554509 29
-1.20435 0.668456 -0.260463 3
-1.93531 0.666945 -0.319086 12
-0.938297 0.521272 -0.278049 4
-2.35286 1.30958 0.612626 36
-2.66736 0.91269 0.745074 49
-2.3524 1.30881 0.419881 33
-2.68755 0.924744 0.545224 44
-2.7042 0.934098 0.34653 47
-1.3784 0.766568 0.0269203 4
-0.615596 0.341613 -0.0351819 56
-1.43483 0.499945 -0.0259168 4
-1.36603 0.760603 -0.187412 4
-0.622191 0.219547 -0.0545811 38
-1.19675 0.666966 -0.259034 3
-1.93181 0.669519 -0.318695 12
-0.947923 0.528805 -0.281282 4
-2.33112 1.31351 0.608696 36
-2.6627 0.926179 0.745074 49
-2.33046 1.31261 0.41715 35
-2.6782 0.936722 0.544271 44
-2.69928 0.948244 0.34653 44
-1.37886 0.77599 0.0270076 4
-0.613799 0.344832 -0.0351819 55
-1.43228 0.507201 -0.0259168 4
-1.35987 0.766525 -0.187108 4
-0.625733 0.224449 -0.055016 49
-1.1955 0.674222 -0.25951 3
-1.92129 0.677179 -0.31752 12
-0.945234 0.533596 -0.281282 4
-2.30974 1.30677 0.603642 38
-2.6588 0.930031 0.744428 47
-2.31097 1.30695 0.414028 35
-2.67408 0.941052 0.543794 45
-2.68825 0.949663 0.345313 44
-0.615368 0.347133 -0.0353131 56
-1.42903 0.508869 -0.0258732 4
-1.35637 0.767673 -0.186804 4
-0.625341 0.225541 -0.055016 52
-1.19645 0.677519 -0.259987 3
-1.92243 0.68135 -0.317912 12
-0.946307 0.536604 -0.281929 4
-2.29207 1.31318 0.600834 36
-2.65601 0.945209 0.745074 47
-2.28673 1.3096 0.410906 35
-2.66912 0.95504 0.543794 47
-2.68074 0.963359 0.345008 42
-0.609211 0.347866 -0.0350506 53
-1.42626 0.516594 -0.0258732 4
-1.35865 0.778708 -0.187716 4
-0.626496 0.229653 -0.0552335 50
-1.18638 0.680314 -0.258558 3
-1.91186 0.688912 -0.316737 12
-0.945577 0.542756 -0.282576 4
-1.07271 0.387771 -0.254933 4
-2.27101 1.30584 0.59578 36
-2.6498 0.948224 0.743782 45
-2.27183 1.3058 0.408565 36
-2.66745 0.959697 0.543794 49
-2.67455 0.965891 0.3444 42
-1.46386 0.532106 0.0798123 4
-0.610766 0.350175 -0.0351819 53
-1.42536 0.519082 -0.0258732 4
-1.35098 0.777123 -0.186804 4
-0.628437 0.23159 -0.0554509 50
-1.18307 0.681157 -0.258082 3
-1.90601 0.690577 -0.315954 12
-0.946719 0.545614 -0.283222 4
-1.06752 0.387812 -0.25381 4
-2.24941 1.30913 0.59185 36
-2.65178 0.964087 0.74572 49
-2.25216 1.31022 0.406223 36
-2.66486 0.974025 0.544271 50
-2.24341 1.30462 0.22399 35
-2.66713 0.97903 0.344096 41
-1.4634 0.540621 0.0799432 4
-0.611081 0.354625 -0.0353131 55
-1.42741 0.528009 -0.0259605 4
-0.622539 0.233164 -0.055016 49
-1.17325 0.683423 -0.256653 3
-1.90237 0.700547 -0.315954 12
-0.939776 0.547961 -0.281929 4
-1.07234 0.395898 -0.255495 4
-2.2345 1.30567 0.588481 36
-2.64783 0.967889 0.745074 49
-2.22855 1.30169 0.402321 36
-2.66068 0.978296 0.543794 50
-2.23253 1.3035 0.223119 35
-2.65842 0.981118 0.343183 39
-1.46011 0.542313 0.0798123 4
-0.614771 0.358213 -0.0355757 53
-1.43352 0.533092 -0.0260913 4
-0.622131 0.23425 -0.055016 49
-1.17417 0.686711 -0.25713 3
-1.89883 0.703015 -0.315563 12
-0.938723 0.549764 -0.281929 4
-1.06478 0.395255 -0.25381 4
-2.20644 1.30533 0.582865 36
-2.64708 0.983876 0.746366 49
-2.2066 1.30492 0.39959 35
-2.65782 0.993069 0.544271 50
-2.2083 1.30542 0.221376 35
-2.65075 0.99462 0.342879 36
-1.46651 0.553703 0.0803357 4
-0.610738 0.360155 -0.0354444 50
-1.42359 0.53821 -0.0259605 4
-0.625561 0.239251 -0.0554509 47
-1.17044 0.693054 -0.25713 3
-1.89731 0.714142 -0.315954 12
-0.933755 0.553438 -0.281282 4
-1.0672 0.402711 -0.254933 4
-2.19392 1.30257 0.580058 35
-2.64083 0.986811 0.745074 49
-2.18947 1.29993 0.396858 35
-2.65379 0.996847 0.543794 50
-2.19103 1.30036 0.21985 36
-2.6281 0.991398 0.340141 33
-1.46787 0.557141 0.0804665 4
-0.625129 0.370153 -0.0363633 47
-1.43669 0.545978 -0.0262222 4
-1.16079 0.690071 -0.255225 3
-1.88912 0.714848 -0.31478 12
-0.941083 0.560017 -0.283869 4
-1.06649 0.404573 -0.254933 3
-2.1662 1.30148 0.574442 35
-2.64032 1.00187 0.746366 47
-2.16593 1.30082 0.393736 36
-2.6533 1.01201 0.544747 50
-2.16948 1.30245 0.218325 36
-2.61378 1.00115 0.338924 32
-1.46504 0.564563 0.0804665 4
-0.618905 0.370847 -0.0361008 42
-1.42923 0.551458 -0.026135 4
-1.16149 0.698471 -0.256177 3
-1.8901 0.72616 -0.315563 12
-0.925832 0.557284 -0.279989 4
-1.07354 0.413429 -0.257179 3
-2.15766 1.30148 0.572758 36
-2.63179 1.00391 0.744428 49
-2.15731 1.30077 0.392566 36
-2.64676 1.01535 0.543794 50
-2.15654 1.2998 0.217236 38
-2.59349 0.998612 0.33649 29
-1.45706 0.564435 0.080074 4
-0.62894 0.378381 -0.0367572 36
-1.4306 0.554848 -0.0261786 4
-0.618799 0.242914 -0.055016 44
-1.15607 0.697956 -0.255225 3
-1.8796 0.725922 -0.313997 12
-0.92889 0.561565 -0.281282 4
-1.07054 0.414433 -0.256618 4
-2.13189 1.3017 0.567704 36
-2.62407 1.01726 0.743782 47
-2.13971 1.30598 0.390614 36
-2.64141 1.02919 0.543794 50
-2.13673 1.30366 0.215928 38
-2.57417 1.00723 0.334664 29
-1.46328 0.57594 0.0805974 4
-0.629081 0.382972 -0.0368885 36
-1.42292 0.560762 -0.0260913 4
-0.622159 0.247962 -0.0554509 44
-1.15228 0.7042 -0.255225 3
-1.88038 0.737545 -0.31478 12
-0.927996 0.567684 -0.281929 4
-1.06374 0.418454 -0.255495 3
-2.1153 1.29613 0.563773 36
-2.6268 1.02359 0.745074 47
-2.12081 1.29901 0.387493 38
-2.63961 1.0338 0.543794 50
-2.11959 1.29828 0.214403 38
-2.57028 1.01037 0.33436 29
-1.46005 0.577326 0.0804665 4
-0.626284 0.382763 -0.0367572 36
-1.4266 0.565071 -0.0261786 4
-0.619407 0.248137 -0.0552335 42
-1.14059 0.699782 -0.252844 3
-1.87909 0.740826 -0.31478 12
-0.937284 0.575635 -0.285162 4
-1.05627 0.417468 -0.25381 3
-2.09814 1.30076 0.560966 38
-2.62158 1.03687 0.745074 47
-2.09929 1.30099 0.384761 38
-2.63434 1.04715 0.543794 50
-2.09606 1.29849 0.21266 39
-2.55111 1.01832 0.332535 30
-1.45701 0.584963 0.0804665 4
-0.624338 0.385928 -0.0367572 35
-1.42139 0.571359 -0.026135 4
-0.618143 0.251269 -0.0552335 39
-1.13495 0.70425 -0.252368 3
-1.87518 0.750655 -0.31478 12
-0.934359 0.580371 -0.285162 4
-1.04501 0.419402 -0.251564 3
-2.08369 1.29633 0.557597 38
-2.61752 1.04055 0.744428 47
-2.08654 1.29812 0.38281 38
-2.63251 1.05175 0.543794 50
-2.08744 1.29819 0.212006 39
-2.54703 1.02185 0.33223 30
-1.69165 1.05215 0.0341631 12
-1.45831 0.588433 0.0805974 4
-1.42736 0.576626 -0.0262659 4
-0.629265 0.256974 -0.0563208 36
-1.13372 0.70623 -0.252368 3
-0.931297 0.580721 -0.284516 4
-1.03749 0.418521 -0.24988 3
-2.0684 1.30239 0.55535 38
-2.61428 1.05515 0.745074 47
-2.06927 1.30245 0.380859 38
-2.62469 1.0646 0.543317 49
-2.06376 1.29849 0.210263 38
-2.53704 1.0333 0.331622 29
-1.67766 1.05566 0.0339886 12
-1.45058 0.594182 0.0803357 4
-1.41274 0.579386 -0.0260477 4
-0.627865 0.260375 -0.0563208 35
-1.12586 0.709535 -0.251416 3
-0.932325 0.588171 -0.285809 3
-1.03754 0.424861 -0.250441 3
-2.0476 1.29427 0.550297 38
-2.61467 1.06061 0.74572 47
-2.05447 1.29813 0.378518 38
-2.62492 1.07056 0.543794 50
-2.04886 1.2941 0.208956 39
-2.54443 1.04148 0.332839 27
-1.66718 1.05353 0.033814 11
-1.44954 0.596712 0.0803357 4
-1.41173 0.581851 -0.0260477 4
-0.62741 0.261471 -0.0563208 33
-1.11426 0.704928 -0.249035 4
-0.931194 0.58996 -0.285809 3
-1.04808 0.431258 -0.253249 3
-2.03236 1.30007 0.548051 36
-2.61113 1.07566 0.746366 47
-2.03494 1.30124 0.376176 38
-2.61928 1.08429 0.543794 50
-2.02924 1.29711 0.207649 39
-2.54793 1.05902 0.334056 29
-1.65953 1.0609 0.0337704 11
-1.44398 0.603591 0.0802048 4
-1.40856 0.58948 -0.0260477 4
-0.630634 0.26666 -0.0567557 33
-1.10836 0.70962 -0.248559 4
-0.934187 0.598745 -0.287749 4
-1.04348 0.435992 -0.252687 3
-2.01187 1.29141 0.542997 36
-2.60478 1.07837 0.745074 49
-2.02043 1.29643 0.373835 39
-2.01441 1.29257 0.206341 41
-2.54168 1.06112 0.333447 29
-1.65347 1.06109 0.0336831 12
-1.45456 0.610655 0.0808591 4
-1.40983 0.5929 -0.0260913 4
-0.634765 0.269676 -0.0571906 30
-1.10918 0.712883 -0.249035 3
-0.933141 0.600375 -0.287749 4
-1.0518 0.441363 -0.254933 4
-1.99283 1.29396 0.539628 38
-2.60375 1.09341 0.746366 47
-1.99705 1.29622 0.370713 39
-1.99531 1.29461 0.205034 41
-1.64808 1.06944 0.0336831 12
-1.44444 0.615348 0.0804665 4
-1.41142 0.601975 -0.0261786 4
-1.59605 1.0372 -0.229093 9
-1.10556 0.718488 -0.249035 4
-1.48825 0.633279 -0.250962 11
-0.926045 0.602451 -0.286455 3
-1.04947 0.446864 -0.254933 3
-1.98263 1.29176 0.537382 38
-2.59961 1.09701 0.74572 49
-1.98444 1.29296 0.368762 39
-1.98679 1.29401 0.20438 41
-1.64412 1.07095 0.0336395 12
-1.44796 0.61982 0.0807282 4
-1.41037 0.604437 -0.0261786 4
-1.60878 1.04949 -0.231223 12
-1.09403 0.713701 -0.246654 3
-1.47805 0.63202 -0.249396 8
-0.931053 0.608035 -0.288395 3
-1.0442 0.446798 -0.25381 3
-1.96545 1.29576 0.534574 39
-2.59383 1.11061 0.74572 49
-1.96734 1.29653 0.366811 38
-1.96543 1.2948 0.202855 42
-1.64892 1.08643 0.0338577 12
-1.4447 0.627392 0.0807282 4
-1.41407 0.614782 -0.0263095 4
-1.09438 0.722127 -0.247606 4
-1.47472 0.63975 -0.249396 8
-0.929869 0.614236 -0.289042 3
-1.03961 0.451299 -0.253249 3
-1.95122 1.29077 0.531205 38
-2.60299 1.11989 0.748951 42
-1.95272 1.29178 0.364469 39
-1.95279 1.29135 0.201766 42
-2.78175 1.2067 0.367522 14
-1.44818 0.631896 0.0809899 4
-1.4107 0.616256 -0.0262659 4
-1.08289 0.717249 -0.245225 4
-1.46453 0.638404 -0.24783 4
-0.924774 0.613183 -0.287749 3
-1.03882 0.453112 -0.253249 3
-1.93612 1.29589 0.528959 39
-2.8784 1.2557 0.831019 26
-1.92952 1.291 0.361348 39
-2.87285 1.2592 0.602415 26
-1.93151 1.29186 0.20024 41
-2.75949 1.21428 0.365393 21
-1.44257 0.638466 0.0808591 4
-1.41203 0.625645 -0.0263531 4
-1.93995 1.29995 -0.282031 41
-1.07505 0.720173 -0.244273 3
-1.46569 0.648047 -0.248613 4
-0.923555 0.619365 -0.288395 3
-1.03867 0.459522 -0.25381 3
-1.91993 1.28941 0.525028 39
-2.84965 1.24913 0.823265 26
-1.92112 1.29023 0.360177 41
-2.83918 1.25041 0.595743 26
-1.92305 1.29106 0.199587 41
-2.76872 1.22409 0.366914 27
-1.43917 0.639976 0.0807282 4
-1.4178 0.631137 -0.026484 4
-1.92945 1.29779 -0.280814 42
-1.07989 0.726163 -0.245702 4
-1.46682 0.651599 -0.249005 4
-0.922472 0.620976 -0.288395 3
-1.03563 0.460354 -0.253249 3
-1.90285 1.29293 0.52222 39
-2.82098 1.25426 0.816803 26
-1.90413 1.29332 0.358226 41
-2.8012 1.2513 0.58907 24
-1.90597 1.29411 0.198497 42
-2.75321 1.23452 0.365697 23
-1.44263 0.650561 0.0811207 4
-1.40078 0.632423 -0.0262222 4
-1.06796 0.726278 -0.243797 4
-1.46113 0.658263 -0.248613 4
-0.919208 0.625797 -0.288395 3
-1.03543 0.466761 -0.25381 3
-1.88852 1.288 0.518851 39
-2.77245 1.23857 0.803232 24
-1.89371 1.29108 0.356665 39
-2.74279 1.23163 0.577156 24
-1.89137 1.28901 0.19719 41
-2.72615 1.22815 0.36235 14
-1.88123 1.28305 0.039137 35
-1.44377 0.654101 0.0812516 4
-1.40652 0.637943 -0.0263531 4
-1.06264 0.725369 -0.242845 4
-1.45322 0.657778 -0.247439 4
-0.925973 0.633022 -0.290982 3
-1.03239 0.467572 -0.253249 3
-1.86749 1.28851 0.514921 39
-2.7459 1.24461 0.797417 56
-1.8745 1.29288 0.354324 41
-2.74524 1.25003 0.579062 53
-1.87617 1.29356 0.196318 42
-2.68107 1.22541 0.357178 14
-1.8786 1.29573 0.0392243 42
-1.44248 0.662939 0.0813824 4
-1.40759 0.647619 -0.0264404 4
-1.05467 0.728314 -0.241892 4
-0.92463 0.639238 -0.291628 3
-1.03207 0.474159 -0.25381 4
-1.85746 1.28589 0.512674 39
-2.74152 1.2484 0.79677 41
-1.86232 1.28879 0.352372 39
-2.72295 1.24566 0.574773 32
-1.85753 1.28549 0.194575 41
-2.65205 1.21725 0.353527 14
-1.8599 1.28761 0.0388752 41
-1.43917 0.664164 0.0812516 4
-1.40646 0.650075 -0.0264404 4
-1.05138 0.728753 -0.241416 4
-0.923513 0.640851 -0.291628 3
-1.03354 0.47679 -0.254372 3
-1.84272 1.29 0.510428 39
-2.70225 1.24714 0.787077 26
-1.84746 1.29286 0.350812 41
-2.68542 1.24503 0.5681 26
-1.84488 1.29059 0.193922 42
-2.62088 1.21964 0.350181 14
-1.84722 1.2927 0.0387443 42
-1.43341 0.67064 0.0811207 4
-1.39409 0.652972 -0.0262659 4
-1.20139 0.841401 -0.175547 8
-1.04768 0.734066 -0.241416 4
-0.920258 0.645517 -0.291628 3
-1.02218 0.478105 -0.252126 4
-1.83051 1.28621 0.507621 39
-2.67814 1.24173 0.780615 26
-1.83308 1.28756 0.34847 41
-2.66299 1.24089 0.563811 30
-1.8304 1.28521 0.192614 42
-2.5985 1.21479 0.347442 14
-1.83655 1.29049 0.0385698 41
-1.43676 0.67525 0.0813824 4
-1.40427 0.66069 -0.026484 4
-1.19992 0.843496 -0.175547 9
-1.04238 0.733065 -0.240464 4
-1.03239 0.485021 -0.254933 4
-1.81558 1.29044 0.505375 41
-2.66045 1.25108 0.777384 50
-1.81603 1.2903 0.346519 41
-2.65423 1.25377 0.563334 58
-1.81327 1.28788 0.191525 42
-2.55823 1.21294 0.342879 24
-1.81959 1.29285 0.0383517 42
-1.43309 0.683014 0.0813824 4
-1.40067 0.668278 -0.026484 4
-1.04639 0.744393 -0.242368 4
-1.02094 0.486446 -0.252687 4
-1.80364 1.28622 0.502567 41
-2.65826 1.25572 0.777384 56
-1.80373 1.28629 0.344568 41
-2.65648 1.2605 0.564287 58
-1.80291 1.28525 0.190653 42
-2.55835 1.21847 0.343183 24
-1.80716 1.28876 0.0381335 41
-1.42062 0.680158 0.0807282 4
-1.39499 0.668575 -0.0263968 4
-1.04709 0.747647 -0.242845 4
-1.02669 0.491354 -0.254372 3
-1.78503 1.28709 0.499198 41
-2.65841 1.27228 0.779323 56
-1.78718 1.28818 0.342617 42
-2.65671 1.2771 0.565717 58
-1.78629 1.28708 0.189564 44
-2.56333 1.23677 0.344704 24
-1.78845 1.28911 0.0378717 41
-1.42165 0.689505 0.0809899 4
-1.38934 0.674543 -0.0263531 4
-1.04528 0.754375 -0.243321 4
-1.01101 0.490224 -0.251003 4
-1.77489 1.28448 0.496952 41
-2.66055 1.279 0.780615 58
-1.77693 1.2855 0.341056 42
-2.65867 1.28433 0.56667 59
-1.77597 1.28435 0.188692 44
-2.56341 1.24232 0.345008 26
-1.77788 1.28668 0.0376972 42
-1.4227 0.693072 0.0811207 4
-1.38591 0.675878 -0.0263095 4
-1.01455 0.494102 -0.252126 3
-1.75809 1.28687 0.494144 41
-2.65793 1.29549 0.781908 59
-1.75601 1.28488 0.338324 42
-2.65632 1.30038 0.567624 62
-1.76096 1.28805 0.187821 44
-2.54996 1.2529 0.344096 27
-1.76708 1.29301 0.0376099 44
-1.42341 0.702957 0.0813824 4
-1.39345 0.688871 -0.0265277 4
-1.76354 1.2923 -0.263776 44
-1.00748 0.497446 -0.251003 4
-1.74625 1.28241 0.491336 41
-2.66218 1.3033 0.783846 65
-1.74802 1.28325 0.337154 42
-2.65846 1.30718 0.568577 68
-1.75269 1.2867 0.187167 44
-2.54576 1.25581 0.343792 27
-1.75073 1.28573 0.0373045 42
-1.41558 0.701885 0.0809899 4
-1.39 0.690197 -0.026484 4
-1.75151 1.28771 -0.262255 44
-1.00451 0.497955 -0.250441 4
-1.7317 1.28572 0.48909 42
-2.65772 1.31783 0.784492 74
-1.73731 1.28944 0.336373 42
-2.65181 1.32062 0.568577 77
-1.73416 1.28664 0.18586 42
-2.55026 1.27465 0.345313 33
-1.73818 1.2901 0.0371736 42
-1.42083 0.713743 0.0815132 4
-1.38426 0.696107 -0.0264404 4
-1.73479 1.28946 -0.260734 44
-0.999708 0.502124 -0.24988 3
-1.71969 1.28146 0.486283 42
-2.65108 1.32032 0.7832 59
-1.72516 1.28509 0.334422 42
-2.64707 1.32461 0.5681 53
-1.72192 1.28222 0.18477 42
-2.57245 1.29131 0.348659 23
-1.72368 1.28447 0.0369118 42
-1.41288 0.712868 0.0811207 4
-1.38751 0.700762 -0.0265277 4
-1.72459 1.28654 -0.259517 45
-1.00319 0.506043 -0.251003 4
-1.70495 1.28487 0.484037 42
-2.62664 1.32596 0.77803 33
-1.70832 1.28697 0.332471 42
-2.61819 1.32739 0.563334 32
-1.70502 1.28402 0.183681 42
-2.56099 1.30296 0.348051 15
-1.70895 1.28745 0.0367373 42
-1.41791 0.725022 0.0816441 4
-1.37924 0.705995 -0.0264404 4
-1.70374 1.28538 -0.257387 47
-1.96461 1.00125 -0.344144 12
-1.00044 0.511464 -0.251003 3
-1.69516 1.28167 0.48179 42
-2.60061 1.31857 0.770922 32
-1.69646 1.2822 0.33052 42
-2.58961 1.31864 0.557615 30
-1.6988 1.28399 0.183245 44
-2.53683 1.29573 0.345008 14
-1.69872 1.2844 0.0365628 42
-1.41232 0.724981 0.0813824 4
-1.69446 1.28163 -0.109878 23
-1.38246 0.710673 -0.0265277 4
-1.69777 1.28506 -0.256779 47
-1.97826 1.01251 -0.346884 12
-1.00832 0.517446 -0.253249 4
-1.67875 1.28312 0.478983 42
-2.57885 1.32402 0.766399 30
-1.68187 1.28506 0.328959 42
-2.56107 1.32052 0.552849 29
-1.67844 1.28198 0.18172 44
-2.49913 1.29309 0.340749 15
-1.68029 1.28386 0.036301 44
-1.40407 0.730076 0.0811207 4
-1.68597 1.28868 -0.109746 27
-1.3744 0.715367 -0.0264404 4
-1.97732 1.02512 -0.347667 14
-1.00127 0.52049 -0.252126 3
-1.66514 1.27686 0.475614 42
-2.55505 1.31749 0.759937 30
-1.67375 1.28348 0.327788 42
-2.54131 1.31599 0.549036 30
-1.66829 1.27884 0.180848 45
-2.49686 1.29745 0.340749 15
-1.67012 1.28071 0.0361265 44
-1.40279 0.732526 0.0811207 4
-1.67382 1.28401 -0.10909 32
-1.37315 0.717764 -0.0264404 4
-1.97115 1.0263 -0.346884 14
-1.00468 0.524473 -0.253249 4
-1.65436 1.28286 0.474491 42
-2.52669 1.31971 0.753475 30
-1.65726 1.28466 0.325837 44
-2.51698 1.32019 0.545224 30
-1.65174 1.27993 0.179759 44
-2.47685 1.30359 0.338924 21
-1.65747 1.28483 0.0359956 45
-1.40557 0.743342 0.0815132 4
-1.65896 1.28692 -0.108565 35
-1.36495 0.722619 -0.0263531 4
-1.94607 1.02628 -0.343361 14
-0.999766 0.528597 -0.252687 4
-1.64059 1.27676 0.471121 42
-2.5094 1.31629 0.748951 30
-1.64917 1.283 0.324667 42
-2.49488 1.31475 0.540934 30
-1.64164 1.27669 0.178887 44
-2.47018 1.3056 0.338315 27
-1.64514 1.28033 0.0357774 45
-1.40868 0.748123 0.0817749 4
-1.64687 1.28214 -0.107909 38
-1.37032 0.7285 -0.026484 4
-1.92898 1.02162 -0.34062 14
-0.998842 0.530341 -0.252687 4
-1.62792 1.28109 0.469437 44
-2.4809 1.31855 0.742489 32
-1.63056 1.28273 0.322325 44
-2.46846 1.31743 0.536645 32
-1.62688 1.27939 0.178016 45
-2.44118 1.30727 0.335273 32
-1.63252 1.28429 0.0356465 45
-1.39581 0.751028 0.0812516 4
-1.62837 1.28148 -0.107121 39
-1.36856 0.737082 -0.0265277 4
-1.91253 1.02623 -0.338662 14
-0.991657 0.533448 -0.251564 4
-1.62017 1.27912 0.467752 44
-2.46153 1.31381 0.737319 32
-1.62057 1.27945 0.320764 44
-2.45317 1.3148 0.533785 32
-1.61879 1.27759 0.177362 45
-2.43452 1.30919 0.334664 32
-1.62243 1.28093 0.035472 45
-1.39449 0.753463 0.0812516 4
-1.62221 1.28122 -0.106858 42
-1.36947 0.740651 -0.0265713 4
-1.60757 1.2719 -0.390932 55
-1.89768 1.02257 -0.336313 14
-0.986428 0.532881 -0.250441 4
-1.60371 1.28026 0.464945 44
-2.4376 1.31752 0.73215 32
-1.60614 1.28175 0.319203 42
-2.42898 1.3183 0.529973 32
-1.60234 1.27828 0.176272 45
-2.40582 1.31009 0.331622 32
-1.60204 1.27849 0.0351666 42
-1.39931 0.765521 0.0817749 4
-1.61158 1.28658 -0.106596 44
-1.36118 0.745424 -0.026484 4
-1.60663 1.2849 -0.392361 52
-1.88163 1.02627 -0.334356 14
-0.983624 0.538038 -0.250441 3
-1.5979 1.27973 0.463822 44
-2.42043 1.31374 0.727626 33
-1.59256 1.275 0.316862 42
-2.4051 1.31083 0.525207 32
-1.59234 1.27484 0.175401 47
-2.39068 1.30675 0.329796 33
-1.59785 1.27972 0.035123 47
-1.3981 0.767718 0.0817749 4
-1.60349 1.2847 -0.106202 45
-1.35769 0.746601 -0.0264404 4
-1.59482 1.28002 -0.38998 52
-1.86899 1.02365 -0.332398 14
-1.59708 1.28364 -0.539286 58
-0.978497 0.537257 -0.249318 3
-1.58171 1.2804 0.461014 45
-2.3968 1.3167 0.722457 32
-1.58203 1.28022 0.316082 44
-2.38553 1.31589 0.522347 33
-1.58006 1.27818 0.174747 47
-2.3686 1.31086 0.327667 33
-1.58553 1.28307 0.0349921 45
-1.39188 0.773822 0.0816441 4
-1.58899 1.28679 -0.105677 44
-1.35608 0.754672 -0.026484 4
-1.58451 1.28498 -0.389027 52
-1.84847 1.02508 -0.329657 14
-1.58494 1.28714 -0.537346 59
-0.97567 0.542373 -0.249318 3
-1.57192 1.27701 0.458768 44
-2.37968 1.31274 0.717933 32
-1.57021 1.27518 0.314131 44
-2.36581 1.31099 0.518534 35
-1.5701 1.27465 0.173876 47
-2.35111 1.30658 0.325537 33
-1.57531 1.2798 0.0348176 47
-1.38179 0.771408 0.0811207 4
-1.58093 1.28483 -0.105283 45
-1.35695 0.75825 -0.0265277 4
-1.57276 1.27999 -0.386647 53
-1.83588 1.02232 -0.3277 14
-1.5675 1.27796 -0.532173 59
-0.978987 0.546431 -0.250441 3
-1.55558 1.27776 0.45596 45
-2.35355 1.31503 0.712117 33
-1.55947 1.28053 0.31335 44
-2.34606 1.31617 0.515675 35
-1.55933 1.27997 0.17344 45
-2.32669 1.30958 0.323103 35
-1.56472 1.28486 0.0347303 47
-1.56261 1.28358 -0.104495 47
-1.35718 0.76803 -0.0266149 4
-1.55444 1.27912 -0.38379 52
-1.81327 1.02226 -0.324568 14
-1.55334 1.28 -0.529587 59
-0.969638 0.548151 -0.248757 4
-1.54793 1.27555 0.454276 45
-2.33649 1.31089 0.707594 33
-1.54984 1.27669 0.311789 44
-2.32236 1.30826 0.510909 36
-1.54941 1.27635 0.172568 47
-2.30949 1.30472 0.320973 35
-1.55091 1.27804 0.0344685 45
-1.55459 1.28153 -0.104102 47
-1.34931 0.766713 -0.026484 4
-1.54464 1.27557 -0.381885 52
-1.78997 1.01331 -0.320653 14
-1.53994 1.27347 -0.525707 61
-0.977272 0.554445 -0.251003 3
-1.53375 1.2774 0.452029 45
-2.3088 1.31081 0.701132 35
-1.53934 1.28162 0.311009 44
-2.3093 1.31636 0.509479 35
-1.53336 1.2762 0.171479 47
-2.28969 1.30942 0.319148 35
-1.53482 1.27787 0.0342503 45
-1.53828 1.28166 -0.103445 45
-1.34758 0.774772 -0.0265277 4
-1.53063 1.27708 -0.37998 53
-1.77177 1.01533 -0.318303 14
-1.52977 1.27815 -0.524414 59
-0.97012 0.557146 -0.24988 3
-1.52218 1.27225 0.449222 45
-2.29181 1.3065 0.696609 35
-1.52953 1.27797 0.309448 45
-2.28545 1.30864 0.504713 35
-1.52158 1.27088 0.170389 47
-2.27017 1.30356 0.316714 33
-1.53237 1.28081 0.0342503 45
-1.53029 1.27953 -0.103051 47
-1.52652 1.27817 -0.379504 53
-1.74856 1.00616 -0.314388 14
-1.52177 1.27643 -0.522474 59
-0.979725 0.564877 -0.252687 4
-1.50969 1.27575 0.447537 45
-2.27215 1.31166 0.692731 35
-1.51316 1.27825 0.307497 44
-2.26369 1.312 0.501377 35
-1.50898 1.27427 0.169736 47
-2.24805 1.30712 0.314584 35
-1.51419 1.27913 0.0339886 47
-1.51214 1.27785 -0.102264 47
-1.50627 1.27423 -0.237612 47
-1.51022 1.27848 -0.377123 53
-1.72814 1.00694 -0.311648 14
-1.5077 1.27812 -0.519887 59
-0.974545 0.568951 -0.252126 3
-1.50026 1.27181 0.445291 45
-2.25939 1.30958 0.6895 35
-1.50528 1.2761 0.306326 44
-2.24441 1.30611 0.497564 35
-1.50485 1.27529 0.169518 49
-2.23075 1.30232 0.312455 33
-1.50814 1.27854 0.0339013 45
-1.5042 1.27564 -0.10187 47
-1.50215 1.27525 -0.237307 50
-1.50612 1.27952 -0.376647 53
-1.70717 0.998775 -0.308124 14
-1.49812 1.27449 -0.517301 59
-0.981979 0.575542 -0.254372 3
-1.48618 1.27331 0.443045 45
-2.23397 1.31004 0.683685 35
-1.48943 1.27566 0.304375 44
-2.22506 1.31 0.494705 36
-1.48704 1.27317 0.168211 49
-2.20701 1.30353 0.310021 35
-1.49406 1.27965 0.0337268 47
-1.4956 1.28187 -0.101739 47
-1.48626 1.27475 -0.235786 50
-1.49032 1.27913 -0.374266 55
-1.67869 0.993626 -0.303817 14
-1.48432 1.27575 -0.514714 61
-0.972751 0.576804 -0.252687 4
-1.47842 1.27113 0.44136 45
-2.21501 1.30417 0.678515 35
-1.48159 1.27342 0.303204 45
-2.20774 1.30556 0.491369 35
-1.47915 1.27089 0.167557 49
-2.18764 1.29728 0.307587 35
-1.48403 1.27599 0.0335523 47
-1.48202 1.27471 -0.100951 47
-1.48028 1.2741 -0.235178 50
-1.48623 1.28012 -0.37379 55
-1.66207 0.987762 -0.301077 14
-1.48187 1.2786 -0.514714 61
-0.97594 0.580976 -0.25381 4
-1.46417 1.27271 0.439114 45
-2.19546 1.30874 0.674638 35
-1.47095 1.27818 0.302424 47
-2.18612 1.3083 0.488032 35
-1.46661 1.27397 0.166903 49
-2.17207 1.30401 0.30637 35
-1.46978 1.27718 0.0333777 45
-1.47532 1.28245 -0.100951 47
-1.46214 1.27231 -0.233352 52
-1.47188 1.2817 -0.371886 55
-1.64611 0.990402 -0.299119 14
-1.46242 1.27522 -0.510188 61
-0.979058 0.589993 -0.255495 4
-1.45667 1.2702 0.43743 47
-2.17658 1.30268 0.669468 36
-1.46128 1.27425 0.300863 45
-2.16698 1.30204 0.48422 36
-1.45688 1.26998 0.166032 47
-2.15703 1.30014 0.304545 35
-1.46378 1.27645 0.0332905 47
-1.45804 1.27188 -0.0999007 49
-1.45431 1.26996 -0.23244 52
-1.45671 1.27295 -0.368552 55
-1.62744 0.983103 -0.295987 15
-1.45112 1.26982 -0.506955 61
-0.973847 0.589196 -0.254372 3
-1.44612 1.27484 0.436307 47
-2.15318 1.30408 0.664298 36
-1.44718 1.27535 0.299302 45
-2.14964 1.30701 0.481837 36
-1.44274 1.271 0.16516 49
-2.13322 1.30111 0.302111 35
-1.45146 1.27914 0.0331596 47
-1.44574 1.27454 -0.0995069 47
-1.44392 1.27427 -0.231831 52
-1.44635 1.27731 -0.3676 55
-1.61823 0.988763 -0.295204 15
-1.44264 1.27579 -0.506308 59
-0.979081 0.59934 -0.256618 3
-1.43682 1.27065 0.434061 47
-2.1385 1.30033 0.660421 38
-1.43778 1.27107 0.297741 44
-2.13477 1.30311 0.478977 36
-1.43493 1.26856 0.164506 49
-2.11846 1.29671 0.300285 35
-1.438 1.27172 0.0328978 47
-2.11329 1.29556 0.128092 35
-1.44539 1.27872 -0.0996382 49
-1.43264 1.26831 -0.23031 52
-1.43861 1.27494 -0.366172 55
-1.62071 0.994157 -0.295987 15
-1.42958 1.26869 -0.502428 59
-0.973976 0.598344 -0.255495 4
-1.42833 1.27653 0.433499 47
-2.11748 1.30231 0.655898 38
-1.42559 1.27364 0.29657 45
-2.1156 1.30619 0.476118 38
-1.42292 1.27083 0.163853 49
-2.09475 1.29736 0.297851 35
-1.42782 1.27565 0.0328105 47
-2.09373 1.29874 0.127307 35
-1.42937 1.27794 -0.0989818 49
-1.42413 1.27413 -0.230006 52
-1.423 1.27401 -0.363791 55
-1.61128 1.00004 -0.295204 15
-1.41775 1.27106 -0.500489 59
-0.966681 0.600881 -0.254372 4
-1.41704 1.27088 0.430691 47
-2.10286 1.29842 0.652021 39
-1.41785 1.27118 0.2954 45
-2.09639 1.29994 0.472305 36
-1.41514 1.26832 0.163199 49
-2.08404 1.29579 0.296634 36
-1.41421 1.26837 0.0325487 45
-2.08085 1.29581 0.126653 36
-1.41971 1.27376 -0.0984567 49
-1.41452 1.26998 -0.228789 52
-1.41895 1.27485 -0.363315 55
-1.60954 1.00285 -0.295204 15
-1.41351 1.27217 -0.499842 59
-0.97392 0.607691 -0.256618 4
-1.40113 1.27034 0.427884 49
-2.08555 1.3034 0.648789 38
-1.40547 1.27385 0.294229 45
-2.07706 1.30309 0.469445 38
-1.40457 1.27261 0.162763 49
-2.06228 1.29783 0.294505 36
-1.40199 1.27072 0.0324178 47
-2.05901 1.29776 0.125737 35
-1.41302 1.28118 -0.0984567 49
-1.40396 1.27428 -0.22818 52
-1.40296 1.27426 -0.360934 56
-1.61682 1.01913 -0.297553 15
-1.40148 1.27467 -0.497902 59
-0.972683 0.614243 -0.257179 4
-1.39733 1.2709 0.427322 49
-2.07098 1.29936 0.644912 39
-1.39798 1.27107 0.293058 47
-2.06439 1.3002 0.467062 38
-1.39498 1.26835 0.161892 50
-2.04763 1.29314 0.292679 38
-1.39793 1.27148 0.0323742 47
-2.04218 1.29168 0.124821 36
-1.4034 1.27692 -0.0979316 49
-1.39645 1.27147 -0.227267 53
-1.39348 1.27008 -0.359029 56
-1.38855 1.26734 -0.494022 61
-0.969654 0.614475 -0.256618 4
-1.37811 1.26665 0.423392 49
-2.05417 1.30338 0.641681 39
-1.38223 1.27001 0.291107 47
-2.04742 1.30406 0.464679 39
-1.38121 1.26865 0.16102 49
-2.03246 1.29852 0.291462 38
-1.38044 1.26838 0.0321124 49
-2.03117 1.29967 0.12456 39
-1.38384 1.27241 -0.0970127 49
-1.62428 1.04124 -0.0330723 15
-1.37518 1.26531 -0.224834 53
-1.37801 1.2688 -0.356648 56
-1.37503 1.2678 -0.491436 59
-0.974649 0.624768 -0.258864 4
-1.37232 1.26575 0.422269 49
-2.03557 1.29661 0.636512 39
-1.37819 1.27075 0.290717 47
-2.02628 1.29612 0.46039 38
-1.3735 1.26599 0.160367 49
-2.01137 1.29004 0.288724 39
-1.378 1.27103 0.0321124 49
-2.01208 1.29246 0.123513 39
-1.37795 1.27143 -0.0967501 49
-1.61614 1.04003 -0.0329414 14
-1.37297 1.26771 -0.224834 53
-1.37219 1.26787 -0.355696 56
-1.37082 1.26879 -0.490789 61
-0.967394 0.622539 -0.257179 4
-1.36367 1.27149 0.421707 49
-2.01634 1.29978 0.632634 38
-1.36769 1.27482 0.289937 47
-2.01121 1.3014 0.458484 39
-1.36117 1.26831 0.159713 49
-1.99602 1.29552 0.287507 38
-1.36584 1.27311 0.0319815 49
-1.99458 1.29654 0.122859 38
-1.36763 1.27522 -0.0964876 49
-1.61469 1.05148 -0.0330287 14
-1.36065 1.27003 -0.223921 55
-1.35994 1.27025 -0.354267 58
-1.36239 1.2743 -0.490143 61
-0.9722 0.633047 -0.259426 4
-1.35278 1.26531 0.418899 49
-2.00188 1.29545 0.628757 39
-1.35307 1.26515 0.287205 47
-1.99452 1.29558 0.455147 39
-1.35532 1.26727 0.159277 49
-1.98774 1.2946 0.286594 39
-1.35815 1.27037 0.0318506 47
-1.98416 1.29423 0.122335 38
-1.35811 1.27078 -0.0959625 50
-1.35684 1.27047 -0.223617 55
-1.34877 1.26422 -0.351887 58
-1.34961 1.26676 -0.486263 61
-0.967114 0.631926 -0.258303 4
-1.3426 1.26902 0.417776 49
-1.98113 1.29634 0.624234 39
-1.34463 1.27052 0.286815 49
-1.97766 1.29894 0.452764 39
-1.34165 1.26727 0.158406 49
-1.97056 1.29819 0.285073 39
-1.34262 1.26863 0.0316325 49
-1.96692 1.29775 0.121681 38
-1.346 1.27272 -0.0955686 50
-1.34297 1.27073 -0.2224 55
-1.33879 1.26765 -0.350934 58
-1.96048 1.29258 -0.366852 38
-1.34493 1.27523 -0.486909 61
-0.963792 0.636981 -0.258303 4
-1.33332 1.26465 0.41553 50
-1.96674 1.29186 0.620356 39
-1.33883 1.26946 0.286034 47
-1.96491 1.296 0.450381 39
-1.33582 1.26618 0.15797 50
-1.95171 1.29071 0.282639 39
-1.33656 1.26777 0.0315452 47
-1.95007 1.29156 0.120765 38
-1.34016 1.27163 -0.0953061 50
-1.33176 1.26452 -0.220878 55
-1.32769 1.26153 -0.348553 58
-1.95204 1.29193 -0.365677 38
-1.33374 1.26948 -0.483676 62
-0.964715 0.64 -0.258864 4
-1.3247 1.27016 0.414969 50
-1.94764 1.29449 0.616479 41
-1.32481 1.26985 0.284473 47
-1.94787 1.29948 0.447998 39
-1.32177 1.26649 0.157098 49
-1.93024 1.29162 0.28051 39
-1.32449 1.26955 0.0314143 49
-1.93059 1.29378 0.11998 38
-1.32808 1.27344 -0.0949123 52
-1.32132 1.26827 -0.22027 55
-1.31377 1.26189 -0.346649 58
-1.9368 1.29699 -0.364111 39
-1.32186 1.27142 -0.481736 61
-0.961238 0.64521 -0.258864 4
-1.31393 1.26379 0.412161 50
-1.93934 1.29388 0.614541 41
-1.31904 1.26873 0.283693 47
-1.93131 1.29335 0.444662 39
-1.31597 1.26534 0.156662 50
-1.92179 1.29085 0.279597 41
-1.31327 1.26319 0.0311962 49
-1.92003 1.29159 0.119457 39
-1.31687 1.2671 -0.0942559 52
-1.31374 1.26541 -0.219357 55
-1.3098 1.26247 -0.346173 56
-1.92222 1.29213 -0.361762 38
-1.31269 1.26701 -0.47915 59
-0.962137 0.64824 -0.259426 4
-1.30358 1.26748 0.411038 50
-1.92452 1.29863 0.611956 41
-1.30707 1.27045 0.282522 47
-1.91637 1.29796 0.442756 41
-1.30218 1.26527 0.155791 49
-1.90062 1.29116 0.277467 41
-1.30485 1.26831 0.0311525 49
-1.90497 1.29603 0.118933 39
-1.30843 1.27223 -0.0941246 50
-1.30532 1.27054 -0.219053 56
-1.2979 1.26417 -0.344744 58
-1.8993 1.29077 -0.35863 36
-1.29913 1.26712 -0.476563 59
-0.952672 0.649179 -0.257741 4
-1.29462 1.26272 0.408792 52
-1.90623 1.29119 0.606786 39
-1.29801 1.2656 0.280961 45
-1.90394 1.29442 0.440373 41
-1.29285 1.26058 0.154919 49
-1.88627 1.28579 0.275642 39
-1.29906 1.26709 0.0310653 50
-1.89055 1.2906 0.118148 39
-1.30085 1.26928 -0.0937308 52
-1.87975 1.28469 -0.039137 35
-1.29623 1.26564 -0.217836 56
-1.29219 1.263 -0.343792 59
-1.29002 1.26262 -0.473977 59
-0.953668 0.652041 -0.258303 4
-1.28279 1.26434 0.407107 52
-1.8877 1.29266 0.602909 42
-1.28257 1.26371 0.27901 47
-1.88521 1.29573 0.437513 42
-1.28468 1.26536 0.154701 49
-1.87133 1.29003 0.274425 41
-1.28729 1.26838 0.0309344 50
-1.87142 1.29199 0.117363 39
-1.2853 1.2673 -0.0930744 52
-1.86292 1.28711 -0.0389189 36
-1.28429 1.26718 -0.216923 56
-1.28403 1.2678 -0.343316 59
-1.28361 1.26913 -0.473977 59
-0.950241 0.657025 -0.258303 4
-1.27539 1.26144 0.405423 50
-1.87547 1.28913 0.599678 42
-1.28212 1.26768 0.279401 49
-1.87058 1.29101 0.434654 42
-1.27893 1.26409 0.154266 49
-1.85477 1.28344 0.272295 41
-1.27953 1.26557 0.0308035 50
-1.86094 1.28959 0.11684 39
-1.27777 1.26427 -0.0926806 52
-1.8545 1.2861 -0.038788 36
-1.28032 1.26767 -0.216619 56
-1.27485 1.26313 -0.341411 58
-1.27604 1.26649 -0.472037 59
-0.949093 0.658683 -0.258303 4
-1.2651 1.26487 0.4043 50
-1.85854 1.29239 0.596447 42
-1.26477 1.26412 0.277059 49
-1.85171 1.29238 0.431794 42
-1.26327 1.26219 0.153176 50
-1.83965 1.28778 0.271078 41
-1.26582 1.26518 0.030629 49
-1.84165 1.29106 0.116055 41
-1.26584 1.26565 -0.0922868 50
-1.83727 1.28896 -0.0385698 36
-1.26818 1.26931 -0.215706 56
-1.2628 1.26479 -0.339982 58
-1.26087 1.2646 -0.468804 59
-0.951514 0.667982 -0.259987 4
-1.25624 1.25995 0.402054 50
-1.84637 1.28874 0.593216 44
-1.25908 1.26282 0.276279 49
-1.84341 1.2914 0.430365 42
-1.25755 1.26086 0.15274 52
-1.83334 1.28815 0.27047 41
-1.26008 1.26385 0.0305417 49
-1.83326 1.28998 0.115662 41
-1.26187 1.26608 -0.0921555 52
-1.82478 1.28499 -0.0383517 36
-1.25547 1.26096 -0.213881 58
-1.25713 1.26351 -0.33903 59
-1.25186 1.25994 -0.466217 59
-0.954342 0.672432 -0.26111 4
-1.24962 1.26651 0.402054 50
-1.82796 1.28974 0.589339 44
-1.24921 1.26566 0.275498 49
-1.82481 1.29223 0.427505 42
-1.24415 1.26012 0.151869 50
-1.81666 1.29025 0.268948 41
-1.2484 1.26487 0.0304108 49
-1.81652 1.29203 0.115008 41
-1.24668 1.26356 -0.0914991 52
-1.8101 1.28843 -0.0381771 38
-1.24385 1.262 -0.212968 58
-1.24383 1.26286 -0.337125 59
-1.24715 1.26798 -0.466864 59
-0.946946 0.674444 -0.259987 4
-1.24251 1.26326 0.400369 52
-1.81584 1.28597 0.586108 44
-1.2418 1.26256 0.274328 49
-1.81454 1.28974 0.425599 42
-1.24021 1.26051 0.151651 52
-1.80631 1.28767 0.267731 41
-1.24269 1.26348 0.0303236 49
-1.80409 1.28797 0.114354 41
-1.24447 1.26573 -0.0914991 52
-1.7997 1.28579 -0.0380026 38
-1.23817 1.26062 -0.21236 58
-1.23819 1.26152 -0.336173 59
-1.23481 1.2598 -0.462984 61
-0.943779 0.674687 -0.259426 4
-1.22887 1.26297 0.398123 52
-1.79925 1.28845 0.582877 45
-1.23001 1.26373 0.273157 50
-1.79778 1.29209 0.423216 42
-1.23012 1.26341 0.151215 50
-1.78947 1.28988 0.26621 42
-1.22909 1.2628 0.030149 49
-1.78718 1.29011 0.1137 39
-1.22717 1.2617 -0.0907115 53
-1.78483 1.28936 -0.0378281 38
-1.22809 1.26353 -0.211751 55
-1.22474 1.26094 -0.334268 59
-1.22651 1.26451 -0.462338 61
-0.944194 0.682457 -0.260549 4
-1.22327 1.26162 0.397 52
-1.78521 1.28316 0.578999 45
-1.22437 1.26233 0.272377 50
-1.78733 1.28981 0.421309 44
-1.22098 1.2584 0.150344 50
-1.77513 1.2843 0.264385 42
-1.22319 1.26156 0.0300618 49
-1.77885 1.28885 0.113307 41
-1.2267 1.26564 -0.0908427 52
-1.77244 1.28516 -0.0376099 38
-1.22071 1.26032 -0.210838 56
-1.22083 1.26131 -0.333792 58
-1.21738 1.25991 -0.459751 59
-0.941024 0.682681 -0.259987 4
-1.21306 1.2647 0.395877 52
-1.76846 1.28572 0.575768 45
-1.21411 1.26537 0.271596 49
-1.77261 1.29338 0.419403 42
-1.21415 1.26499 0.150344 52
-1.76013 1.28804 0.263168 42
-1.20965 1.26073 0.0298872 50
-1.76177 1.2911 0.112653 41
-1.21488 1.26663 -0.0904489 53
-1.7594 1.29031 -0.037479 38
-1.20701 1.25973 -0.209622 56
-1.75934 1.28981 -0.187446 39
-1.21229 1.26612 -0.333316 58
-1.20243 1.25753 -0.456518 59
-0.935346 0.68633 -0.259426 4
-1.20434 1.25955 0.393631 52
-1.7584 1.28313 0.573184 45
-1.2053 1.26013 0.270035 50
-1.75845 1.2878 0.416543 44
-1.20506 1.2599 0.149472 52
-1.74809 1.28348 0.261647 44
-1.20227 1.25741 0.0297564 50
-1.74967 1.28649 0.111999 41
-1.20922 1.26514 -0.0901864 53
-1.74102 1.28156 -0.03713 38
-1.20503 1.26163 -0.209622 58
-1.74704 1.28552 -0.186359 38
-1.19654 1.25402 -0.329507 52
-1.1969 1.25613 -0.455225 56
-1.19606 1.26407 0.393069 53
-1.74409 1.2863 0.570599 45
-1.19529 1.26283 0.269255 50
-1.74005 1.28795 0.413684 42
-1.19867 1.26599 0.149472 53
-1.73137 1.28525 0.260125 44
-1.19417 1.26167 0.0297127 50
-1.72886 1.28524 0.111083 41
-1.19401 1.26238 -0.08953 53
-1.72848 1.28589 -0.0369991 39
-1.1916 1.2607 -0.208405 58
-1.72828 1.28575 -0.185054 39
-1.18512 1.25471 -0.328078 49
-1.18887 1.26042 -0.454578 56
-1.18884 1.26083 0.391385 53
-1.73601 1.28504 0.56866 45
-1.1897 1.26132 0.268474 50
-1.73166 1.28691 0.412254 44
-1.18621 1.2572 0.148165 52
-1.72314 1.28383 0.259213 45
-1.18661 1.2585 0.0295818 50
-1.71859 1.2823 0.11056 41
-1.19351 1.26628 -0.0896612 52
-1.7162 1.28145 -0.0367809 39
-1.1843 1.25735 -0.207492 58
-1.71804 1.28283 -0.184184 39
-1.17789 1.25141 -0.32665 45
-1.17158 1.24684 -0.448759 52
-1.17868 1.26368 0.390261 53
-1.71548 1.28431 0.564137 45
-1.17612 1.26051 0.266913 52
-1.7131 1.28714 0.409394 44
-1.1777 1.26178 0.147947 52
-1.70227 1.28271 0.257083 45
-1.1783 1.26286 0.0295382 52
-1.69965 1.28258 0.109775 41
-1.18176 1.26703 -0.0892674 53
-1.69925 1.28321 -0.0365628 41
-1.17748 1.26374 -0.207492 59
-1.16943 1.25596 -0.326174 45
-1.16503 1.25296 -0.448759 45
-1.17338 1.26196 0.389138 53
-1.70356 1.28007 0.560906 45
-1.17078 1.25874 0.266133 52
-1.70496 1.28571 0.407965 44
-1.17041 1.25836 0.147293 52
-1.68836 1.27643 0.255258 45
-1.17269 1.26125 0.0294509 52
-1.68767 1.27774 0.10912 39
-1.17446 1.2636 -0.0888736 53
-1.69103 1.28165 -0.0364319 41
-1.17043 1.26013 -0.206579 59
-1.16557 1.2562 -0.325697 45
-1.16121 1.25322 -0.448112 45
-1.16016 1.26091 0.386892 53
-1.69128 1.28431 0.558967 45
-1.15916 1.2594 0.264962 50
-1.68866 1.2869 0.405582 44
-1.15728 1.25693 0.146422 52
-1.6777 1.28225 0.254649 45
-1.16122 1.26165 0.02932 50
-1.67897 1.28504 0.10899 42
-1.16445 1.26605 -0.088611 55
-1.67657 1.28413 -0.0362574 41
-1.15878 1.26076 -0.205666 59
-1.1509 1.25304 -0.323317 47
-1.14669 1.25018 -0.444879 45
-1.15467 1.25934 0.385769 53
-1.67942 1.27996 0.555736 45
-1.15529 1.2596 0.264572 50
-1.67642 1.28271 0.403199 45
-1.15341 1.25711 0.146204 52
-1.66363 1.27614 0.252824 47
-1.15373 1.25835 0.0291891 52
-1.66086 1.27584 0.107943 41
-1.15718 1.26256 -0.0882172 55
-1.6644 1.27946 -0.0360392 41
-1.15658 1.26278 -0.205666 59
-1.15037 1.25686 -0.323793 55
-1.14104 1.24881 -0.443586 45
-1.14457 1.26196 0.384646 53
-1.66097 1.28021 0.551859 47
-1.14515 1.26217 0.263792 52
-1.65996 1.28398 0.400816 45
-1.14491 1.26149 0.145986 52
-1.65277 1.28209 0.252215 47
-1.14545 1.26252 0.0291455 53
-1.6559 1.28634 0.108074 42
-1.1472 1.2649 -0.0879547 55
-1.65152 1.28386 -0.0359083 41
-1.14307 1.26166 -0.204449 59
-1.13532 1.25396 -0.321412 53
-1.1361 1.25656 -0.444232 47
-1.13769 1.25833 0.382962 55
-1.65108 1.27722 0.549274 45
-1.13798 1.25867 0.262621 52
-1.65189 1.28238 0.399386 45
-1.1377 1.25794 0.145332 52
-1.64269 1.2789 0.250998 47
-1.13487 1.25524 0.0289274 53
-1.64577 1.2831 0.10755 42
-1.14165 1.26319 -0.0876921 56
-1.6394 1.27908 -0.0356902 42
-1.13754 1.25996 -0.203841 59
-1.13149 1.25412 -0.320936 59
-1.13068 1.25495 -0.442939 56
-1.13087 1.26447 0.382962 55
-1.64056 1.28288 0.547982 47
-1.12808 1.26092 0.26184 53
-1.63742 1.28497 0.39748 45
-1.12944 1.26202 0.145114 52
-1.62815 1.28136 0.249781 47
-1.12495 1.25743 0.0288401 53
-1.63117 1.28554 0.107027 42
-1.13169 1.26543 -0.0874296 56
-1.62875 1.28456 -0.0356029 42
-1.12763 1.2622 -0.203232 59
-0.947155 0.749286 -0.102421 9
-1.11838 1.2527 -0.319031 83
-1.12088 1.25724 -0.441646 90
-1.12078 1.25714 0.380154 55
-1.6288 1.27831 0.54475 47
-1.12117 1.25716 0.26067 52
-1.62551 1.28025 0.395097 45
-1.11896 1.25469 0.144025 52
-1.62029 1.27932 0.248869 47
-1.11943 1.25566 0.0287528 53
-1.61345 1.27575 0.10598 39
-1.1245 1.26181 -0.0870357 58
-1.61669 1.27966 -0.0353848 42
-1.1207 1.25841 -0.20232 62
-0.945846 0.750938 -0.102421 9
-1.11619 1.25465 -0.319031 97
-1.11548 1.25558 -0.440352 90
-1.11418 1.26299 0.380154 55
-1.61283 1.27905 0.54152 49
-1.11294 1.26116 0.26028 53
-1.61516 1.28542 0.394143 45
-1.11095 1.25847 0.143807 53
-1.60579 1.28161 0.247652 47
-1.11141 1.25943 0.0287092 53
-1.60675 1.28418 0.10598 42
-1.11788 1.26768 -0.0870357 56
-1.60433 1.28316 -0.0352539 42
-1.11082 1.26053 -0.201711 67
-0.939952 0.754329 -0.102204 8
-1.10496 1.25475 -0.317603 90
-1.10911 1.26121 -0.440352 77
-1.58348 1.26216 -0.458768 32
-1.10555 1.25761 0.377908 55
-1.60491 1.27737 0.539581 49
-1.10911 1.26125 0.259889 52
-1.60501 1.28241 0.392237 45
-1.10546 1.25666 0.143371 53
-1.59191 1.27513 0.245826 47
-1.10734 1.25969 0.0286656 55
-1.5967 1.28075 0.105457 42
-1.11073 1.264 -0.0866419 56
-1.59427 1.27972 -0.0350793 41
-1.10371 1.25687 -0.200799 67
-0.942526 0.759078 -0.102639 4
-1.09954 1.25298 -0.31665 65
-1.10191 1.25789 -0.438412 61
-1.58699 1.26947 -0.460452 44
-1.09234 1.25622 0.375662 55
-1.58667 1.27698 0.535704 50
-1.09741 1.26163 0.258719 52
-1.5868 1.28157 0.389377 45
-1.09211 1.25511 0.1425 53
-1.57919 1.27905 0.244913 45
-1.09417 1.25792 0.0284911 53
-1.58004 1.28153 0.104803 44
-1.10082 1.26602 -0.0863794 55
-1.5776 1.28047 -0.0348612 41
-1.09689 1.26282 -0.200799 65
-0.936601 0.762438 -0.102421 4
-1.08631 1.2515 -0.314746 62
-1.09057 1.25816 -0.436473 59
-1.57061 1.2704 -0.457645 44
-1.08718 1.25425 0.374539 55
-1.57879 1.2752 0.533765 50
-1.08735 1.25402 0.256768 53
-1.58265 1.28279 0.388901 45
-1.09155 1.25889 0.142718 53
-1.57139 1.27685 0.244001 49
-1.0887 1.25605 0.0284038 53
-1.56832 1.27616 0.104149 42
-1.09208 1.26039 -0.0858543 56
-1.5676 1.27692 -0.0346867 41
-1.09166 1.26079 -0.20019 67
-0.935269 0.764071 -0.102421 4
-1.08252 1.25153 -0.314269 61
-1.08522 1.2564 -0.435179 59
-1.56482 1.26981 -0.456522 44
-1.07584 1.25437 0.372854 56
-1.56482 1.27709 0.53118 52
-1.07916 1.25782 0.256377 53
-1.56852 1.28459 0.386994 45
-1.07706 1.25495 0.141628 53
-1.557 1.27878 0.242784 49
-1.07908 1.25774 0.0283165 56
-1.55582 1.27961 0.103756 42
-1.08222 1.2623 -0.0855917 56
-1.55531 1.28009 -0.0345558 44
-1.08182 1.26272 -0.199582 65
-1.07139 1.2514 -0.312841 64
-1.55088 1.2747 -0.312822 35
-1.07885 1.26188 -0.435179 58
-1.55061 1.27182 -0.454276 45
-1.07207 1.25439 0.372293 56
-1.55884 1.27677 0.529888 50
-1.07536 1.25783 0.255987 52
-1.55656 1.27983 0.384611 44
-1.07164 1.25304 0.141192 55
-1.54517 1.27363 0.241263 49
-1.07342 1.25601 0.0282293 53
-1.54394 1.2744 0.103102 42
-1.07677 1.26039 -0.0853292 56
-1.54342 1.27487 -0.0343376 44
-1.07156 1.25516 -0.19806 65
-1.06761 1.2514 -0.312365 71
-1.54101 1.27114 -0.311256 45
-1.06704 1.25291 -0.4313 59
-1.54084 1.26835 -0.452029 45
-1.06212 1.25645 0.37117 56
-1.54259 1.2775 0.526657 50
-1.06376 1.25796 0.254816 53
-1.5366 1.27701 0.381275 45
-1.06163 1.25501 0.140757 55
-1.53062 1.27563 0.240046 49
-1.06844 1.26352 0.0282729 53
-1.52934 1.27635 0.102578 44
-1.06533 1.26028 -0.0849353 56
-1.52881 1.27681 -0.0341631 44
-1.06156 1.25714 -0.197452 67
-1.50631 1.25768 -0.16831 18
-1.05608 1.25153 -0.310936 67
-1.52841 1.27473 -0.310082 45
-1.06202 1.26033 -0.431946 58
-1.52833 1.27201 -0.450345 45
-1.05701 1.25439 0.370046 56
-1.53292 1.27404 0.524072 52
-1.0568 1.25415 0.253646 53
-1.53437 1.27969 0.381275 45
-1.05783 1.25495 0.140539 55
-1.52267 1.27354 0.239133 50
-1.06141 1.25965 0.028142 55
-1.51944 1.27262 0.102055 44
-1.05991 1.25832 -0.0846728 58
-1.52082 1.27467 -0.0340322 45
-1.05777 1.2571 -0.197148 67
-1.5175 1.27147 -0.169832 35
-1.05548 1.25525 -0.311412 71
-1.5186 1.27107 -0.308515 47
-1.05827 1.26033 -0.4313 58
-1.51861 1.26844 -0.448099 45
-1.04731 1.25616 0.368923 56
-1.51904 1.27559 0.521487 52
-1.05044 1.25948 0.253646 53
-1.52223 1.28271 0.379846 45
-1.04669 1.25455 0.139885 55
-1.50671 1.27324 0.237612 50
-1.04862 1.25732 0.0279675 55
-1.50534 1.27387 0.101532 44
-1.04852 1.25809 -0.084279 58
-1.50862 1.27752 -0.0339013 45
-1.04663 1.25671 -0.196235 68
-1.5013 1.27137 -0.168745 35
-1.0444 1.25491 -0.309984 70
-1.50837 1.27556 -0.307732 49
-1.04416 1.25638 -0.428066 59
-1.51031 1.27455 -0.447537 45
-1.04201 1.25424 0.3678 56
-1.50755 1.27048 0.518256 52
-1.04351 1.25561 0.252475 53
-1.5085 1.27615 0.376986 45
-1.04131 1.25254 0.139449 56
-1.49879 1.27107 0.236699 49
-1.04301 1.25548 0.0278802 55
-1.49739 1.27166 0.101139 45
-1.04154 1.25415 -0.0838851 58
-1.49302 1.26885 -0.0335959 45
-1.04602 1.26044 -0.196539 68
-1.49908 1.27399 -0.168745 44
-1.03908 1.25295 -0.309032 74
-1.50048 1.27341 -0.306558 49
-1.0356 1.25093 -0.42548 59
-1.49504 1.26619 -0.443607 47
-1.02594 1.24855 0.364431 56
-1.49697 1.27549 0.516964 52
-1.03356 1.25742 0.251695 53
-1.49432 1.27767 0.37508 47
-1.03136 1.25431 0.139013 55
-1.48434 1.27272 0.235482 50
-1.03325 1.25706 0.027793 53
-1.4848 1.27488 0.100747 45
-1.03179 1.25573 -0.0836226 56
-1.48614 1.27691 -0.0335959 45
-1.03447 1.26033 -0.195626 67
-1.48292 1.27373 -0.167658 44
-1.03073 1.25665 -0.308555 64
-1.4844 1.27324 -0.3046 49
-1.02903 1.25634 -0.42548 59
-1.48446 1.2711 -0.442484 47
-1.02398 1.25016 0.364431 56
-1.48739 1.27184 0.514379 53
-1.0269 1.25331 0.250524 55
-1.48649 1.27549 0.37365 47
-1.02759 1.25418 0.138796 55
-1.47669 1.27021 0.234569 50
-1.02947 1.25693 0.0277493 55
-1.47521 1.27071 0.100223 45
-1.02644 1.25366 -0.08336 58
-1.47442 1.27137 -0.0333777 45
-1.02778 1.25618 -0.194714 71
-1.47502 1.27145 -0.167005 45
-1.02388 1.25275 -0.307127 68
