# .PCD v0.7 - Point Cloud Data file format
VERSION 0.7
FIELDS x y z intensity
SIZE 4 4 4 4
TYPE F F F F
COUNT 1 1 1 1
WIDTH 1570
HEIGHT 1
VIEWPOINT 0 0 0 1 0 0 0
POINTS 1570
DATA ascii
-0.654721 0.0107321 -0.0541462 58
-0.791886 0.14792 -0.149516 55
-0.790139 0.0114397 -0.119804 53
-0.786777 0.147506 -0.20498 52
-0.784909 0.0106161 -0.17295 52
-2.79195 0.527623 0.646879 52
-2.80297 0.529217 0.445246 42
-3.058 0.0309913 0.587164 3
-2.81451 0.530906 0.247522 55
-3.04442 0.0345586 0.369043 11
-0.692784 0.129869 0.0116931 9
-3.05029 0.0367277 0.158055 24
-0.642897 0.120531 -0.0325564 90
-0.785437 0.147845 -0.093706 62
-0.652211 0.0118478 -0.0539288 58
-0.791627 0.149302 -0.149516 55
-0.792587 0.0128437 -0.120196 55
-0.788864 0.14947 -0.205627 52
-0.780017 0.0119418 -0.171827 52
-2.78427 0.541788 0.645756 52
-2.79764 0.543902 0.444856 36
-3.09461 0.04751 0.594313 3
-2.81649 0.547078 0.247958 55
-3.08388 0.0516327 0.373911 2
-0.689642 0.133016 0.0116495 12
-3.04256 0.0531118 0.157662 21
-0.644708 0.124374 -0.0326876 90
-0.78219 0.151616 -0.0934018 62
-0.65961 0.0153826 -0.0545811 56
-0.790807 0.153583 -0.149516 55
-0.797446 0.0170693 -0.120979 55
-0.78807 0.153599 -0.205627 52
-0.777505 0.0161267 -0.171266 52
-2.77863 0.54522 0.644633 49
-2.79678 0.548296 0.444856 47
-2.80575 0.550072 0.247087 55
-0.691861 0.134702 0.0116931 12
-3.04747 0.0579781 0.157924 23
-0.64449 0.125499 -0.0326876 90
-0.781951 0.152845 -0.0934018 61
-0.654602 0.0164451 -0.0541462 58
-0.795353 0.155915 -0.150468 53
-0.797415 0.0184611 -0.120979 55
-0.785432 0.154504 -0.20498 52
-0.777479 0.0173479 -0.171266 52
-2.7829 0.56121 0.646318 49
-2.78903 0.561955 0.444075 50
-2.80049 0.563773 0.246869 55
-0.698521 0.139687 0.011824 11
-3.04712 0.0739337 0.157924 23
-0.641399 0.128265 -0.0325564 88
-0.783572 0.15743 -0.093706 61
-0.657 0.0198151 -0.0543637 59
-0.792149 0.15945 -0.149992 53
-0.797308 0.0226361 -0.120979 55
-0.782274 0.157995 -0.204334 52
-0.777378 0.0214185 -0.171266 52
-2.77963 0.565094 0.645756 50
-2.78563 0.566328 0.443685 49
-7.16206 0.164868 1.38451 33
-2.7995 0.56866 0.246869 56
-7.25342 0.177006 0.885339 29
-0.693377 0.139907 0.0117367 9
-3.042 0.0791299 0.157662 23
-0.641175 0.129384 -0.0325564 83
-0.785727 0.159295 -0.0940102 59
-0.656965 0.0209617 -0.0543637 59
-0.791869 0.160833 -0.149992 55
-0.797267 0.0240276 -0.120979 56
-0.789093 0.160819 -0.206274 52
-0.777339 0.0227753 -0.171266 52
-2.77643 0.58061 0.645756 49
-6.89572 0.184261 1.83651 1
-2.78494 0.581898 0.444075 50
-7.1537 0.203411 1.38308 30
-2.79882 0.584309 0.247087 64
-7.25732 0.216393 0.885948 30
-0.690164 0.143144 0.0116931 8
-3.04652 0.0957364 0.157924 23
-0.645352 0.133876 -0.0328189 80
-0.779997 0.162523 -0.0934018 61
-0.651863 0.0243664 -0.0539288 59
-0.790987 0.165115 -0.149992 53
-0.799598 0.0282741 -0.12137 58
-0.785849 0.164587 -0.205627 52
-0.777204 0.0269808 -0.171266 53
-2.77313 0.584466 0.645195 52
-6.92677 0.197167 1.84491 1
-2.78885 0.587292 0.444856 55
-7.15824 0.216041 1.38403 30
-2.80511 0.590736 0.24774 90
-7.26193 0.227945 0.886556 30
-0.685022 0.143315 0.0116058 4
-3.04387 0.100443 0.157793 23
-0.640232 0.133969 -0.0325564 73
-0.782168 0.164262 -0.093706 61
-0.651819 0.0255041 -0.0539288 64
-0.788297 0.165985 -0.149516 55
-0.79708 0.029593 -0.120979 58
-0.790284 0.166965 -0.20692 52
-0.777161 0.0282015 -0.171266 53
-2.77242 0.599495 0.645756 52
-6.91603 0.231907 1.84233 1
-2.78574 0.601886 0.444856 56
-7.16687 0.252609 1.38594 33
-2.80452 0.605453 0.247958 96
-7.26559 0.266143 0.887165 33
-0.68673 0.14731 0.0116495 4
-3.04579 0.116471 0.157924 24
-0.632226 0.135621 -0.0321625 67
-0.776448 0.167301 -0.0930975 59
-0.651682 0.0288029 -0.0539288 65
-0.787447 0.169973 -0.149516 53
-0.799381 0.0338557 -0.12137 56
-0.789429 0.170963 -0.20692 52
-0.781872 0.0324421 -0.172389 53
-2.76433 0.602289 0.644072 52
-6.92044 0.244144 1.84362 1
-2.77503 0.60464 0.443295 39
-7.16641 0.265117 1.38594 32
-2.80589 0.610878 0.248176 97
-7.26264 0.27873 0.88686 33
-0.68403 0.147975 0.0116058 4
-3.04559 0.121787 0.157924 23
-0.634428 0.137257 -0.0322938 68
-0.781003 0.169718 -0.093706 59
-0.651631 0.0299403 -0.0539288 65
-0.791944 0.172399 -0.150468 53
-0.794386 0.0350629 -0.120587 58
-0.786771 0.171821 -0.206274 52
-0.781814 0.0338067 -0.172389 52
-2.75865 0.616704 0.64351 50
-6.92872 0.28076 1.84621 1
-2.76701 0.618082 0.442514 53
-7.16738 0.302738 1.38641 33
-2.7905 0.622842 0.247087 85
-7.26604 0.316966 0.887469 35
-0.688124 0.152646 0.0116931 4
-3.0474 0.137841 0.158055 24
-0.623932 0.138503 -0.0317687 65
-0.787366 0.175437 -0.0946187 59
-0.656435 0.0336845 -0.0543637 70
-0.788636 0.176005 -0.149992 53
-0.801593 0.0395424 -0.121762 58
-0.781149 0.174875 -0.20498 52
-0.781626 0.0378997 -0.172389 53
-2.76233 0.622592 0.644633 50
-6.92581 0.292752 1.84556 1
-2.77075 0.623998 0.443295 53
-7.15698 0.316072 1.38451 30
-2.79184 0.62826 0.247304 61
-7.25308 0.329093 0.885948 33
-0.685392 0.153416 0.0116495 3
-3.03967 0.142819 0.157662 24
-0.626124 0.140142 -0.0319 61
-0.626188 0.0334366 -0.0103405 8
-0.787059 0.176811 -0.0946187 58
-0.648912 0.0344886 -0.0537113 71
-0.788327 0.177381 -0.149992 53
-0.796589 0.0407191 -0.120979 58
-0.783167 0.17691 -0.205627 52
-0.776692 0.0390497 -0.171266 53
-2.75892 0.637528 0.644633 50
-6.92171 0.330107 1.84491 1
-2.76733 0.63898 0.443295 53
-7.16503 0.354019 1.38641 32
-2.78355 0.642234 0.246869 67
-7.24624 0.368083 0.885339 33
-0.68945 0.15813 0.0117367 3
-0.632678 0.145108 -0.0322938 61
-0.625998 0.0368241 -0.0103405 8
-0.786091 0.181067 -0.0946187 59
-0.653697 0.0381395 -0.0541462 76
-0.787356 0.181644 -0.149992 53
-0.796365 0.0448894 -0.120979 58
-0.784582 0.181557 -0.206274 50
-0.774036 0.0431311 -0.170704 53
-2.75317 0.640754 0.64351 50
-6.92354 0.342304 1.84556 1
-2.76873 0.643887 0.443685 55
-7.15215 0.365905 1.38403 35
-2.79212 0.649352 0.24774 98
-7.25308 0.379849 0.886252 33
-0.629993 0.145645 -0.0321625 61
-0.620941 0.0376524 -0.0102533 8
-0.783389 0.181736 -0.0943145 58
-0.648655 0.039018 -0.0537113 77
-0.784648 0.182458 -0.149516 53
-0.798751 0.0464076 -0.12137 58
-0.786614 0.183479 -0.20692 52
-0.778833 0.0445951 -0.171827 52
-2.74977 0.655161 0.64351 52
-6.9193 0.377213 1.84491 1
-2.76292 0.657802 0.443295 49
-7.15265 0.402236 1.38451 35
-2.78153 0.661743 0.247087 159
-7.24852 0.417679 0.885948 33
-0.626819 0.148252 -0.0320313 61
-0.630724 0.0413738 -0.0104278 8
-0.78484 0.186413 -0.0946187 58
-0.64845 0.0423006 -0.0537113 79
-0.786101 0.186999 -0.149992 53
-0.796032 0.0504479 -0.120979 58
-0.790372 0.188587 -0.208214 50
-0.76886 0.0481251 -0.169581 52
-2.75348 0.660618 0.644633 52
-6.91863 0.389289 1.84491 1
-2.75696 0.661468 0.442514 45
-7.14949 0.414579 1.38403 35
-2.78037 0.666597 0.247087 118
-7.24778 0.43033 0.885948 33
-0.628987 0.14993 -0.0321625 61
-0.62566 0.0421763 -0.0103405 8
-0.784514 0.187783 -0.0946187 58
-0.650861 0.0435804 -0.0539288 85
-0.788159 0.188947 -0.150468 53
-0.795943 0.0518372 -0.120979 58
-0.787694 0.189397 -0.207567 50
-0.773639 0.0497491 -0.170704 53
-2.74986 0.675506 0.644633 44
-6.91409 0.425363 1.84427 1
-2.75586 0.676485 0.442904 55
-7.15212 0.452314 1.38498 35
-2.77443 0.680551 0.246869 107
-7.24542 0.468273 0.885948 33
-0.625769 0.152624 -0.0320313 59
-0.630419 0.045776 -0.0104278 8
-0.78352 0.191888 -0.0946187 56
-0.645653 0.0466654 -0.0534938 85
-0.787159 0.193071 -0.150468 53
-0.798124 0.0561625 -0.12137 58
-0.782004 0.192357 -0.206274 50
-0.77823 0.0541068 -0.171827 53
-2.7488 0.679825 0.644633 44
-6.91093 0.437279 1.84362 1
-2.75947 0.682481 0.443685 56
-7.15132 0.464797 1.38498 35
-2.7829 0.687787 0.24774 104
-7.2446 0.480918 0.885948 33
-3.03602 0.206446 0.157662 18
-0.630348 0.154918 -0.0322938 61
-0.622856 0.0463767 -0.0102969 8
-0.788 0.194452 -0.0952272 56
-0.648056 0.0479577 -0.0537113 89
-0.786821 0.194444 -0.150468 53
-0.795562 0.0573926 -0.120979 58
-0.78401 0.194307 -0.20692 50
-0.770841 0.0549908 -0.170143 52
-2.74272 0.694089 0.644072 38
-6.91095 0.473622 1.84427 1
-2.76304 0.69874 0.444856 56
-7.14634 0.502064 1.38451 35
-2.77202 0.700515 0.247087 113
-7.2395 0.518668 0.885643 33
-3.03489 0.22234 0.157662 20
-0.624688 0.156989 -0.0320313 59
-0.625098 0.0498169 -0.0103405 4
-0.786971 0.198575 -0.0952272 56
-0.652764 0.0517072 -0.0541462 90
-0.785792 0.198562 -0.150468 53
-0.797713 0.061733 -0.12137 58
-0.785322 0.199007 -0.207567 52
-0.775403 0.0593677 -0.171266 53
-2.74399 0.698999 0.644633 52
-6.91252 0.48585 1.84491 1
-2.75464 0.701729 0.443685 56
-7.15035 0.514885 1.38546 35
-2.76838 0.704736 0.246869 176
-7.23859 0.531303 0.885643 35
-2.84852 0.725708 0.0506992 1
-3.0345 0.227636 0.157662 18
-0.624413 0.158079 -0.0320313 59
-0.622517 0.0507239 -0.0102969 4
-0.784219 0.199333 -0.094923 55
-0.647705 0.0524808 -0.0537113 90
-0.785444 0.199933 -0.150468 53
-0.792679 0.0627653 -0.120587 58
-0.79199 0.202181 -0.209507 52
-0.775298 0.0607209 -0.171266 53
-2.73545 0.712604 0.64351 52
-6.91229 0.522218 1.84556 1
-2.75092 0.716143 0.443685 55
-7.14756 0.552317 1.38546 35
-2.76706 0.71985 0.247087 177
-7.24065 0.569582 0.886252 35
-2.83017 0.736827 0.0504375 1
-3.04073 0.244109 0.158055 20
-0.623549 0.161455 -0.0320313 59
-0.619752 0.0537857 -0.0102533 4
-0.787966 0.204693 -0.0955314 55
-0.644929 0.0557881 -0.0534938 90
-0.786761 0.204664 -0.150945 52
-0.789878 0.066722 -0.120196 58
-0.779242 0.203257 -0.206274 50
-0.770112 0.064404 -0.170143 52
-2.73185 0.716758 0.642949 36
-6.90896 0.534097 1.84491 1
-2.74728 0.720316 0.443295 56
-7.14648 0.566038 1.38546 35
-2.76821 0.725311 0.247304 175
-7.2347 0.581824 0.885643 35
-2.81425 0.738446 0.0501757 1
-3.03284 0.248815 0.157662 20
-0.62568 0.163178 -0.0321625 59
-0.62464 0.0552699 -0.0103405 4
-0.782809 0.204803 -0.094923 55
-0.649795 0.0573149 -0.0539288 90
-0.781657 0.204785 -0.149992 52
-0.783519 0.205989 -0.207567 50
-0.777284 0.066324 -0.171827 53
-2.73263 0.732792 0.644072 45
-6.90357 0.571272 1.84427 1
-2.73857 0.733889 0.442514 53
-7.14342 0.603449 1.38546 35
-2.76184 0.739632 0.247087 158
-7.23887 0.621591 0.886556 35
-2.79344 0.748634 0.0498702 9
-3.03891 0.265862 0.158055 18
-0.624817 0.166452 -0.0321625 59
-0.624331 0.0586487 -0.0103405 3
-0.784085 0.209681 -0.0952272 55
-0.785276 0.210289 -0.150945 52
-0.789424 0.211979 -0.209507 50
-0.774486 0.0703234 -0.171266 53
-2.73148 0.737084 0.644072 50
-6.91459 0.584329 1.8475 1
-2.74695 0.740766 0.444075 55
-7.15458 0.616962 1.38784 33
-2.76055 0.744451 0.247087 100
-7.24035 0.633175 0.88686 32
-2.78248 0.750898 0.0496957 11
-3.03849 0.270635 0.158055 17
-0.624526 0.167543 -0.0321625 59
-0.624228 0.0597383 -0.0103405 3
-0.78615 0.211561 -0.0955314 55
-0.784908 0.211659 -0.150945 52
-0.796645 0.0742554 -0.12137 58
-0.786722 0.212723 -0.20886 50
-0.771948 0.0713309 -0.170704 53
-2.72289 0.750079 0.642949 49
-2.74542 0.755795 0.444465 56
-2.75914 0.759076 0.247304 85
-2.77382 0.763643 0.0496085 12
-3.02709 0.285618 0.157531 18
-0.626047 0.171475 -0.0322938 59
-0.61894 0.0624335 -0.0102533 3
-0.78264 0.215013 -0.0952272 52
-0.644087 0.0647873 -0.0534938 90
-0.783827 0.215629 -0.150945 52
-0.793787 0.0781983 -0.120979 58
-0.780982 0.215409 -0.207567 47
-0.769138 0.0751502 -0.170143 52
-2.72392 0.755483 0.64351 50
-2.73934 0.759264 0.443685 55
-2.75302 0.762558 0.246869 67
-2.77717 0.770305 0.0496957 15
-0.623341 0.171898 -0.0321625 59
-0.626296 0.064222 -0.0103842 3
-0.779873 0.215713 -0.094923 52
-0.646452 0.0661466 -0.0537113 90
-0.783449 0.216997 -0.150945 50
-0.793649 0.0795836 -0.120979 58
-0.782892 0.217559 -0.208214 47
-0.769005 0.0764925 -0.170143 52
-2.71745 0.769545 0.642949 50
-2.74231 0.776095 0.444856 55
-2.87217 0.285974 0.553802 47
-2.75364 0.7788 0.247304 83
-2.8638 0.289156 0.348659 49
-2.76588 0.78279 0.0495648 15
-0.624834 0.175841 -0.0322938 59
-0.625939 0.0676096 -0.0103842 3
-0.781081 0.220608 -0.0952272 52
-0.641141 0.0690341 -0.0532764 90
-0.790764 0.0834937 -0.120587 58
-0.784065 0.222318 -0.20886 47
-0.771005 0.0808911 -0.170704 53
-2.71389 0.773144 0.642387 50
-2.73159 0.777692 0.443295 53
-2.86678 0.2905 0.552849 49
-2.75228 0.783605 0.247304 153
-2.86087 0.293405 0.348355 49
-2.7573 0.785558 0.0494339 23
-2.88539 0.297895 0.150204 107
-0.626927 0.177617 -0.0324251 59
-0.628307 0.0689559 -0.0104278 4
-0.778348 0.221152 -0.094923 50
-0.64102 0.070153 -0.0532764 90
-0.790617 0.0848737 -0.120587 58
-0.781355 0.223019 -0.208214 47
-0.778149 0.0828305 -0.172389 53
-2.71215 0.788024 0.642949 52
-2.72748 0.791984 0.443295 50
-2.86528 0.305006 0.552849 49
-2.74589 0.79683 0.247087 131
-2.86423 0.308904 0.348964 49
-2.76049 0.801599 0.0495648 32
-2.88379 0.312999 0.150204 100
-0.62602 0.180788 -0.0324251 59
-0.63292 0.0726681 -0.0105151 3
-0.779561 0.225919 -0.0952272 49
-0.643133 0.0736616 -0.0534938 90
-0.792617 0.0892737 -0.120979 58
-0.772859 0.0863927 -0.171266 52
-2.70857 0.791598 0.642387 52
-2.72136 0.795356 0.442514 52
-2.8623 0.309746 0.552373 50
-2.74927 0.80302 0.247522 89
-2.86615 0.314169 0.349268 61
-2.75669 0.805713 0.0495212 42
-2.88075 0.317762 0.150073 90
-0.628099 0.182582 -0.0325564 59
-0.630308 0.0735018 -0.0104714 3
-0.779166 0.22728 -0.0952272 47
-0.640527 0.0745146 -0.0532764 90
-0.79246 0.0906569 -0.120979 58
-0.772707 0.0877415 -0.171266 52
-2.70658 0.806939 0.642949 49
-2.84734 0.318265 0.757352 47
-2.71952 0.8103 0.442904 53
-2.86064 0.324729 0.552373 50
-2.7331 0.813845 0.246433 55
-2.862 0.328893 0.348964 73
-2.75483 0.820851 0.0495648 49
-2.88153 0.333123 0.150204 90
-0.622318 0.184548 -0.0322938 59
-0.645064 0.0785446 -0.0537113 90
-0.796882 0.0953623 -0.121762 58
-0.767395 0.0912413 -0.170143 52
-2.70517 0.811661 0.642949 47
-2.84198 0.322697 0.756059 49
-2.71574 0.814335 0.442514 55
-2.85513 0.329666 0.551419 50
-2.73406 0.81933 0.246651 55
-2.86143 0.333887 0.348964 76
-2.88094 0.338152 0.150204 82
-0.629167 0.187791 -0.0326876 58
-0.642452 0.0793833 -0.0534938 90
-0.791808 0.0961871 -0.120979 58
-0.772076 0.0931338 -0.171266 52
-2.70307 0.827 0.64351 47
-2.83779 0.337788 0.755413 49
-2.71602 0.830463 0.443295 56
-2.84849 0.34403 0.550466 50
-2.7272 0.833381 0.246433 55
-2.86204 0.349661 0.349268 68
-2.87907 0.353735 0.150204 90
-0.630562 0.191815 -0.0328189 58
-0.639555 0.082446 -0.0532764 90
-0.791294 0.100332 -0.120979 58
-0.773979 0.0975995 -0.171827 52
-2.70642 0.83268 0.644633 49
-2.8372 0.34274 0.755413 49
-2.70999 0.833274 0.442514 50
-2.85032 0.349296 0.550943 50
-2.72336 0.837407 0.246215 55
-2.85903 0.353856 0.348964 73
-2.87851 0.358257 0.150204 107
-0.630227 0.192915 -0.0328189 58
-0.641882 0.0838664 -0.0534938 90
-0.788666 0.101413 -0.120587 58
-0.771407 0.0985216 -0.171266 52
-2.70202 0.846839 0.644633 49
-2.83782 0.357393 0.756059 49
-2.7103 0.848931 0.443295 49
-2.84608 0.363411 0.550466 50
-2.72147 0.851925 0.246433 95
-2.85467 0.368507 0.348659 82
-2.87412 0.373006 0.150073 90
-0.629208 0.196212 -0.0328189 58
-0.648844 0.0881781 -0.0541462 90
-0.788125 0.105541 -0.120587 55
-0.768463 0.102253 -0.170704 52
-2.70519 0.853021 0.645756 52
-2.8324 0.361742 0.754767 50
-2.70881 0.85366 0.443295 47
-2.84538 0.368875 0.550466 50
-2.71998 0.856674 0.246433 106
-2.85895 0.374124 0.349268 76
-2.87594 0.378343 0.150204 58
-0.628865 0.19731 -0.0328189 58
-0.64375 0.0886672 -0.0537113 90
-0.790388 0.107233 -0.120979 58
-0.7707 0.103905 -0.171266 52
-2.70517 0.869138 0.646879 53
-2.8328 0.377376 0.755413 49
-2.70651 0.869059 0.443685 49
-2.84828 0.384416 0.551419 52
-2.71293 0.870616 0.246215 55
-2.85196 0.388925 0.348659 55
-2.86643 0.392893 0.149812 50
-0.627823 0.2006 -0.0328189 58
-0.643277 0.0920366 -0.0537113 90
-0.789796 0.111508 -0.120979 58
-0.772541 0.108396 -0.171827 52
-2.69685 0.871136 0.645195 52
-2.83213 0.38232 0.755413 50
-2.70968 0.875302 0.444465 49
-2.8476 0.389387 0.551419 52
-2.84882 0.393567 0.348355 49
-2.87069 0.398574 0.150073 50
-0.629847 0.202464 -0.0329502 58
-0.643116 0.0931592 -0.0537113 90
-0.787154 0.112552 -0.120587 56
-0.767523 0.109089 -0.170704 52
-2.6921 0.885715 0.645195 49
-2.83249 0.397475 0.756059 50
-2.70506 0.889478 0.444465 50
-2.84552 0.404291 0.551419 49
-2.85163 0.409174 0.348964 49
-2.86856 0.413599 0.150073 47
-0.63352 0.207322 -0.0332127 58
-0.642619 0.0965253 -0.0537113 90
-0.789019 0.116881 -0.120979 58
-0.769353 0.113447 -0.171266 52
-2.68839 0.889176 0.644633 47
-2.8294 0.402082 0.755413 49
-2.71304 0.896831 0.446026 56
-2.84724 0.409602 0.551896 50
-2.85099 0.413653 0.348964 49
-0.630788 0.207642 -0.0330815 58
-0.644914 0.0980028 -0.0539288 90
-0.78637 0.117907 -0.120587 56
-0.769174 0.114655 -0.171266 52
-2.67908 0.901684 0.64351 45
-2.82493 0.41605 0.754767 47
-2.70597 0.910235 0.445636 55
-2.84028 0.423293 0.550943 49
-2.84633 0.42821 0.348659 49
-2.63111 0.398059 0.137644 90
-0.632058 0.21174 -0.0332127 58
-0.639466 0.10064 -0.0534938 90
-0.785742 0.122023 -0.120587 58
-0.773383 0.119394 -0.172389 52
-2.67289 0.904794 0.642387 47
-2.82181 0.420628 0.754121 47
-2.69736 0.912579 0.444465 50
-2.83946 0.428745 0.550943 49
-2.84067 0.432438 0.348051 49
-0.624595 0.210437 -0.0328189 58
-0.636827 0.101383 -0.0532764 90
-0.785527 0.123394 -0.120587 55
-0.765946 0.119661 -0.170704 52
-2.66565 0.918447 0.641826 47
-2.81711 0.435525 0.753475 47
-2.69238 0.92716 0.444465 47
-2.83718 0.443607 0.550943 50
-2.83584 0.447419 0.347747 49
-2.82058 0.447037 0.147849 41
-0.623484 0.213704 -0.0328189 58
-0.636288 0.104716 -0.0532764 90
-0.782431 0.127124 -0.120196 55
-0.770102 0.124552 -0.171827 52
-2.6596 0.921037 0.640703 49
-2.81873 0.44081 0.754121 49
-2.68159 0.928153 0.442904 45
-2.83155 0.447799 0.54999 50
-2.83268 0.451486 0.347442 49
-2.83467 0.45381 0.148634 41
-0.627827 0.216429 -0.0330815 56
-0.636104 0.105826 -0.0532764 90
-0.779769 0.128104 -0.119804 55
-0.767498 0.125383 -0.171266 52
-2.65474 0.93495 0.640703 50
-2.81647 0.455071 0.754121 49
-2.67669 0.942181 0.442904 45
-2.82682 0.461734 0.549513 49
-2.82783 0.465913 0.347138 49
-2.84211 0.47026 0.149157 55
-0.626686 0.219713 -0.0330815 58
-0.640456 0.109962 -0.0537113 90
-0.779088 0.132185 -0.119804 55
-0.769236 0.12979 -0.171827 52
-2.64622 0.937138 0.639018 50
-2.80851 0.45883 0.752182 49
-2.67039 0.945201 0.442124 44
-2.82835 0.467556 0.54999 50
-2.81966 0.469637 0.346225 49
-1.44925 0.512589 0.0262222 4
-2.84867 0.476443 0.14955 59
-0.684404 0.118391 -0.0115186 4
-1.43399 0.508018 -0.18224 4
-0.637807 0.110672 -0.0534938 90
-0.783728 0.134349 -0.120587 55
-0.766604 0.130738 -0.171266 52
-2.64569 0.953096 0.640141 50
-2.80123 0.473222 0.75089 49
-2.65827 0.957122 0.440953 45
-2.81861 0.481132 0.54856 50
-2.81953 0.485302 0.34653 50
-1.43949 0.517626 0.0260913 4
-2.84113 0.491007 0.149288 58
-0.678826 0.121247 -0.0114313 4
-1.43823 0.518299 -0.183153 4
-0.637218 0.11401 -0.0534938 89
-0.780556 0.138172 -0.120196 55
-0.765886 0.134884 -0.171266 50
-2.64648 0.958081 0.640703 50
-2.80516 0.478915 0.752182 49
-2.66124 0.963443 0.441734 47
-2.8226 0.486877 0.549513 50
-2.82112 0.490644 0.346834 53
-1.44563 0.522694 0.0262222 4
-2.83043 0.494263 0.148765 56
-0.617704 0.22262 -0.0326876 56
-0.686002 0.123712 -0.0115622 8
-1.43499 0.519961 -0.182848 4
-0.639473 0.115547 -0.0537113 89
-0.782746 0.139954 -0.120587 55
-0.765649 0.136221 -0.171266 52
-2.64126 0.972386 0.640703 50
-2.79548 0.492352 0.750244 49
-2.6492 0.974803 0.440563 49
-2.81276 0.500372 0.548083 52
-2.81851 0.505408 0.346834 53
-1.44287 0.530256 0.0262222 4
-2.83026 0.509515 0.148896 55
-0.621214 0.227578 -0.0329502 56
-0.685345 0.127302 -0.0115622 8
-1.43923 0.530047 -0.183761 4
-0.641311 0.119331 -0.0539288 88
-0.772304 0.142186 -0.119021 55
-0.772122 0.141501 -0.17295 50
-2.63973 0.976533 0.640703 49
-2.79461 0.49723 0.750244 49
-2.64535 0.978105 0.440173 52
-2.80705 0.504421 0.54713 50
-2.81527 0.509397 0.34653 53
-1.45132 0.536247 0.0263968 4
-2.827 0.513518 0.148765 50
-0.625498 0.230398 -0.0332127 56
-0.685122 0.128498 -0.0115622 8
-1.43607 0.531443 -0.183457 4
-0.63865 0.120008 -0.0537113 85
-0.776915 0.144406 -0.119804 55
-0.99956 0.370818 -0.276109 4
-0.769501 0.142285 -0.172389 52
-2.63458 0.990341 0.640703 50
-2.79206 0.511369 0.750244 49
-2.64251 0.992813 0.440563 53
-2.80688 0.519064 0.547607 50
-2.81013 0.523681 0.346225 50
-1.44859 0.543586 0.0263968 4
-2.81691 0.526948 0.148372 49
-0.624324 0.233561 -0.0332127 58
-0.682005 0.131508 -0.0115186 8
-1.4263 0.536329 -0.182544 4
-0.640483 0.123694 -0.0539288 85
-1.29605 0.487725 -0.261891 4
-0.771292 0.147574 -0.119021 53
-1.00219 0.377581 -0.277403 4
-0.771141 0.146753 -0.17295 50
-2.63758 0.996202 0.641826 49
-2.78879 0.515806 0.749597 50
-2.64077 0.997423 0.440563 55
-2.80597 0.523962 0.547607 50
-2.80921 0.528584 0.346225 49
-1.45465 0.548766 0.0265277 4
-2.81844 0.532323 0.148503 49
-0.62625 0.235534 -0.033344 58
-0.681774 0.132698 -0.0115186 8
-1.43 0.540576 -0.183153 4
-0.637819 0.124353 -0.0537113 79
-1.30208 0.492599 -0.26332 3
-0.775888 0.149826 -0.119804 53
-0.99927 0.378471 -0.276756 4
-0.770884 0.148099 -0.17295 52
-2.6276 1.00871 0.640703 50
-2.78605 0.530401 0.749597 50
-2.63321 1.01035 0.440173 52
-2.80318 0.538647 0.547607 50
-2.80397 0.542818 0.345921 49
-1.44709 0.554582 0.0264404 4
-2.81561 0.547073 0.148503 49
-0.622678 0.237913 -0.0332127 56
-0.690888 0.13816 -0.0116931 8
-1.4202 0.545381 -0.18224 4
-0.637159 0.127691 -0.0537113 77
-1.2949 0.497644 -0.262367 3
-0.775093 0.153887 -0.119804 53
-1.00178 0.385438 -0.278049 4
-0.770098 0.152133 -0.17295 52
-2.62829 1.01371 0.641264 50
-2.78512 0.535263 0.749597 49
-2.63605 1.01672 0.440953 50
-2.79983 0.543075 0.54713 49
-2.79571 0.546296 0.345008 47
-1.44612 0.557107 0.0264404 4
-2.8122 0.55151 0.148372 50
-0.626919 0.2408 -0.0334753 58
-0.690645 0.139365 -0.0116931 8
-1.42619 0.550547 -0.183153 4
-0.63938 0.129278 -0.0539288 79
-1.29403 0.499904 -0.262367 3
-0.777247 0.15571 -0.120196 55
-1.00336 0.38806 -0.278696 4
-0.767439 0.153015 -0.172389 50
-2.62485 1.02927 0.641826 50
-2.77981 0.549859 0.748951 49
-2.62591 1.02917 0.440173 50
-2.79926 0.558692 0.547607 50
-1.49136 0.583569 0.137052 4
-2.79514 0.561899 0.345313 49
-1.44774 0.56675 0.0265277 4
-2.81162 0.567207 0.148503 52
-0.630255 0.246013 -0.0337378 58
-0.684979 0.142118 -0.0116058 4
-1.41858 0.556438 -0.182544 4
-0.636229 0.132247 -0.0537113 74
-1.29131 0.506898 -0.262367 3
-0.774 0.159294 -0.119804 53
-0.992257 0.389938 -0.276109 4
-0.76421 0.156691 -0.171827 52
-2.62096 1.0325 0.641264 50
-2.77885 0.55471 0.748951 49
-2.62888 1.0351 0.440953 50
-2.79347 0.562616 0.546653 50
-1.4857 0.584344 0.136617 8
-2.79669 0.566778 0.345617 52
-1.44907 0.570193 0.0265713 4
-2.81562 0.572609 0.148765 58
-0.62518 0.24528 -0.0334753 58
-0.68963 0.144304 -0.0116931 4
-1.42924 0.563225 -0.184065 4
-0.638438 0.13385 -0.0539288 73
-1.29042 0.509151 -0.262367 3
-0.778562 0.161619 -0.120587 55
-0.998309 0.39434 -0.278049 4
-0.768741 0.158847 -0.17295 52
-2.62005 1.04802 0.642387 50
-2.77364 0.568287 0.748305 49
-2.62343 1.04885 0.440953 50
-2.78577 0.575763 0.5457 50
-1.48042 0.590931 0.136399 4
-2.79611 0.581915 0.345921 55
-1.45081 0.579378 0.0266585 4
-2.81503 0.58785 0.148896 79
-0.623887 0.24855 -0.0334753 58
-0.683996 0.146777 -0.0116058 3
-1.42857 0.571625 -0.18437 4
-0.637729 0.137191 -0.0539288 74
-1.28555 0.514761 -0.261891 3
-0.772869 0.164694 -0.119804 52
-0.998541 0.400289 -0.278696 4
-0.763126 0.161889 -0.171827 52
-2.61821 1.05259 0.642387 50
-2.77264 0.573127 0.748305 49
-2.62388 1.05435 0.441344 50
-2.78707 0.581607 0.546177 52
-1.47476 0.591655 0.135963 8
-2.79752 0.5873 0.346225 58
-1.44042 0.578428 0.026484 4
-2.81645 0.593273 0.149027 80
-0.625768 0.250571 -0.0336066 58
-0.678846 0.146947 -0.0115186 3
-1.42297 0.572261 -0.183761 4
-0.639926 0.138814 -0.0541462 71
-1.29375 0.520678 -0.263796 3
-0.774997 0.166547 -0.120196 53
-1.00001 0.403112 -0.279342 4
-0.765228 0.163715 -0.172389 52
-2.61022 1.06582 0.641826 50
-2.77186 0.588618 0.748951 50
-2.61814 1.06853 0.441344 49
-2.78158 0.595682 0.5457 50
-1.46923 0.598684 0.135745 8
-2.79916 0.603465 0.346834 62
-1.43737 0.585962 0.026484 4
-2.81319 0.608503 0.149027 90
-0.624448 0.253844 -0.0336066 58
-0.682928 0.151668 -0.0116058 4
-1.41985 0.579952 -0.183761 4
-0.63919 0.142163 -0.0541462 70
-1.29546 0.529532 -0.264748 4
-0.769286 0.169569 -0.119413 53
-0.993417 0.406507 -0.278049 4
-0.766713 0.168361 -0.17295 52
-2.61531 1.07269 0.64351 50
-2.76374 0.591949 0.747013 49
-2.61874 1.07358 0.441734 49
-2.78534 0.601564 0.546653 52
-1.4751 0.604085 0.136399 8
-2.79578 0.607339 0.34653 61
-1.43404 0.587521 0.0264404 4
-2.80736 0.611866 0.148765 82
-0.626313 0.255883 -0.0337378 58
-0.68022 0.15233 -0.0115622 4
-1.41206 0.57935 -0.182848 4
-0.641375 0.143805 -0.0543637 68
-1.29453 0.531792 -0.264748 3
-0.773816 0.171953 -0.120196 52
-0.999403 0.411005 -0.279989 3
-0.766448 0.169565 -0.17295 50
-2.60516 1.0845 0.642387 50
-2.76307 0.606444 0.747659 50
-2.61537 1.08823 0.442124 50
-2.77746 0.614602 0.5457 50
-1.46972 0.610586 0.136181 8
-2.78772 0.620898 0.345921 56
-1.43797 0.597655 0.0265713 4
-2.80168 0.626016 0.148634 61
-0.624964 0.259158 -0.0337378 58
-0.67456 0.154687 -0.011475 3
-1.42045 0.591515 -0.18437 4
-0.635751 0.146082 -0.0539288 67
-1.28956 0.537391 -0.264272 3
-0.772905 0.176002 -0.120196 52
-0.986172 0.411394 -0.276756 3
-0.76555 0.173576 -0.17295 52
-2.61 1.09186 0.644072 50
-2.75729 0.61023 0.746366 49
-2.61346 1.09279 0.442124 49
-2.77867 0.620464 0.546177 52
-1.46865 0.61315 0.136181 8
-2.78179 0.624683 0.345313 50
-1.44143 0.602347 0.0266585 4
-2.80058 0.630905 0.148634 61
-0.624511 0.260249 -0.0337378 58
-0.679167 0.156957 -0.0115622 4
-1.40569 0.588233 -0.182544 4
-0.637925 0.147735 -0.0541462 65
-1.29541 0.542492 -0.265701 3
-0.772596 0.177351 -0.120196 52
-0.980929 0.411413 -0.275463 3
-0.767624 0.17544 -0.173512 50
-2.60181 1.10502 0.64351 50
-2.75631 0.62567 0.747013 49
-2.60978 1.10788 0.442514 49
-2.7706 0.633918 0.545224 50
-1.46073 0.61914 0.135745 8
-2.77836 0.639725 0.345313 53
-1.43595 0.608908 0.0266149 4
-2.79956 0.646606 0.148765 80
-0.625437 0.264492 -0.0338691 58
-0.680744 0.161188 -0.0116058 4
-1.41162 0.59972 -0.183761 4
-0.641998 0.152187 -0.0545811 65
-1.2902 0.54853 -0.265224 3
-0.76925 0.180844 -0.119804 52
-0.983203 0.41844 -0.276756 3
-0.769039 0.180132 -0.174073 50
-2.60231 1.11006 0.644072 50
-2.75521 0.63048 0.747013 50
-2.61031 1.11295 0.442904 50
-2.77188 0.6393 0.5457 52
-1.46652 0.624622 0.136399 4
-2.78945 0.646871 0.346834 70
-1.43719 0.612395 0.0266585 8
-2.79854 0.651003 0.148765 90
-0.624975 0.265583 -0.0338691 58
-0.685332 0.163503 -0.0116931 3
-1.40611 0.599985 -0.183153 4
-0.641731 0.153307 -0.0545811 65
-1.29601 0.553681 -0.266653 3
-0.766527 0.181631 -0.119413 50
-0.975814 0.417298 -0.274816 3
-0.76638 0.180795 -0.173512 50
-2.75198 0.644417 0.747013 49
-2.70868 1.17175 0.460855 35
-2.76622 0.652762 0.545224 52
-1.45648 0.629068 0.135745 4
-2.77878 0.65976 0.345921 71
-1.42948 0.617674 0.0265713 4
-2.78537 0.66335 0.148242 114
-0.623576 0.268852 -0.0338691 58
-0.682064 0.166394 -0.0116495 3
-1.40523 0.608327 -0.183457 4
-0.64092 0.156665 -0.0545811 64
-1.27968 0.554366 -0.263796 3
-0.770372 0.186777 -0.120196 52
-0.978118 0.424159 -0.276109 3
-0.767795 0.185362 -0.174073 49
-2.88263 1.25366 0.716509 27
-2.7485 0.648668 0.746366 49
-2.69078 1.16958 0.458123 35
-2.76735 0.658636 0.5457 52
-1.45995 0.633596 0.136181 4
-2.78004 0.665183 0.346225 76
-1.43288 0.622413 0.0266585 4
-2.78664 0.668789 0.148372 102
-0.629972 0.272931 -0.0342629 58
-1.40416 0.610778 -0.183457 4
-0.640646 0.157784 -0.0545811 62
-1.27871 0.556599 -0.263796 3
-0.767643 0.18755 -0.119804 52
-0.975089 0.425068 -0.275463 3
-0.765099 0.18614 -0.173512 50
-2.84684 1.25644 0.709209 27
-2.7473 0.664093 0.747013 45
-2.7183 1.19908 0.463977 15
-2.76625 0.673693 0.546177 52
-1.46333 0.644503 0.136835 4
-2.77157 0.679041 0.345617 71
-1.4296 0.629907 0.0266585 4
-2.79026 0.685631 0.148765 97
-0.623967 0.274208 -0.0340004 58
-1.40311 0.619371 -0.183761 4
-0.637391 0.160545 -0.0543637 64
-1.28466 0.567485 -0.265701 4
-0.766617 0.1917 -0.119804 52
-0.977265 0.432127 -0.276756 4
-0.768816 0.191425 -0.174635 50
-2.82037 1.25004 0.703032 29
-2.74379 0.66832 0.746366 33
-2.72072 1.20583 0.464757 11
-2.76507 0.67852 0.546177 52
-1.46448 0.648066 0.137052 4
-2.77279 0.684468 0.345921 59
-1.4285 0.632402 0.0266585 4
-2.78663 0.689904 0.148634 97
-0.623488 0.275297 -0.0340004 56
-1.39976 0.62081 -0.183457 4
-0.639528 0.162252 -0.0545811 62
-1.2747 0.565735 -0.263796 4
-0.766281 0.193038 -0.119804 50
-0.974303 0.432849 -0.276109 3
-0.766114 0.192189 -0.174073 50
-2.76469 1.24328 0.690679 24
-2.7426 0.683256 0.747013 49
-2.72112 1.2231 0.465928 12
-2.7591 0.692395 0.5457 52
-1.4588 0.654703 0.136835 4
-2.76917 0.698977 0.345921 73
-1.42972 0.641924 0.0267458 8
-2.78056 0.703877 0.148503 103
-0.619761 0.277532 -0.0338691 58
-1.40327 0.631191 -0.18437 4
-0.63867 0.165599 -0.0545811 62
-1.27395 0.573411 -0.264272 3
-0.765294 0.196914 -0.119804 50
-0.976425 0.439934 -0.277403 3
-0.772188 0.197969 -0.175758 50
-2.74054 1.23758 0.685063 53
-2.7414 0.688042 0.747013 47
-2.73045 1.23246 0.467879 17
-2.76027 0.697807 0.546177 52
-1.46446 0.660326 0.137488 4
-2.76807 0.703326 0.345921 76
-1.43088 0.645448 0.0267894 4
-2.77703 0.707631 0.148372 109
-0.623825 0.280672 -0.0341317 58
-1.40454 0.634418 -0.184674 4
-0.63838 0.166713 -0.0545811 59
-1.27742 0.57766 -0.265224 3
-0.764949 0.198249 -0.119804 50
-0.962463 0.435645 -0.273523 4
-0.769513 0.198588 -0.175197 50
-2.73624 1.25293 0.685625 47
-2.73554 0.701313 0.746366 44
-2.72845 1.24879 0.468659 52
-2.75195 0.71055 0.545224 52
-1.4611 0.667729 0.137488 4
-2.76435 0.71781 0.345921 83
-1.42759 0.652682 0.0267894 4
-2.77812 0.723412 0.148634 103
-0.624616 0.284975 -0.0342629 56
-1.4012 0.641763 -0.184674 4
-0.64232 0.171302 -0.055016 58
-1.26779 0.581044 -0.263796 4
-0.766292 0.202869 -0.120196 50
-0.966826 0.443541 -0.275463 3
-0.763744 0.201401 -0.174073 50
-2.70528 1.24445 0.678325 29
-2.73666 0.706686 0.747013 42
-2.70832 1.24529 0.465537 32
-2.7482 0.715218 0.544747 50
-1.45767 0.669237 0.13727 4
-2.76309 0.722633 0.345921 83
-1.4218 0.653331 0.0267022 4
-2.76961 0.726372 0.148242 110
-0.62185 0.28502 -0.0341317 58
-1.40909 0.648365 -0.185891 4
-0.634791 0.170537 -0.0543637 58
-1.28014 0.589428 -0.266653 3
-0.770716 0.205449 -0.120979 50
-0.96159 0.443368 -0.274169 3
-0.76575 0.203344 -0.174635 49
-2.67202 1.2467 0.671587 27
-2.73046 0.72087 0.746366 45
-2.68364 1.25157 0.462416 29
-2.74916 0.730851 0.5457 52
-1.45177 0.676061 0.137052 4
-2.76394 0.738846 0.34653 73
-1.42062 0.661824 0.0267458 4
-2.77046 0.742631 0.148503 121
-0.624873 0.290385 -0.0343942 58
-1.4123 0.659134 -0.186804 4
-0.638702 0.175141 -0.0547986 58
-1.27249 0.594264 -0.265701 4
-0.767243 0.208848 -0.120587 49
-0.957069 0.447371 -0.273523 4
-0.762284 0.206861 -0.174073 49
-2.65242 1.24262 0.667094 52
-2.72919 0.725635 0.746366 49
-2.65037 1.24111 0.456953 32
-2.74551 0.735017 0.545224 50
-1.44608 0.676479 0.136617 4
-2.75798 0.741906 0.345921 56
-1.41946 0.664302 0.0267458 8
-2.76206 0.745043 0.148111 106
-0.622105 0.290415 -0.0342629 58
-1.41127 0.661351 -0.186804 4
-0.633585 0.174965 -0.0543637 56
-1.27589 0.598573 -0.266653 4
-0.956287 0.449041 -0.273523 4
-0.764312 0.208685 -0.174635 49
-2.65467 1.26067 0.669341 59
-2.72549 0.739439 0.746366 44
-2.64607 1.25603 0.457343 58
-2.74176 0.748904 0.545224 50
-1.44939 0.686996 0.13727 4
-2.75166 0.755683 0.345617 53
-1.41834 0.672551 0.0267894 8
-2.77257 0.763448 0.148896 89
-0.622831 0.294741 -0.0343942 58
-1.41002 0.669798 -0.187108 4
-0.637464 0.179596 -0.0547986 56
-1.27063 0.603968 -0.266177 3
-0.956181 0.454916 -0.274169 3
-0.765559 0.213324 -0.175197 50
-2.65906 1.26846 0.671025 59
-2.72419 0.744195 0.746366 47
-2.64833 1.26277 0.458123 58
-2.74268 0.754813 0.5457 52
-1.44594 0.688452 0.137052 4
-2.75513 0.761799 0.346225 65
-1.41254 0.673118 0.0267022 4
-2.76882 0.767623 0.148765 68
-0.622315 0.295827 -0.0343942 58
-1.40662 0.671187 -0.186804 4
-0.63715 0.180708 -0.0547986 56
-1.26736 0.605125 -0.265701 3
-0.955306 0.45675 -0.274169 4
-0.762836 0.214016 -0.174635 50
-2.65874 1.28601 0.67271 61
-2.71547 0.757633 0.745074 49
-2.64368 1.27816 0.458513 59
-2.73633 0.768504 0.545224 49
-1.44219 0.696265 0.137052 4
-2.75097 0.776695 0.346225 88
-1.41124 0.681594 0.0267458 4
-2.76223 0.781916 0.148634 61
-0.618511 0.297993 -0.0342629 56
-1.3985 0.676623 -0.186195 4
-0.640989 0.185391 -0.0552335 56
-1.25524 0.607687 -0.263796 3
-0.959417 0.464914 -0.276109 4
-0.761667 0.21814 -0.174635 45
-2.65891 1.29125 0.673271 62
-2.71182 0.761722 0.744428 49
-2.65033 1.28709 0.460074 61
-2.73498 0.773279 0.545224 50
-1.43874 0.697692 0.136835 4
-2.75199 0.782169 0.34653 62
-1.40331 0.680777 0.0266149 4
-2.76566 0.788096 0.148896 77
-0.620235 0.300165 -0.0343942 58
-1.40401 0.682322 -0.187108 4
-0.63108 0.183794 -0.0543637 55
-1.263 0.614178 -0.265701 3
-0.962944 0.468707 -0.277403 4
-2.65407 1.30669 0.673833 71
-2.71011 0.776572 0.745074 49
-2.64798 1.30313 0.460855 68
-2.72146 0.784884 0.543317 45
-1.43953 0.707417 0.13727 4
-2.73832 0.79382 0.345313 53
-1.40421 0.690325 0.0267022 4
-2.76389 0.803259 0.149027 96
-0.623134 0.305616 -0.0346568 58
-1.39597 0.687468 -0.186499 4
-0.630109 0.187096 -0.0543637 55
-1.25317 0.617522 -0.264272 4
-0.956148 0.471601 -0.276109 4
-2.65856 1.3141 0.675517 82
-2.70876 0.781301 0.745074 47
-2.65257 1.31058 0.462025 77
-2.73187 0.793034 0.5457 52
-1.44053 0.711032 0.137488 4
-2.73469 0.79743 0.345008 49
-1.39628 0.689449 0.0265713 4
-2.76263 0.807599 0.149027 90
-0.620362 0.305595 -0.0345255 58
-1.39488 0.68966 -0.186499 4
-0.634564 0.189586 -0.0547986 55
-1.25428 0.620799 -0.264748 4
-0.955323 0.473269 -0.276109 4
-2.64947 1.32691 0.674956 86
-2.7094 0.796355 0.746366 47
-2.65009 1.32666 0.462806 88
-2.72783 0.806851 0.5457 52
-1.43023 0.714968 0.136835 4
-2.73286 0.812441 0.345313 49
-1.40618 0.703227 0.0268331 4
-2.75118 0.819926 0.148634 61
-0.621039 0.30985 -0.0346568 56
-1.38682 0.694727 -0.185891 4
-0.633597 0.192796 -0.0547986 55
-1.24455 0.623834 -0.26332 4
-0.950758 0.477012 -0.275463 4
-2.62562 1.32012 0.669341 38
-2.70569 0.800402 0.74572 45
-2.62792 1.32129 0.459294 47
-2.72406 0.810914 0.545224 52
-1.43343 0.719702 0.13727 4
-2.7243 0.815087 0.3444 49
-1.40942 0.707928 0.0269203 4
-2.74257 0.822587 0.148242 49
-0.622727 0.312056 -0.034788 58
-1.39003 0.699381 -0.186499 4
-0.633259 0.193901 -0.0547986 55
-1.25003 0.629322 -0.264748 4
-0.954234 0.48085 -0.276756 4
-2.59674 1.32323 0.663725 33
-2.69915 0.813864 0.745074 45
-2.59896 1.32381 0.455392 35
-2.71743 0.824458 0.544747 49
-1.42964 0.727197 0.13727 4
-2.72949 0.832219 0.345617 55
-1.39678 0.710756 0.0267458 4
-0.621029 0.315421 -0.034788 56
-1.38856 0.707778 -0.186804 4
-0.632201 0.197325 -0.0547986 55
-1.24016 0.632507 -0.26332 3
-2.01648 0.616922 -0.328874 12
-0.956003 0.488041 -0.278049 4
-2.57708 1.31888 0.659233 33
-2.70466 0.820666 0.747013 49
-2.57907 1.31934 0.45227 33
-2.71584 0.829673 0.544747 49
-1.4328 0.731961 0.137706 4
-2.72091 0.83481 0.344704 90
-1.40654 0.719135 0.026964 8
-0.620478 0.316504 -0.034788 56
-1.38291 0.707935 -0.186195 4
-0.636618 0.199886 -0.0552335 53
-1.24124 0.635791 -0.263796 3
-2.00595 0.617556 -0.327308 12
-0.950769 0.487666 -0.276756 4
-2.54829 1.32158 0.653618 33
-2.7048 0.836707 0.748305 49
-2.55217 1.32304 0.448758 32
-2.71849 0.846058 0.546177 47
-1.4244 0.737409 0.13727 4
-2.71873 0.850256 0.345008 50
-1.39832 0.724187 0.0268767 8
-0.618812 0.319749 -0.034788 58
-1.37906 0.715407 -0.186195 4
-0.62843 0.200992 -0.0545811 53
-1.23996 0.643631 -0.264272 3
-1.99798 0.626584 -0.326525 12
-0.952486 0.49487 -0.278049 4
-2.52677 1.31544 0.648564 33
-2.70103 0.840712 0.747659 50
-2.53037 1.31678 0.445246 32
-2.71935 0.851531 0.546653 47
-1.43195 0.744497 0.138142 4
-2.71976 0.855266 0.345313 49
-1.39705 0.726627 0.0268767 4
-0.616039 0.319674 -0.0346568 56
-1.37353 0.715276 -0.185587 4
-0.632831 0.20358 -0.055016 53
-1.23013 0.641247 -0.262367 3
-1.98981 0.627857 -0.325351 12
-0.95376 0.497652 -0.278696 4
-2.50261 1.31956 0.644072 33
-2.69443 0.853647 0.747013 49
-2.50379 1.31964 0.441734 33
-2.71267 0.864542 0.546177 49
-1.42596 0.750573 0.137924 4
-2.71288 0.868742 0.345008 47
-1.38672 0.730189 0.0267458 4
-0.616565 0.324061 -0.034788 56
-1.37196 0.723618 -0.185891 4
-0.631756 0.20689 -0.055016 50
-1.22687 0.647465 -0.262367 3
-1.97709 0.635267 -0.323785 12
-0.953363 0.503603 -0.279342 4
-2.48308 1.31479 0.63958 35
-2.69524 0.859078 0.747659 47
-2.48403 1.31475 0.438612 33
-2.71802 0.871986 0.547607 50
-2.71372 0.874233 0.345313 47
-1.38753 0.73402 0.0267894 4
-0.613793 0.323967 -0.0346568 56
-1.37947 0.730665 -0.187108 4
-0.631394 0.207993 -0.055016 50
-1.2214 0.647303 -0.261415 4
-1.97598 0.638717 -0.323785 14
-0.948131 0.503163 -0.278049 4
-2.45447 1.31668 0.633964 35
-2.68596 0.872164 0.746366 45
-2.45947 1.31883 0.43549 33
-2.70875 0.88469 0.546653 52
-2.71367 0.890442 0.345921 47
-1.38146 0.740093 0.0267458 4
-0.616487 0.329539 -0.0349193 56
-1.37112 0.735767 -0.186499 4
-0.630297 0.211296 -0.055016 39
-1.22221 0.656228 -0.262367 4
-1.96087 0.645223 -0.321827 14
-0.953986 0.512704 -0.280636 4
-2.43524 1.31129 0.629472 35
-2.68214 0.876105 0.74572 45
-2.44218 1.31449 0.432759 33
-2.70953 0.890178 0.54713 50
-2.71462 0.895477 0.346225 47
-1.38237 0.743689 0.0267894 4
-0.618108 0.3318 -0.0350506 56
-1.36996 0.73792 -0.186499 4
-0.627561 0.211617 -0.0547986 35
-1.21026 0.652525 -0.259987 3
-1.95974 0.648645 -0.321827 14
-0.948843 0.512069 -0.279342 4
-2.41124 1.31468 0.62498 36
-2.67308 0.888154 0.744428 45
-2.41576 1.31661 0.429247 35
-2.70266 0.903107 0.546653 49
-2.70754 0.908893 0.345921 49
-1.37859 0.750676 0.0267894 4
-0.616362 0.335031 -0.0350506 56
-1.37044 0.747464 -0.187108 4
-0.628806 0.215691 -0.055016 29
-1.20479 0.657465 -0.25951 3
-1.95397 0.658114 -0.321436 14
-0.948356 0.518026 -0.279989 4
-2.39612 1.31186 0.621611 36
-2.66694 0.891295 0.743135 45
-2.39613 1.31134 0.426125 35
-2.69627 0.906737 0.5457 45
-2.71301 0.915986 0.346834 90
-1.37934 0.754523 0.0268331 4
-0.615777 0.336107 -0.0350506 56
-1.36913 0.749854 -0.187108 4
-0.623708 0.215198 -0.0545811 24
-1.19934 0.657203 -0.258558 3
-1.94112 0.65759 -0.319478 12
-0.941013 0.516352 -0.278049 4
-2.36982 1.31416 0.616557 36
-2.66208 0.905712 0.743135 49
-2.36957 1.3135 0.422613 35
-2.68451 0.918471 0.544271 45
-2.70097 0.928244 0.345921 49
-1.37537 0.761735 0.0268331 4
-0.616191 0.340538 -0.0351819 56
-1.36072 0.75484 -0.186499 4
-0.627285 0.220076 -0.055016 29
-1.19791 0.664876 -0.259034 3
-1.93531 0.666945 -0.319086 12
-0.950954 0.528325 -0.281929 4
-2.34648 1.30603 0.610942 35
-2.65821 0.909579 0.742489 49
-2.35672 1.31121 0.420662 35
-2.68291 0.923155 0.544271 44
-2.69951 0.932485 0.345921 47
-1.37622 0.765351 0.0268767 4
-0.617776 0.342829 -0.0353131 56
-1.42538 0.496685 -0.0257423 4
-1.36386 0.759394 -0.187108 4
-0.624546 0.220358 -0.0547986 29
-1.19461 0.665769 -0.258558 4
-1.93181 0.669519 -0.318695 12
-0.947923 0.528805 -0.281282 4
-2.33112 1.31351 0.608696 38
-2.65357 0.923021 0.742489 49
-2.32831 1.3114 0.416759 35
-2.67588 0.935916 0.543794 45
-2.69225 0.945789 0.345617 42
-1.3745 0.773535 0.0269203 8
-0.615973 0.346059 -0.0353131 56
-1.42756 0.505547 -0.0258296 4
-1.35987 0.766525 -0.187108 4
-0.623383 0.223625 -0.0547986 49
-1.1955 0.674222 -0.25951 3
-1.92129 0.677179 -0.31752 12
-0.945234 0.533596 -0.281282 4
-2.31186 1.30797 0.604203 38
-2.65196 0.927651 0.742489 49
-2.31527 1.30938 0.414808 35
-2.66945 0.93943 0.542841 45
-2.68591 0.948841 0.345008 44
-0.615368 0.347133 -0.0353131 55
-1.43139 0.5097 -0.0259168 4
-1.35853 0.768897 -0.187108 4
-0.625341 0.225541 -0.055016 52
-1.19432 0.676308 -0.25951 3
-1.9201 0.680531 -0.31752 12
-0.946307 0.536604 -0.281929 4
-2.28996 1.31197 0.600273 36
-2.64462 0.94118 0.741843 47
-2.29102 1.31206 0.411687 35
-2.66218 0.952572 0.542364 45
-2.67606 0.961689 0.3444 42
-0.613542 0.350351 -0.0353131 53
-1.43332 0.519125 -0.0260041 4
-1.35865 0.778708 -0.187716 4
-0.624151 0.228812 -0.055016 52
-1.19064 0.68276 -0.25951 4
-1.90954 0.688081 -0.316346 12
-0.935113 0.536732 -0.279342 4
-1.06812 0.386135 -0.25381 3
-2.27312 1.30706 0.596342 36
-2.64525 0.946604 0.742489 47
-2.27183 1.3058 0.408565 36
-2.66514 0.95887 0.543317 49
-2.66755 0.963374 0.343487 42
-1.46621 0.532952 0.0799432 4
-0.615093 0.352667 -0.0354444 53
-1.42536 0.519082 -0.0258732 4
-0.626094 0.230746 -0.0552335 50
-1.17882 0.678703 -0.25713 3
-1.91066 0.692248 -0.316737 12
-0.938356 0.54078 -0.280636 4
-1.06293 0.386168 -0.252687 4
-2.25151 1.31036 0.592411 36
-2.64043 0.959981 0.742489 49
-2.25003 1.30898 0.405833 36
-2.65794 0.971509 0.542841 50
-2.24341 1.30462 0.22399 35
-2.6578 0.975626 0.342879 39
-1.45871 0.538905 0.0796815 4
-0.611081 0.354625 -0.0353131 53
-1.43445 0.530589 -0.0260913 4
-0.622539 0.233164 -0.055016 47
-1.17961 0.687136 -0.258082 3
-1.90005 0.699699 -0.315563 12
-0.931438 0.543084 -0.279342 4
-1.07005 0.395064 -0.254933 3
-2.2324 1.30444 0.587919 36
-2.63875 0.964588 0.742489 47
-2.22855 1.30169 0.402321 36
-2.65607 0.97661 0.542841 49
-2.23468 1.30476 0.223337 35
-2.65144 0.978553 0.34227 39
-1.46245 0.543175 0.0799432 4
-0.614771 0.358213 -0.0355757 53
-1.42648 0.5305 -0.0259605 4
-0.624468 0.235111 -0.0552335 47
-1.17205 0.68547 -0.256653 3
-1.90114 0.703866 -0.315954 12
-0.934558 0.547318 -0.280636 4
-1.06936 0.396931 -0.254933 3
-2.21064 1.30781 0.583988 36
-2.63802 0.980526 0.743782 47
-2.20873 1.30618 0.39998 36
-2.65552 0.992214 0.543794 49
-2.2083 1.30542 0.221376 35
-2.63913 0.990281 0.341358 38
-1.46884 0.554578 0.0804665 4
-0.617182 0.363972 -0.0358382 50
-1.42593 0.539087 -0.0260041 4
-0.620896 0.237505 -0.055016 47
-1.17044 0.693054 -0.25713 3
-1.89037 0.711549 -0.31478 12
-0.931679 0.552203 -0.280636 4
-1.07176 0.404412 -0.256056 4
-2.19602 1.30381 0.580619 35
-2.6363 0.985128 0.743782 47
-2.19371 1.30246 0.397638 35
-2.65379 0.996847 0.543794 49
-2.19103 1.30036 0.21985 36
-2.61881 0.98791 0.338924 35
-1.45853 0.553626 0.0799432 4
-0.620838 0.367601 -0.0361008 47
-1.42733 0.542455 -0.0260477 4
-0.622811 0.239465 -0.0552335 45
-1.16501 0.692583 -0.256177 3
-1.88681 0.713979 -0.314388 12
-0.932788 0.555066 -0.281282 4
-1.06877 0.405428 -0.255495 3
-2.17037 1.30399 0.575566 35
-2.62902 0.997606 0.743135 49
-2.17228 1.30464 0.394907 36
-2.64641 1.0094 0.543317 49
-2.16948 1.30245 0.218325 38
-2.60218 0.996735 0.337402 38
-1.46504 0.564563 0.0804665 4
-0.621044 0.372134 -0.0362321 42
-1.4269 0.550565 -0.0260913 4
-0.619222 0.241833 -0.055016 45
-1.16149 0.698471 -0.256177 3
-1.88548 0.7244 -0.31478 12
-0.91963 0.55354 -0.278049 4
-1.06898 0.411698 -0.256056 3
-2.15349 1.29896 0.571635 36
-2.62954 1.00305 0.743782 47
-2.1552 1.29949 0.392175 36
-2.64447 1.01447 0.543317 49
-2.15654 1.2998 0.217236 38
-2.58885 0.996837 0.335881 36
-1.46172 0.566225 0.0803357 4
-0.62253 0.374508 -0.0363633 38
-1.4306 0.554848 -0.0261786 4
-0.618799 0.242914 -0.055016 44
-1.14977 0.694144 -0.253796 3
-1.88191 0.726806 -0.314388 12
-0.92476 0.559061 -0.279989 4
-1.06371 0.411823 -0.254933 4
-2.13812 1.30551 0.569389 36
-2.62182 1.01639 0.743135 49
-2.13128 1.30083 0.389054 36
-2.63912 1.02831 0.543317 49
-2.13248 1.30107 0.215493 38
-2.57417 1.00723 0.334664 33
-1.46096 0.575032 0.0804665 4
-1.42758 0.56258 -0.0261786 4
-0.622159 0.247962 -0.0554509 44
-1.14809 0.701637 -0.254273 3
-1.87808 0.736649 -0.314388 12
-0.92182 0.563895 -0.279989 4
-1.06374 0.418454 -0.255495 3
-2.1153 1.29613 0.563773 36
-2.62004 1.02097 0.743135 47
-2.11871 1.29772 0.387102 36
-2.63732 1.03291 0.543317 47
-2.11959 1.29828 0.214403 39
-2.56797 1.00946 0.334056 26
-1.45773 0.576416 0.0803357 4
-1.4266 0.565071 -0.0261786 4
-0.626363 0.250866 -0.0558859 42
-1.14477 0.702354 -0.253796 3
-1.87679 0.739926 -0.314388 12
-0.92906 0.570569 -0.282576 4
-1.054 0.416582 -0.253249 3
-2.10021 1.30205 0.561527 38
-2.62158 1.03687 0.745074 49
-2.0972 1.29969 0.384371 36
-2.63663 1.04805 0.544271 49
-2.09817 1.2998 0.212878 39
-2.56726 1.02473 0.334664 23
-1.45701 0.584963 0.0804665 4
-1.43301 0.575984 -0.0263531 4
-0.620457 0.252191 -0.0554509 39
-1.1412 0.708139 -0.253796 4
-1.87518 0.750655 -0.31478 12
-0.92411 0.573987 -0.281929 4
-1.05407 0.422993 -0.25381 3
-2.08369 1.29633 0.557597 38
-2.61977 1.04144 0.745074 47
-2.08445 1.29682 0.38242 38
-2.63251 1.05175 0.543794 49
-2.08533 1.29688 0.211788 39
-2.56316 1.02829 0.33436 23
-1.6874 1.0495 0.0340758 12
-1.45599 0.587505 0.0804665 4
-1.42736 0.576626 -0.0262659 4
-0.629265 0.256974 -0.0563208 36
-1.13372 0.70623 -0.252368 3
-0.929249 0.57944 -0.283869 3
-1.05107 0.42393 -0.253249 3
-2.06428 1.29979 0.554227 38
-2.61428 1.05515 0.745074 49
-2.063 1.2985 0.379688 38
-2.63152 1.06735 0.544747 50
-2.06376 1.29849 0.210263 38
-2.56004 1.04262 0.334664 21
-1.67554 1.05432 0.0339449 12
-1.44826 0.593242 0.0802048 4
-1.42895 0.585975 -0.0263531 4
-1.12378 0.708224 -0.250939 3
-0.922121 0.581716 -0.282576 3
-1.05787 0.433081 -0.255495 4
-2.05171 1.29687 0.55142 36
-2.61691 1.06151 0.746366 49
-2.05239 1.29681 0.378127 38
-2.63174 1.07333 0.545224 49
-2.04886 1.2941 0.208956 38
-2.56281 1.04896 0.335273 21
-1.6714 1.0562 0.0339013 12
-1.44954 0.596712 0.0803357 4
-1.42561 0.587522 -0.0263095 4
-1.12047 0.70887 -0.250463 3
-0.923041 0.58478 -0.283222 3
-1.05711 0.434927 -0.255495 3
-2.02826 1.29745 0.546928 38
-2.61113 1.07566 0.746366 49
-2.0287 1.29725 0.375005 38
-2.62155 1.08522 0.544271 49
-2.02715 1.29577 0.207431 39
-1.65953 1.0609 0.0337704 11
-1.44629 0.604546 0.0803357 4
-1.42703 0.597143 -0.0263968 4
-1.10836 0.70962 -0.248559 3
-0.915903 0.586994 -0.281929 3
-1.05925 0.442499 -0.256618 3
-2.01392 1.29273 0.543558 36
-2.61148 1.08113 0.747013 49
-2.0142 1.29242 0.372664 39
-2.62192 1.09073 0.544747 49
-2.01441 1.29257 0.206341 41
-1.65558 1.06244 0.0337268 12
-1.44303 0.605858 0.0802048 4
-1.41906 0.596747 -0.0262659 4
-1.10506 0.710225 -0.248082 4
-0.920965 0.592519 -0.283869 3
-1.05405 0.442296 -0.255495 4
-1.99283 1.29396 0.539628 38
-2.60598 1.09434 0.747013 47
-1.99705 1.29622 0.370713 39
-2.62315 1.10684 0.546177 50
-1.9974 1.29597 0.205252 41
-1.64808 1.06944 0.0336831 12
-1.44904 0.617291 0.0807282 4
-1.41602 0.603922 -0.0262659 4
-1.09322 0.710451 -0.246178 4
-1.48825 0.633279 -0.250962 9
-0.913909 0.594534 -0.282576 4
-1.05172 0.447809 -0.255495 3
-1.9824 1.29211 0.537382 38
-2.60184 1.09795 0.746366 49
-1.98238 1.29161 0.368372 39
-2.61876 1.11092 0.5457 50
-1.9847 1.29265 0.204162 41
-1.64812 1.07397 0.0337268 12
-1.44336 0.617869 0.0804665 4
-1.41727 0.60737 -0.0263095 4
-1.09403 0.713701 -0.246654 4
-1.47123 0.629128 -0.248222 8
-0.914786 0.597611 -0.283222 3
-1.0442 0.446798 -0.25381 3
-1.96725 1.29745 0.535136 39
-2.6003 1.1139 0.747659 49
-1.96712 1.29688 0.366811 38
-2.61967 1.12752 0.54713 44
-1.96728 1.29651 0.203073 41
-1.64873 1.08672 0.0338577 12
-1.45146 0.630608 0.0811207 4
-1.41167 0.614039 -0.0262659 4
-1.08197 0.714192 -0.244749 4
-0.909631 0.601058 -0.282576 3
-1.03953 0.45148 -0.253249 3
-1.94897 1.28977 0.530643 38
-2.60945 1.1232 0.75089 42
-1.95067 1.29042 0.364079 39
-2.89497 1.25144 0.605751 26
-1.95256 1.29169 0.201766 42
-2.78403 1.20768 0.367826 14
-1.44818 0.631896 0.0809899 4
-1.41289 0.617496 -0.0263095 4
-1.07254 0.710649 -0.242845 4
-0.914613 0.606658 -0.284516 3
-1.03659 0.452148 -0.252687 3
-1.93409 1.29453 0.528397 39
-2.8784 1.2557 0.831019 26
-1.93362 1.29374 0.362128 39
-2.8706 1.25822 0.601938 26
-1.93565 1.29463 0.200676 42
-2.79131 1.22822 0.369652 14
-1.44257 0.638466 0.0808591 4
-1.40517 0.622628 -0.0262222 4
-1.93171 1.29442 -0.280814 41
-1.06893 0.716068 -0.242845 4
-1.46795 0.649038 -0.249005 4
-0.915539 0.613974 -0.285809 3
-1.04313 0.461474 -0.254933 3
-1.9197 1.28975 0.525028 39
-2.84965 1.24913 0.823265 26
-1.92112 1.29023 0.360177 39
-2.83896 1.25091 0.595743 26
-1.92512 1.29245 0.199805 42
-2.76645 1.22309 0.36661 27
-1.4483 0.644006 0.0812516 4
-1.40865 0.627099 -0.0263095 4
-1.92533 1.29502 -0.280205 42
-1.06768 0.717933 -0.242845 4
-1.4623 0.649608 -0.248222 4
-0.922364 0.621137 -0.288395 3
-1.03786 0.461334 -0.25381 3
-1.90263 1.29326 0.52222 39
-2.81635 1.2528 0.81551 26
