# .PCD v0.7 - Point Cloud Data file format
VERSION 0.7
FIELDS x y z intensity
SIZE 4 4 4 4
TYPE F F F F
COUNT 1 1 1 1
WIDTH 1535
HEIGHT 1
VIEWPOINT 0 0 0 1 0 0 0
POINTS 1535
DATA ascii
-1.59252 -1.35957 -0.326525 12
-0.854524 -0.502386 -0.256064 42
-1.27832 -1.09234 -0.379592 14
-7.29351 -4.24145 1.93671 29
-6.42566 -5.48547 2.25138 9
-7.30222 -4.2482 1.32949 33
-6.60806 -5.62152 1.67809 3
-7.4003 -4.30695 0.746053 33
-6.59638 -5.59576 1.05632 2
-3.16916 -1.84461 0.0633959 32
-0.705161 -0.411357 -0.0410893 45
-2.57148 -2.17297 -0.0581601 35
-0.847129 -0.493463 -0.115916 41
-2.57554 -2.17639 -0.291389 30
-0.84683 -0.492901 -0.183324 41
-1.60338 -1.3544 -0.327308 12
-0.846607 -0.492003 -0.252831 41
-1.28774 -1.08879 -0.380715 14
-7.29036 -4.22261 1.9339 29
-6.45728 -5.49304 2.25913 9
-7.29039 -4.22431 1.32598 33
-6.58141 -5.57707 1.66856 2
-7.39057 -4.28404 0.74431 33
-6.54553 -5.53295 1.04659 2
-3.16836 -1.83602 0.0633086 32
-0.703717 -0.408875 -0.040958 44
-2.58673 -2.17815 -0.0584219 35
-0.843692 -0.489499 -0.115307 39
-2.58504 -2.17672 -0.292042 23
-0.845564 -0.490195 -0.182848 41
-1.5982 -1.34523 -0.325742 12
-0.851735 -0.492789 -0.254124 42
-1.29521 -1.09127 -0.3824 14
-7.29407 -4.17222 1.92885 27
-6.51462 -5.48136 2.26882 9
-7.29599 -4.17499 1.32286 32
-6.58233 -5.51887 1.66141 2
-7.39419 -4.23286 0.742349 32
-6.65719 -5.56594 1.05967 8
-3.16709 -1.8132 0.0630904 32
-0.701514 -0.402707 -0.0406954 45
-2.60615 -2.17054 -0.0585965 35
-0.844174 -0.483697 -0.115003 39
-2.60787 -2.17273 -0.293346 27
-0.852467 -0.488045 -0.1838 41
-1.59954 -1.33209 -0.324568 12
-0.850107 -0.485932 -0.252831 42
-1.3011 -1.08424 -0.3824 14
-7.28368 -4.15111 1.92435 27
-6.55192 -5.49327 2.27852 9
-7.28538 -4.15375 1.31974 32
-6.66725 -5.57035 1.68047 9
-7.38642 -4.21132 0.740824 33
-6.47158 -5.39332 1.02864 1
-3.1659 -1.8052 0.0630032 33
-0.702216 -0.401482 -0.0406954 45
-2.62338 -2.17718 -0.0589019 33
-0.838462 -0.478689 -0.11409 39
-2.6174 -2.17296 -0.293999 27
-0.84905 -0.484131 -0.182848 41
-1.59238 -1.32139 -0.32261 12
-0.850953 -0.484448 -0.252831 42
-1.30654 -1.08532 -0.383523 14
-7.27984 -4.09858 1.91762 23
-6.60379 -5.4801 2.28692 9
-7.28336 -4.10222 1.31545 33
-6.71615 -5.55375 1.68571 14
-7.39245 -4.16532 0.739299 32
-6.69875 -5.52365 1.06028 14
-3.16411 -1.78302 0.062785 33
-0.69778 -0.394127 -0.0403016 45
-2.64595 -2.17341 -0.0591637 35
-0.840957 -0.474292 -0.11409 41
-2.64412 -2.17189 -0.295738 33
-0.840791 -0.473819 -0.180467 41
-1.59737 -1.31146 -0.322219 12
-0.851288 -0.478953 -0.252184 42
-1.32534 -1.08933 -0.387454 12
-7.26786 -4.07515 1.91256 21
-6.64497 -5.49475 2.2979 9
-7.28404 -4.08588 1.31428 33
-6.65106 -5.47839 1.66665 12
-7.3845 -4.14388 0.737773 33
-6.67963 -5.48831 1.05571 14
-3.16316 -1.7745 0.0626978 33
-0.698467 -0.392909 -0.0403016 47
-2.6536 -2.17196 -0.0592509 33
-0.841784 -0.472823 -0.11409 41
-2.65753 -2.17517 -0.296826 33
-0.843758 -0.473549 -0.180943 41
-1.59203 -1.3024 -0.320653 12
-0.854315 -0.478495 -0.252831 44
-1.32724 -1.08702 -0.387454 12
-7.26422 -4.02161 1.90582 18
-6.69702 -5.47708 2.30566 9
-7.28876 -4.03684 1.31115 33
-6.66064 -5.42798 1.66188 11
-7.38285 -4.0906 0.735377 32
-6.67458 -5.4239 1.05024 12
-3.15929 -1.75065 0.062436 33
-0.698331 -0.388037 -0.0401703 47
-2.68084 -2.17017 -0.0596 33
-0.846501 -0.469462 -0.114394 42
-2.68242 -2.17222 -0.298348 33
-0.848457 -0.470163 -0.181419 42
-1.59882 -1.29404 -0.320653 12
-0.856808 -0.474015 -0.252831 44
-1.34444 -1.08905 -0.390823 12
-7.24493 -3.99608 1.89909 15
-6.73651 -5.48981 2.316 9
-7.28212 -4.01823 1.30881 33
-6.63392 -5.38693 1.65283 11
-7.38343 -4.0741 0.734723 33
-6.63684 -5.3759 1.04294 12
-3.15796 -1.74272 0.0623487 33
-0.701193 -0.388023 -0.0403016 47
-2.69045 -2.17021 -0.0597309 32
-0.849411 -0.469329 -0.114699 42
-2.69202 -2.17223 -0.299 33
-0.842824 -0.465133 -0.179991 41
-1.58957 -1.28192 -0.318303 12
-0.853401 -0.470195 -0.251538 44
-1.34804 -1.08848 -0.391385 12
-7.23366 -3.94061 1.89066 15
-6.78676 -5.47385 2.32375 8
-7.28571 -3.97059 1.30569 33
-6.65919 -5.35175 1.65235 12
-7.37991 -4.02356 0.732326 32
-6.65715 -5.33486 1.04172 14
-3.15796 -1.72193 0.0621742 33
-2.77923 -2.22045 0.184615 2
-0.696637 -0.380766 -0.0399078 47
-2.71311 -2.16593 -0.0599926 33
-0.843138 -0.460133 -0.113482 42
-2.71307 -2.16589 -0.300087 32
-0.838699 -0.457346 -0.178562 42
-0.860015 -0.468172 -0.252831 44
-7.21697 -3.91521 1.88449 14
-6.82453 -5.4847 2.33345 9
-7.28178 -3.95198 1.30374 33
-6.68286 -5.3497 1.65569 11
-7.38254 -4.0083 0.73189 32
-6.66839 -5.32479 1.04202 12
-3.15907 -1.71467 0.0621306 33
-2.77139 -2.20625 0.18383 2
-0.6973 -0.379549 -0.0399078 47
-2.73252 -2.17367 -0.0603417 35
-0.848303 -0.461024 -0.11409 44
-2.72658 -2.16892 -0.301175 20
-0.845971 -0.459386 -0.179991 42
-0.854537 -0.463078 -0.250891 44
-7.20368 -3.85771 1.8755 14
-6.88812 -5.47477 2.34508 8
-7.28128 -3.90087 1.29984 33
-6.73193 -5.3314 1.66093 9
-7.37997 -3.95536 0.729494 32
-6.73409 -5.31787 1.0478 12
-3.15919 -1.69338 0.061956 35
-2.78525 -2.19277 0.183961 3
-0.694876 -0.373536 -0.0396452 47
-2.75012 -2.1635 -0.0604726 33
-0.842032 -0.451748 -0.112873 44
-2.75159 -2.16541 -0.302697 14
-0.844115 -0.452489 -0.179038 42
-0.852689 -0.456325 -0.249598 44
-7.18824 -3.83492 1.86989 14
-6.90712 -5.47024 2.34831 9
-7.27869 -3.88478 1.29828 35
-6.77397 -5.34551 1.66903 11
-7.38247 -3.94013 0.729058 33
-6.75413 -5.3165 1.04963 11
-3.15993 -1.68669 0.0619124 35
-2.80046 -2.19766 0.184746 3
-0.69773 -0.373498 -0.0397765 49
-2.76372 -2.16642 -0.0606907 33
-0.847121 -0.452758 -0.113482 44
-2.76319 -2.16677 -0.303567 11
-0.844903 -0.451015 -0.179038 42
-0.853484 -0.454836 -0.249598 44
-7.18235 -3.78361 1.86315 14
-6.97462 -5.46652 2.36188 8
-7.27708 -3.8351 1.29437 33
-7.38249 -3.89226 0.727097 32
-3.15737 -1.66485 0.0616943 35
-2.83557 -2.20137 0.186316 4
-0.693049 -0.366351 -0.0393827 47
-2.78649 -2.16161 -0.0609525 32
-0.840695 -0.443696 -0.112265 42
-0.840657 -0.443308 -0.17761 42
-0.845082 -0.444901 -0.246365 44
-7.17384 -3.76315 1.85922 15
-7.27502 -3.81781 1.29281 33
-7.38045 -3.87474 0.726225 33
-3.15835 -1.65763 0.0616506 35
-2.83152 -2.1903 0.185793 4
-0.695898 -0.366299 -0.039514 49
-2.80211 -2.16593 -0.0612143 30
-0.845865 -0.44453 -0.112873 42
-0.843604 -0.442978 -0.178086 44
-0.845935 -0.443278 -0.246365 44
-7.1703 -3.71197 1.85304 18
-7.28241 -3.77158 1.29047 33
-7.38804 -3.82788 0.724918 35
-2.85624 -2.18799 0.436889 3
-3.16032 -1.63762 0.0615197 36
-2.84531 -2.17646 0.185923 8
-0.697807 -0.362651 -0.039514 49
-2.81776 -2.15378 -0.0613016 33
-0.848257 -0.439947 -0.112873 42
-0.87038 -0.661348 -0.0924182 42
-0.845989 -0.438407 -0.178086 42
-0.862843 -0.656246 -0.166395 26
-0.848244 -0.438842 -0.246365 44
-0.854912 -0.651523 -0.239772 27
-7.15663 -3.69066 1.84799 20
-7.27581 -3.75208 1.28813 33
-2.87073 -2.19749 0.695351 4
-7.377 -3.80585 0.723175 35
-2.84232 -2.16943 0.434151 9
-3.16096 -1.63095 0.0614761 36
-2.85109 -2.17301 0.186054 11
-0.689561 -0.356858 -0.0389889 49
-2.8374 -2.16099 -0.0616506 29
-0.844611 -0.436195 -0.112265 42
-0.869554 -0.658316 -0.0922008 45
-0.840205 -0.433564 -0.176658 42
-0.860065 -0.651739 -0.165612 33
-0.840415 -0.43295 -0.243778 42
-0.852181 -0.647066 -0.238649 33
-7.15913 -3.64305 1.84349 21
-2.86952 -2.18063 0.95509 8
-7.27775 -3.70497 1.28501 33
-2.87634 -2.17797 0.693921 4
-7.38129 -3.75926 0.72165 32
-2.85364 -2.15452 0.434151 14
-3.16054 -1.60985 0.0613016 36
-2.8684 -2.16257 0.186447 14
-0.68697 -0.350979 -0.0387263 49
-2.84868 -2.14611 -0.0616506 14
-0.849096 -0.432891 -0.112569 45
-0.851217 -0.433601 -0.178562 44
-0.846979 -0.430727 -0.245071 44
-7.14528 -3.62189 1.83844 23
-2.86371 -2.16832 0.951859 9
-7.2798 -3.69003 1.28423 35
-2.86643 -2.16259 0.690585 9
-7.37229 -3.73849 0.720124 33
-2.85937 -2.15103 0.434455 27
-3.15889 -1.60207 0.0612143 36
-2.87017 -2.15606 0.186316 12
-0.687581 -0.34978 -0.0387263 49
-2.8684 -2.15316 -0.0619997 2
-0.845421 -0.429168 -0.11196 44
-0.845401 -0.428794 -0.177134 44
-0.845573 -0.42816 -0.244425 44
-7.15979 -3.58224 1.83732 23
-2.87658 -2.15525 0.952506 4
-7.27851 -3.64319 1.28072 33
-2.8852 -2.15393 0.692491 8
-7.38221 -3.69667 0.719253 33
-2.88017 -2.14395 0.435976 1
-3.15578 -1.58047 0.0609962 36
-2.93109 -2.1788 0.189587 2
-0.689403 -0.346175 -0.0387263 49
-2.86523 -2.12816 -0.0616943 2
-0.845363 -0.423775 -0.111656 44
-0.873537 -0.644668 -0.0917659 47
-0.845365 -0.423414 -0.176658 44
-0.859934 -0.635429 -0.164046 44
-0.843406 -0.421721 -0.243131 44
-0.859911 -0.636757 -0.238649 41
-7.14641 -3.55997 1.83226 24
-2.87647 -2.14733 0.951213 3
-7.26496 -3.62057 1.2772 33
-2.8854 -2.14546 0.691538 2
-7.3775 -3.67823 0.718163 33
-2.87196 -2.13003 0.434151 1
-3.15433 -1.57218 0.0609089 36
-2.9369 -2.17517 0.189718 2
-0.685537 -0.342746 -0.0384638 49
-2.93317 -2.17083 -0.0630904 1
-0.846101 -0.422299 -0.111656 44
-0.874661 -0.643142 -0.0917659 49
-0.841707 -0.419754 -0.175705 44
-0.855097 -0.629509 -0.162871 47
-0.846378 -0.421174 -0.243778 44
-0.861021 -0.635255 -0.238649 41
-7.14807 -3.51266 1.82777 26
-2.89969 -2.14035 0.95509 1
-7.27558 -3.57686 1.27564 35
-2.88869 -2.12449 0.689632 2
-7.37942 -3.62947 0.71642 33
-2.89943 -2.12622 0.436585 1
-2.95868 -2.16664 0.190372 1
-0.687322 -0.339152 -0.0384638 49
-2.95495 -2.16232 -0.0633086 2
-0.84169 -0.414436 -0.110743 45
-0.874001 -0.635606 -0.091331 49
-0.841762 -0.414114 -0.175229 42
-0.858381 -0.625023 -0.162871 47
-0.839895 -0.412491 -0.241192 42
-0.862484 -0.629143 -0.238088 39
-7.14701 -3.49822 1.82609 26
-2.87815 -2.11665 0.94669 2
-7.26567 -3.55783 1.27291 35
-7.37232 -3.61001 0.715113 33
-2.96813 -2.16641 0.190765 1
-0.687913 -0.337952 -0.0384638 49
-0.840111 -0.412024 -0.110439 44
-0.873098 -0.63261 -0.0911135 49
-0.844689 -0.41372 -0.175705 44
-0.853495 -0.619147 -0.161697 47
-0.842785 -0.412082 -0.241838 44
-0.859543 -0.624904 -0.236965 38
-7.15207 -3.45439 1.82272 24
-7.26641 -3.51114 1.26979 33
-7.37704 -3.56615 0.713805 33
-2.99561 -2.16255 0.191811 4
-0.687424 -0.33326 -0.0383325 52
-0.842256 -0.40762 -0.110439 44
-0.872363 -0.62511 -0.0906786 49
-0.837928 -0.405179 -0.173801 44
-0.856725 -0.61467 -0.161697 47
-0.836154 -0.403625 -0.239252 42
-0.854918 -0.61467 -0.234718 41
-7.14272 -3.43452 1.81879 26
-7.25695 -3.49096 1.26706 33
-7.37203 -3.54787 0.712716 35
-3.01153 -2.16608 0.192596 4
-0.688005 -0.33206 -0.0383325 50
-0.714295 -0.508898 -0.0147037 12
-0.842967 -0.406149 -0.110439 44
-0.873453 -0.623587 -0.0906786 49
-0.840847 -0.404777 -0.174277 42
-0.857796 -0.613173 -0.161697 47
-0.836927 -0.402019 -0.239252 42
-0.857964 -0.614605 -0.23528 39
-7.14579 -3.38852 1.81486 26
-7.27127 -3.44953 1.26628 33
-7.37537 -3.50046 0.711191 35
-3.05776 -2.1744 0.194821 8
-0.687478 -0.327384 -0.0382012 52
-0.71093 -0.500674 -0.0145728 14
-0.847395 -0.402644 -0.110743 44
-0.874678 -0.617559 -0.0904611 49
-0.840806 -0.399173 -0.173801 44
-0.854966 -0.60437 -0.160522 47
-0.836837 -0.396601 -0.238605 42
-0.855332 -0.605703 -0.233595 41
-7.14669 -3.37521 1.81373 26
-7.26551 -3.43283 1.26433 33
-7.36795 -3.4812 0.709884 33
-3.08171 -2.1874 0.459099 4
-3.06321 -2.17104 0.194951 11
-0.685791 -0.325118 -0.0380699 49
-0.843537 -0.399196 -0.110135 44
-0.869662 -0.611706 -0.0898088 50
-0.83484 -0.394569 -0.172372 42
-0.856019 -0.602877 -0.160522 47
-0.837528 -0.39514 -0.238605 42
-0.856282 -0.604358 -0.233595 41
-7.1466 -3.32952 1.80924 26
-3.07751 -2.17462 0.999032 2
-7.26548 -3.3864 1.2612 33
-3.09659 -2.1801 0.728712 3
-7.37645 -3.43966 0.709012 33
-3.08704 -2.16695 0.458186 9
-3.07249 -2.15353 0.194821 11
-0.687483 -0.321523 -0.0380699 50
-0.845616 -0.394774 -0.110135 44
-0.870815 -0.605712 -0.0895913 50
-0.839052 -0.391372 -0.172848 44
-0.859164 -0.598386 -0.160522 49
-0.837326 -0.38988 -0.237958 42
-0.847488 -0.591445 -0.230226 42
-7.13472 -3.30884 1.80475 24
-3.10498 -2.18595 1.00679 3
-7.26242 -3.36956 1.25964 33
-3.08471 -2.16286 0.7249 9
-7.35759 -3.41525 0.706615 32
-3.07456 -2.15017 0.455752 11
-3.07215 -2.1453 0.194559 11
-0.681248 -0.317174 -0.0376761 50
-0.694705 -0.480246 -0.0141364 14
-0.846303 -0.393298 -0.110135 44
-0.871871 -0.604192 -0.0895913 49
-0.844189 -0.391968 -0.173801 44
-0.856163 -0.594052 -0.159739 47
-0.844651 -0.391307 -0.239898 44
-0.848519 -0.589965 -0.230226 42
-7.15473 -3.2712 1.80531 21
-3.08903 -2.14977 0.99774 9
-7.26258 -3.322 1.25652 33
-3.10405 -2.15228 0.726806 9
-7.36917 -3.37228 0.705961 32
-3.08819 -2.13491 0.456056 9
-3.08166 -2.12723 0.194428 11
-0.682899 -0.313603 -0.0376761 49
-0.697294 -0.47648 -0.0141364 14
-0.843904 -0.386653 -0.109526 44
-0.870926 -0.596784 -0.0891564 49
-0.839598 -0.38434 -0.172372 44
-0.853173 -0.585342 -0.158564 47
-0.844491 -0.385878 -0.239252 44
-0.853699 -0.586755 -0.230788 41
-7.21751 -3.2862 1.81991 18
-3.11657 -2.16092 1.00549 8
-7.26554 -3.30957 1.25613 35
-3.1078 -2.14686 0.726806 4
-7.36371 -3.35425 0.704872 32
-3.10583 -2.13993 0.458186 2
-3.09322 -2.12806 0.194951 1
-0.678901 -0.310343 -0.0374136 49
-0.689891 -0.469589 -0.0139619 14
-0.849028 -0.38738 -0.110135 44
-0.869916 -0.593849 -0.088939 50
-0.835798 -0.380845 -0.17142 44
-0.852162 -0.582449 -0.158173 49
-0.847363 -0.3854 -0.239898 45
-0.84861 -0.581255 -0.229103 41
-7.24573 -3.25335 1.82272 14
-3.11752 -2.13828 1.00226 4
-7.26474 -3.26339 1.25301 35
-3.11863 -2.1311 0.726806 2
-7.36469 -3.3098 0.703347 32
-3.11494 -2.12224 0.457882 2
-3.10844 -2.11465 0.195213 3
-0.685072 -0.308827 -0.0376761 49
-0.694325 -0.467499 -0.0140056 14
-0.846516 -0.380899 -0.109526 45
-0.870956 -0.587884 -0.0887215 50
-0.839954 -0.377613 -0.171896 44
-0.8552 -0.577979 -0.158173 49
-0.842688 -0.378151 -0.237958 42
-0.851642 -0.576803 -0.229103 42
-7.29811 -3.26156 1.83451 12
-3.13121 -2.13966 1.00549 2
-7.2569 -3.24466 1.25067 35
-3.13285 -2.13203 0.729189 2
-7.35454 -3.28982 0.701822 33
-3.12685 -2.12239 0.459099 3
-3.12658 -2.11904 0.196129 8
-0.68333 -0.306613 -0.0375448 50
-0.682732 -0.457861 -0.0137438 12
-0.844914 -0.378411 -0.109222 45
-0.86786 -0.583565 -0.0882866 50
-0.842854 -0.377146 -0.172372 44
-0.856207 -0.576486 -0.158173 49
-0.847826 -0.378494 -0.239252 45
-0.848621 -0.572572 -0.22798 41
-7.2666 -3.20043 1.82216 30
-3.13274 -2.11591 1.00226 2
-7.26305 -3.20037 1.24872 36
-3.1399 -2.11285 0.728236 2
-7.36084 -3.24496 0.700732 33
-3.15475 -2.11652 0.461532 4
-2.10398 -0.928162 0.0395297 4
-3.14629 -2.10766 0.196652 11
-0.680357 -0.30102 -0.0372823 49
-0.846949 -0.373834 -0.109222 45
-0.872971 -0.580401 -0.088504 50
-0.840388 -0.370606 -0.17142 44
-0.857165 -0.570617 -0.157781 49
-0.840949 -0.370172 -0.236665 44
-0.847666 -0.56525 -0.226857 44
-7.26046 -3.18413 1.81935 33
-3.15645 -2.12395 1.00873 2
-7.25224 -3.18202 1.24599 35
-3.16191 -2.11969 0.732525 3
-7.35509 -3.22711 0.699643 35
-3.15808 -2.11156 0.461532 4
-2.11475 -0.928503 0.0397042 4
-3.16827 -2.11522 0.19783 1
-0.680881 -0.299832 -0.0372823 49
-0.845262 -0.371508 -0.108918 45
-0.867773 -0.574722 -0.0878517 52
-0.841034 -0.369139 -0.17142 44
-0.856108 -0.567746 -0.15739 49
-0.846021 -0.370635 -0.237958 45
-0.846531 -0.562559 -0.226295 44
-7.2502 -3.13447 1.81261 32
-3.18725 -2.12136 1.01519 3
-7.25067 -3.13616 1.24286 33
-3.1726 -2.10366 0.732525 2
-7.3599 -3.1849 0.698553 33
-3.16082 -2.08951 0.460316 3
-2.11713 -0.916795 0.0396606 4
-3.1793 -2.0986 0.19783 8
-0.680149 -0.295273 -0.037151 49
-0.842638 -0.365111 -0.10831 45
-0.868693 -0.568797 -0.0876342 52
-0.857011 -0.561892 -0.156998 49
-0.836794 -0.361576 -0.234725 42
-0.849464 -0.558119 -0.226295 45
-7.25566 -3.12181 1.81261 33
-3.18089 -2.1091 1.01196 2
-7.25613 -3.1235 1.24286 35
-3.19096 -2.10705 0.735861 3
-7.35401 -3.16712 0.697464 33
-3.15617 -2.07852 0.459099 2
-2.12807 -0.916679 0.0398351 4
-3.1517 -2.07243 0.195867 2
-0.682957 -0.295071 -0.0372823 47
-0.845554 -0.364619 -0.108614 45
-0.867604 -0.565909 -0.0874168 52
-0.853868 -0.557676 -0.156215 49
-0.835267 -0.359019 -0.234079 42
-0.846373 -0.553948 -0.225172 45
-7.25674 -3.07586 1.80868 35
-7.25246 -3.07553 1.23935 35
-7.35957 -3.12243 0.696374 33
-2.13744 -0.907475 0.0399224 4
-3.16914 -2.05944 0.19626 1
-0.679896 -0.289543 -0.0370197 49
-0.842944 -0.358105 -0.108005 45
-0.870556 -0.561359 -0.0874168 53
-0.831917 -0.353104 -0.168563 44
-0.858845 -0.554546 -0.156607 49
-0.832685 -0.352763 -0.232785 42
-0.853436 -0.552026 -0.226295 44
-7.25258 -3.06067 1.80643 33
-7.25273 -3.06221 1.23857 33
-7.35812 -3.10667 0.695721 35
-3.16818 -2.05174 0.195998 1
-0.6804 -0.288356 -0.0370197 49
-0.656598 -0.420217 -0.013002 11
-0.848079 -0.358707 -0.108614 47
-0.863177 -0.554416 -0.086547 52
-0.839319 -0.354506 -0.169991 45
-0.85153 -0.547664 -0.155041 47
-0.837753 -0.353179 -0.234079 42
-0.852261 -0.549356 -0.225734 42
-7.25501 -3.01704 1.80306 33
-7.24587 -3.01471 1.23467 33
-7.35536 -3.06173 0.693978 35
-3.16418 -2.02568 0.195082 3
-0.684156 -0.285867 -0.037151 49
-0.656613 -0.415538 -0.0129584 11
-0.838487 -0.349505 -0.107093 45
-0.868068 -0.551385 -0.0867644 52
-0.838835 -0.349313 -0.169515 44
-0.856463 -0.544533 -0.155432 47
-0.832835 -0.346164 -0.232139 44
-0.85103 -0.542248 -0.224611 44
-7.25749 -3.00471 1.8025 33
-7.24427 -2.99923 1.2335 35
-7.35149 -3.04508 0.693106 33
-3.1635 -2.01746 0.194821 9
-0.684654 -0.284672 -0.037151 49
-0.648912 -0.409008 -0.0127839 11
-0.845976 -0.350883 -0.108005 45
-0.862734 -0.545845 -0.086112 52
-0.839444 -0.347849 -0.169515 45
-0.855332 -0.541706 -0.155041 47
-0.833438 -0.34471 -0.232139 42
-0.845823 -0.536815 -0.222926 44
-7.26011 -2.95988 1.79913 33
-7.24845 -2.95659 1.23155 35
-7.3558 -3.00185 0.692017 33
-0.686135 -0.281084 -0.037151 49
-0.648931 -0.404269 -0.0127403 11
-0.845503 -0.345513 -0.107701 45
-0.861369 -0.538659 -0.0856771 52
-0.836706 -0.3416 -0.168563 45
-0.849811 -0.53194 -0.153475 45
-0.839707 -0.342157 -0.233432 42
-0.84245 -0.528466 -0.221242 42
-7.25797 -2.94573 1.79745 33
-7.24215 -2.9393 1.2296 35
-7.34257 -2.98151 0.690273 33
-0.681997 -0.27801 -0.0368885 49
-0.643289 -0.399143 -0.0126094 9
-0.850705 -0.345899 -0.10831 47
-0.855985 -0.533174 -0.0850248 53
-0.837301 -0.340139 -0.168563 44
-0.850738 -0.530456 -0.153475 45
-0.833585 -0.337979 -0.231492 42
-0.843372 -0.526994 -0.221242 42
-7.263 -2.90063 1.79464 33
-7.24878 -2.89641 1.22804 35
-7.3424 -2.93527 0.688748 32
-7.41336 -4.61414 1.06636 41
-7.26878 -4.51702 0.446687 1
-0.683492 -0.274316 -0.0368885 49
-0.645439 -0.395656 -0.0126094 9
-0.841039 -0.336698 -0.106788 45
-0.867317 -0.533797 -0.0858946 52
-0.839129 -0.335604 -0.168563 45
-0.843025 -0.519466 -0.151517 44
-0.837646 -0.334356 -0.232139 42
-0.840011 -0.518554 -0.219557 42
-7.25396 -2.88382 1.79127 32
-7.24414 -2.88137 1.22647 35
-7.30886 -4.54543 1.66474 44
-7.34289 -2.92061 0.688312 33
-7.41006 -4.59594 1.06484 41
-7.26525 -4.49902 0.446033 1
-0.681649 -0.272201 -0.0367572 50
-0.635503 -0.387949 -0.0123912 9
-0.846179 -0.337207 -0.107397 47
-0.861896 -0.528347 -0.0852422 52
-0.83515 -0.332331 -0.16761 45
-0.850224 -0.5219 -0.152692 45
-0.829245 -0.329342 -0.229552 42
-0.842893 -0.51852 -0.220119 42
-7.25762 -2.84136 1.78846 32
-7.24533 -2.838 1.22413 29
-7.31505 -4.49809 1.66093 36
-7.35062 -2.88068 0.687659 32
-7.41499 -4.5454 1.0621 39
-7.32064 -4.48048 0.447996 1
-0.678415 -0.266809 -0.0364946 50
-0.639591 -0.386032 -0.0124348 9
-0.838688 -0.32916 -0.10618 47
-0.860402 -0.521226 -0.0848073 52
-0.834535 -0.327208 -0.167134 45
-0.85084 -0.51615 -0.1523 47
-0.835402 -0.326893 -0.230846 42
-0.83937 -0.510273 -0.218434 42
-7.31828 -4.50002 2.2895 42
-7.31321 -4.47762 1.65855 36
-7.39962 -4.51821 1.05876 36
-7.30714 -4.45469 0.446687 1
-0.678879 -0.265625 -0.0364946 50
-0.635995 -0.382312 -0.0123476 9
-0.843887 -0.329493 -0.106788 45
-0.861311 -0.519724 -0.0848073 52
-0.839681 -0.327527 -0.168087 45
-0.845419 -0.510803 -0.151126 45
-0.829272 -0.322672 -0.228906 42
-0.842337 -0.510079 -0.218996 42
-7.32602 -4.45031 2.28433 35
-7.31137 -4.42401 1.65283 33
-7.40484 -4.46657 1.05602 33
-7.31189 -4.40349 0.44551 1
-0.682592 -0.26296 -0.0366259 50
-0.845658 -0.324923 -0.106788 45
-0.859754 -0.512635 -0.0843724 52
-0.839148 -0.322104 -0.16761 45
-0.848081 -0.506369 -0.151126 47
-0.83095 -0.318326 -0.228906 44
-0.843 -0.504253 -0.218434 42
-7.32138 -4.43001 2.28046 35
-7.29176 -4.39476 1.64663 39
-3.09208 -1.181 0.286525 11
-7.39484 -4.44469 1.05358 35
-7.30596 -4.38428 0.444725 1
-0.678384 -0.25999 -0.0363633 50
-0.843848 -0.322711 -0.106484 45
-0.854242 -0.507288 -0.0837201 50
-0.839709 -0.320638 -0.16761 45
-0.846848 -0.503616 -0.150734 44
-0.829246 -0.316019 -0.228259 42
-0.839618 -0.500413 -0.217311 42
-7.32506 -4.38173 2.27464 35
-7.20854 -4.29493 1.6228 26
-3.09569 -1.16446 0.286307 12
-7.40308 -4.39704 1.05145 33
-7.31594 -4.33832 0.44394 1
-0.679736 -0.256434 -0.0363633 50
-0.621271 -0.363035 -0.0119549 9
-0.840879 -0.316547 -0.105876 45
-0.854744 -0.501537 -0.0835026 52
-0.836724 -0.314664 -0.166658 45
-0.843105 -0.495391 -0.14956 44
-0.83536 -0.313507 -0.229552 44
-0.840134 -0.494763 -0.21675 42
-7.30159 -4.35038 2.26495 38
-7.21677 -4.28108 1.6228 20
-3.09538 -1.15818 0.286089 3
-7.39367 -4.37399 1.04902 35
-7.30201 -4.31284 0.442631 1
-0.677844 -0.254375 -0.0362321 50
-0.621903 -0.36195 -0.0119549 9
-0.836779 -0.313346 -0.105267 45
-0.853474 -0.498778 -0.0832851 52
-0.839572 -0.314059 -0.167134 44
-0.846093 -0.495176 -0.149951 45
-0.831432 -0.310222 -0.228259 42
-0.834711 -0.489567 -0.215065 42
-7.31254 -4.30345 2.26107 30
-7.23062 -4.23827 1.6209 17
-3.10862 -1.14399 0.286742 3
-7.40223 -4.32515 1.04689 35
-7.32308 -4.27201 0.442501 1
-0.68151 -0.251683 -0.0363633 50
-0.838463 -0.308814 -0.105267 45
-0.851773 -0.491791 -0.0828502 52
-0.834345 -0.30698 -0.165706 45
-0.84228 -0.487 -0.148777 44
-0.830777 -0.305036 -0.227612 42
-0.839449 -0.486276 -0.215626 42
-7.22741 -4.21945 1.61851 15
-3.11996 -1.14199 0.287614 2
-7.38543 -4.29977 1.04354 35
-7.30605 -4.24669 0.441061 1
-0.684293 -0.251349 -0.0364946 50
-0.836615 -0.306646 -0.104963 45
-0.850477 -0.489051 -0.0826328 52
-0.837186 -0.306364 -0.166182 45
-0.845263 -0.486772 -0.149168 45
-0.831308 -0.303585 -0.227612 42
-0.842316 -0.486185 -0.216188 42
-7.26143 -4.19018 1.62137 15
-3.11633 -1.12281 0.286742 2
-7.39709 -4.25485 1.04202 35
-1.70479 -0.614563 0.0310216 50
-7.33251 -4.21086 0.441323 1
-0.676159 -0.244505 -0.0359695 50
-3.19892 -1.83246 -0.0637449 12
-0.840545 -0.303099 -0.105267 45
-0.848623 -0.482258 -0.0821979 53
-0.836415 -0.301294 -0.165706 45
-0.84352 -0.479876 -0.148385 44
-0.84274 -0.480551 -0.215626 42
-5.7975 -3.34424 1.78159 8
-7.23682 -4.15914 1.61422 14
-3.12298 -1.11904 0.287178 2
-7.38514 -4.23082 1.03928 35
-1.70586 -0.611587 0.0310216 50
-7.32685 -4.19061 0.440538 1
-0.674234 -0.242484 -0.0358382 50
-3.20211 -1.82688 -0.0637449 14
-0.836399 -0.299964 -0.104659 45
-0.849463 -0.480776 -0.0821979 52
-0.832316 -0.298186 -0.164753 44
-0.842214 -0.477175 -0.147993 45
-0.843577 -0.479079 -0.215626 42
-5.82752 -3.32102 1.78546 9
-7.25423 -4.11876 1.61327 12
-3.11235 -1.09689 0.285653 2
-7.40287 -4.18965 1.03868 35
-1.70433 -0.600988 0.0309344 50
-7.35521 -4.15588 0.44093 1
-0.677891 -0.23966 -0.0359695 50
-3.18335 -1.7941 -0.0631777 18
-0.835616 -0.294759 -0.104354 45
-0.849884 -0.474948 -0.0819804 52
-0.833866 -0.293824 -0.164753 45
-0.846849 -0.473976 -0.148385 49
-0.828065 -0.29116 -0.225673 44
-0.8376 -0.469845 -0.21338 44
-5.8417 -3.31562 1.78805 9
-7.24077 -4.09274 1.60851 11
-3.10485 -1.08816 0.284781 2
-7.38856 -4.16453 1.03563 35
-1.70312 -0.59689 0.0308908 50
-7.3581 -4.14059 0.440669 1
-0.673595 -0.236829 -0.035707 50
-3.1734 -1.78118 -0.0629159 27
-0.831444 -0.291664 -0.103746 47
-0.852882 -0.474685 -0.0821979 53
-0.839013 -0.293984 -0.165706 45
-0.847675 -0.472497 -0.148385 47
-0.828623 -0.28957 -0.225673 42
-0.840539 -0.469581 -0.213942 44
-7.25139 -4.04878 1.60612 12
-7.39581 -4.11603 1.0335 35
-1.69913 -0.585526 0.0307599 50
-7.37604 -4.09829 0.440407 1
-0.679548 -0.234922 -0.0359695 50
-3.15896 -1.75062 -0.062436 30
-0.835357 -0.287967 -0.10405 45
-0.851002 -0.467792 -0.081763 53
-0.833625 -0.287054 -0.164277 45
-0.84798 -0.46685 -0.147993 47
-0.834698 -0.286789 -0.226966 42
-0.838813 -0.462652 -0.212819 42
-7.24558 -4.02896 1.60326 14
-7.38057 -4.09237 1.03046 35
-1.70961 -0.585794 0.0309344 50
-7.38465 -4.08791 0.440538 15
-0.679957 -0.233735 -0.0359695 50
-3.14889 -1.73784 -0.0621742 32
-0.828763 -0.28425 -0.103137 45
-0.851817 -0.466306 -0.081763 53
-0.829479 -0.284016 -0.163325 45
-0.846635 -0.464172 -0.147602 47
-0.826051 -0.282224 -0.224379 44
-0.839539 -0.461334 -0.212819 44
-7.29807 -4.02649 2.22101 35
-7.25513 -3.98632 1.60088 12
-7.38667 -4.04531 1.02833 36
-1.70307 -0.573947 0.0307599 50
-7.39719 -4.04439 0.440015 15
-0.678805 -0.229377 -0.0358382 50
-3.15107 -1.71828 -0.0620433 32
-0.83024 -0.279907 -0.103137 45
-0.852062 -0.460645 -0.0815455 55
-0.837887 -0.282152 -0.164753 45
-0.844723 -0.457359 -0.146819 49
-0.827469 -0.278039 -0.224379 44
-0.841943 -0.456932 -0.212819 44
-7.29451 -4.00792 2.21777 35
-7.24555 -3.96295 1.59707 12
-7.38501 -4.02766 1.02712 36
-1.69943 -0.569093 0.0306726 50
-7.3867 -4.02191 0.438968 14
-0.679204 -0.228192 -0.0358382 50
-3.14967 -1.71039 -0.061956 33
-0.835435 -0.280027 -0.103746 47
-0.850678 -0.457965 -0.081328 52
-0.831393 -0.278363 -0.163325 45
-0.843352 -0.454702 -0.146427 45
-0.830293 -0.277211 -0.225026 45
-0.838464 -0.453123 -0.211696 42
-7.30123 -3.96033 2.21325 35
-7.24893 -3.91562 1.59325 12
-7.3914 -3.9794 1.02499 35
-1.70001 -0.559407 0.030629 52
-7.40176 -3.97834 0.438575 14
-0.68039 -0.224633 -0.0358382 50
-3.15228 -1.68977 -0.0618251 33
-0.83458 -0.274731 -0.103442 47
-0.848678 -0.451145 -0.0808931 53
-0.837552 -0.275387 -0.164277 45
-0.841374 -0.447937 -0.145644 45
-0.829438 -0.272111 -0.224379 44
-0.836617 -0.446265 -0.210573 44
-7.28689 -3.93609 2.20679 35
-7.24279 -3.89598 1.59039 12
-7.38234 -3.95956 1.02286 35
-1.69623 -0.554889 0.0305417 52
-7.3904 -3.95727 0.437529 12
-0.678407 -0.222671 -0.035707 52
-3.15302 -1.68309 -0.0617815 33
-0.83501 -0.27342 -0.103442 47
-0.851659 -0.450839 -0.0811106 53
-0.83103 -0.271648 -0.162849 47
-0.839979 -0.4453 -0.145253 45
-0.829911 -0.270663 -0.224379 45
-0.835171 -0.443796 -0.210011 42
-7.30246 -3.89688 2.2055 35
-7.24508 -3.85004 1.58658 12
-7.33676 -2.35562 0.671099 20
-7.38763 -3.91272 1.02073 35
-1.69902 -0.546296 0.0305417 52
-7.40219 -3.91385 0.437005 9
-0.681941 -0.219877 -0.0358382 52
-3.14824 -1.6601 -0.0615197 33
-0.834067 -0.268288 -0.103137 47
-0.849605 -0.444045 -0.0806757 52
-0.832394 -0.267438 -0.162849 47
-0.840117 -0.43974 -0.144861 45
-0.835872 -0.267926 -0.225673 45
-0.837484 -0.439417 -0.210011 42
-7.29432 -3.87619 2.20097 35
-6.94988 -2.21678 1.14726 1
-7.25246 -3.83613 1.58658 12
-7.31951 -2.336 0.669138 20
-7.37689 -3.89055 1.01829 35
-1.6953 -0.541516 0.0304544 52
-7.40018 -3.89626 0.436482 8
-0.677566 -0.217172 -0.0355757 52
-3.15113 -1.6546 -0.0615197 33
-0.82744 -0.264576 -0.102225 47
-0.852582 -0.443722 -0.0808931 53
-0.828181 -0.264499 -0.161896 45
-0.840884 -0.438273 -0.144861 45
-0.822571 -0.261946 -0.221793 45
-0.840403 -0.439094 -0.210573 44
-7.29167 -3.82431 2.19386 35
-7.23044 -2.26319 1.19174 32
-7.25288 -3.78786 1.58229 12
-7.3368 -2.29785 0.669574 18
-7.38463 -3.8437 1.01647 35
-1.69811 -0.532632 0.0304544 53
-7.40122 -3.8458 0.435304 11
-0.681077 -0.214366 -0.035707 52
-3.14895 -1.63176 -0.0613016 33
-0.828859 -0.260095 -0.102225 49
-0.850475 -0.436953 -0.0804582 53
-0.834286 -0.261475 -0.162849 47
-0.841053 -0.432577 -0.14447 44
-0.83085 -0.259787 -0.223733 45
-0.834128 -0.430031 -0.208327 41
-7.24214 -2.25299 1.74017 39
-7.28549 -3.80486 2.18999 35
-7.23674 -2.2513 1.19213 26
-7.24642 -3.7684 1.57943 14
-7.30037 -2.27247 0.66587 15
-7.37371 -3.82166 1.01403 35
-1.68949 -0.526699 0.0302799 53
-7.3924 -3.82483 0.434388 11
-0.676682 -0.211696 -0.0354444 50
-3.15401 -1.62741 -0.0613452 35
-0.824572 -0.257178 -0.101616 47
-0.855659 -0.437759 -0.0808931 53
-0.827708 -0.25784 -0.16142 45
-0.843998 -0.432245 -0.144861 45
-0.822073 -0.255484 -0.221146 45
-0.841362 -0.431945 -0.210011 42
-7.23752 -2.21006 1.73624 32
-7.28749 -3.75907 2.18482 35
-7.24096 -2.21248 1.19096 26
-7.25885 -3.72831 1.578 12
-7.32607 -2.23985 0.667177 17
-7.38413 -3.77976 1.01282 36
-1.69214 -0.518141 0.0302799 55
-7.39389 -3.77827 0.433342 9
-0.675393 -0.207421 -0.0353131 52
-3.14885 -1.6046 -0.0610834 35
-0.830611 -0.254447 -0.102225 49
-0.84907 -0.428738 -0.0800233 52
-0.826655 -0.252933 -0.160944 47
-0.837385 -0.423465 -0.143295 45
-0.825666 -0.252022 -0.221793 45
-0.837036 -0.424343 -0.208327 42
-7.22738 -2.19319 1.73287 32
-7.28545 -3.74193 2.18223 35
-7.23299 -2.19625 1.18901 26
-7.25944 -3.71101 1.57657 12
-7.30852 -2.22055 0.665216 15
-7.38187 -3.76235 1.0116 35
-1.68834 -0.513441 0.0301927 52
-7.38935 -3.75969 0.432687 9
-0.673365 -0.205518 -0.0351819 50
-3.14942 -1.59797 -0.0610398 35
-0.826303 -0.251559 -0.101616 49
-0.852036 -0.428385 -0.0802408 53
-0.824746 -0.25078 -0.160468 45
-0.838122 -0.422003 -0.143295 45
-0.823836 -0.249739 -0.221146 45
-0.844282 -0.426208 -0.210011 42
-7.23681 -2.15336 1.73231 33
-7.29482 -3.69699 2.179 33
-7.2424 -2.15638 1.18862 26
-7.26782 -3.66741 1.57419 12
-7.31565 -2.17956 0.66478 15
-7.37774 -3.71008 1.00825 35
-1.69101 -0.504594 0.0301927 55
-7.39397 -3.71181 0.431772 8
-0.676824 -0.202701 -0.0353131 50
-0.83241 -0.248497 -0.102225 49
-0.849817 -0.421681 -0.0798059 52
-0.83315 -0.248406 -0.161896 49
-0.833776 -0.414132 -0.142121 45
-0.827448 -0.246107 -0.221793 47
-0.837876 -0.417245 -0.207765 42
-7.22616 -2.13784 1.72894 32
-7.29264 -3.6799 2.17642 33
-7.23905 -2.14164 1.18745 26
-7.26763 -3.65141 1.57276 11
-7.29556 -2.15972 0.662602 14
-7.37755 -3.69386 1.00734 35
-1.68949 -0.500933 0.030149 53
-7.3915 -3.69443 0.431248 8
-0.825702 -0.244938 -0.101312 49
-0.850551 -0.420197 -0.0798059 53
-0.828873 -0.245565 -0.160944 49
-0.834498 -0.412677 -0.142121 45
-0.823243 -0.243301 -0.2205 45
-0.84078 -0.416876 -0.208327 42
-7.23528 -2.09804 1.72838 33
-7.29236 -3.63196 2.1706 33
-7.25017 -2.10371 1.18745 26
-7.27127 -3.60567 1.56942 11
-7.31634 -2.12427 0.663473 12
-7.37677 -3.64528 1.0046 35
-1.68969 -0.491384 0.0301054 55
-7.39284 -3.64683 0.430202 8
-0.829357 -0.241301 -0.101616 49
-0.850507 -0.414636 -0.0795884 52
-0.830148 -0.241222 -0.160944 49
-0.83215 -0.406258 -0.141338 45
-0.826826 -0.239656 -0.221146 47
-0.836403 -0.409221 -0.206642 42
-7.21984 -2.08127 1.72389 33
-7.28571 -3.61278 2.16672 35
-7.24634 -2.09026 1.18628 26
-7.27535 -3.59188 1.56895 11
-7.31764 -2.1108 0.663255 12
-7.37136 -3.6282 1.00308 35
-1.68574 -0.48705 0.0300181 55
-7.39856 -3.63521 0.430202 4
-0.668971 -0.194025 -0.034788 50
-0.824965 -0.238626 -0.101008 49
-0.851229 -0.41315 -0.0795884 52
-0.821131 -0.237065 -0.159039 49
-0.837288 -0.406987 -0.142121 47
-0.824921 -0.237548 -0.2205 45
-0.837045 -0.407907 -0.206642 44
-7.23299 -2.0441 1.72445 33
-7.28656 -3.56735 2.16155 35
-7.25244 -2.05095 1.1855 26
-7.28241 -3.54963 1.56656 11
-7.32823 -2.07374 0.663255 11
-7.36571 -3.57761 0.999734 35
-1.6954 -0.480551 0.030149 53
-7.39054 -3.58334 0.428631 4
-0.674783 -0.191875 -0.0350506 50
-0.83098 -0.23565 -0.101616 50
-0.846658 -0.405427 -0.078936 52
-0.829408 -0.234901 -0.160468 49
-0.832745 -0.399359 -0.140946 45
-0.826113 -0.233369 -0.2205 47
-0.832599 -0.400317 -0.204957 42
-7.22012 -2.02687 1.72052 32
-7.27758 -3.54721 2.15703 35
-7.24887 -2.03629 1.18433 26
-7.287 -3.53457 1.56609 11
-7.36301 -3.56043 0.998517 35
-1.68429 -0.473919 0.0299309 53
-7.39229 -3.56826 0.42837 4
-0.675117 -0.190697 -0.0350506 50
-0.821832 -0.231523 -0.100399 50
-0.85185 -0.406115 -0.079371 52
-0.820362 -0.230809 -0.158563 50
-0.83344 -0.397905 -0.140946 47
-0.821907 -0.230487 -0.219206 47
-0.83768 -0.40099 -0.206081 42
-7.22864 -1.98713 1.71996 33
-7.28579 -3.50255 2.1538 35
-7.26455 -1.99835 1.18511 26
-7.29213 -3.49 1.56323 9
-7.36201 -3.51091 0.995778 35
-1.69157 -0.466419 0.0300181 53
-7.41149 -3.52821 0.42837 4
-0.676106 -0.18716 -0.0350506 50
-0.827859 -0.228386 -0.101008 50
-0.853965 -0.401649 -0.079371 52
-0.828701 -0.228311 -0.159992 50
-0.833284 -0.392472 -0.140555 45
-0.830091 -0.228088 -0.221146 47
-0.835443 -0.394349 -0.204957 41
-7.21765 -1.97193 1.71659 35
-7.27447 -3.48148 2.14863 33
-7.25815 -1.98433 1.18355 27
-7.29378 -3.47516 1.56228 9
-7.35856 -3.49508 0.994561 35
-1.68514 -0.461491 0.0298872 53
-0.669206 -0.184008 -0.0346568 49
-0.821034 -0.225128 -0.100095 50
-0.847914 -0.396955 -0.0787186 52
-0.821993 -0.224933 -0.158563 49
-0.831738 -0.389957 -0.140163 45
-0.823496 -0.224743 -0.219206 47
-0.83826 -0.394084 -0.205519 42
-7.21611 -1.93096 1.71378 32
-7.28326 -3.44048 2.14605 35
-7.27321 -1.94758 1.18433 29
-7.30017 -3.43297 1.55989 9
-7.35654 -3.44702 0.991823 35
-1.68504 -0.45231 0.0298436 55
-0.674985 -0.181791 -0.0349193 52
-0.824599 -0.221466 -0.100399 49
-0.84547 -0.390399 -0.0782837 52
-0.827864 -0.222034 -0.159516 49
-0.824826 -0.381404 -0.138597 45
-0.829291 -0.221812 -0.2205 47
-0.829289 -0.384507 -0.202711 42
-7.21476 -1.91711 1.71266 33
-7.27178 -3.41953 2.14088 33
-7.27182 -1.93361 1.18355 29
-7.28897 -3.41061 1.55608 11
-7.3513 -3.42892 0.990302 33
-1.68832 -0.449715 0.0298872 55
-0.670475 -0.179332 -0.0346568 52
-0.827383 -0.220662 -0.100704 50
-0.84615 -0.388923 -0.0782837 53
-0.82825 -0.220588 -0.159516 50
-0.827728 -0.381008 -0.138989 45
-0.82738 -0.219604 -0.219853 47
-0.832165 -0.384092 -0.203273 42
-7.21323 -1.87499 1.70985 33
-7.28141 -3.37607 2.13829 35
-7.2774 -1.893 1.18277 29
-7.29559 -3.36725 1.5537 11
-7.36073 -3.38494 0.989085 33
-1.68824 -0.44024 0.0298436 55
-0.671404 -0.175819 -0.0346568 53
-0.826163 -0.215559 -0.100399 49
-0.848174 -0.384487 -0.0782837 53
-0.82468 -0.214874 -0.158563 50
-0.827468 -0.375637 -0.138597 47
-0.823842 -0.214062 -0.21856 47
-0.832019 -0.378563 -0.202711 42
-7.21381 -1.86305 1.70929 33
-7.27414 -3.35727 2.13441 35
-7.28036 -1.88156 1.18277 29
-7.28808 -3.34836 1.55084 12
-7.35702 -3.36924 0.987868 33
-1.689 -0.437293 0.0298436 55
-0.67171 -0.174647 -0.0346568 53
-0.826501 -0.214261 -0.100399 50
-0.844315 -0.380934 -0.0778488 52
-0.825053 -0.213434 -0.158563 50
-0.830367 -0.375221 -0.138989 47
-0.826554 -0.213223 -0.219206 47
-0.825972 -0.374204 -0.201027 42
-7.21638 -1.82346 1.7076 33
-7.28005 -3.3154 2.13118 35
-7.28533 -1.84221 1.18199 30
-7.28483 -3.3023 1.54655 14
-7.36326 -3.32556 0.986347 33
-1.68635 -0.427514 0.0297564 55
-0.672616 -0.171127 -0.0346568 53
-2.06599 -0.926722 -0.0389189 4
-0.827611 -0.209931 -0.100399 50
-0.841757 -0.37446 -0.0774139 53
-0.826123 -0.209256 -0.158563 49
-0.832321 -0.370868 -0.138989 49
-0.827622 -0.209037 -0.219206 47
-0.830139 -0.37088 -0.201588 44
-7.21246 -1.80909 1.70592 33
-7.26823 -3.2947 2.12601 35
-7.28614 -1.82889 1.1816 30
-7.28221 -3.28426 1.54464 14
-7.32855 -1.84087 0.658026 11
-7.35547 -3.30659 0.984522 33
-1.68716 -0.424276 0.0297564 56
-0.677757 -0.171166 -0.0349193 53
-2.06989 -0.924138 -0.0389625 4
-0.823162 -0.207282 -0.0997908 50
-0.840137 -0.37197 -0.0771964 53
-0.826487 -0.207813 -0.158563 50
-0.826211 -0.366376 -0.137814 47
-0.828022 -0.207448 -0.219206 47
-0.824123 -0.366426 -0.199904 42
-7.21505 -1.7683 1.70424 35
-7.27934 -3.25237 2.12407 36
-7.28873 -1.78768 1.18043 32
-7.28361 -3.2391 1.54131 21
-7.29729 -1.79111 0.654322 14
-7.35738 -3.2597 0.982392 33
-1.68693 -0.414841 0.0297127 56
-0.668944 -0.16524 -0.0343942 53
-2.084 -0.916972 -0.039137 4
-0.824271 -0.202826 -0.0997908 50
-0.842073 -0.367566 -0.0771964 55
-0.822831 -0.202175 -0.157611 50
-0.825861 -0.361043 -0.137423 47
-0.824404 -0.201968 -0.217913 47
-0.828319 -0.362951 -0.200465 42
-7.21308 -1.75581 1.70311 33
-7.26956 -3.23278 2.11955 35
-7.29153 -1.77623 1.18043 32
-7.2713 -3.21842 1.53749 35
-7.30766 -1.78014 0.654975 17
-7.35114 -3.24312 0.980871 33
-1.68766 -0.411896 0.0297127 55
-3.15622 -1.38683 0.178858 3
-0.674083 -0.165251 -0.0346568 53
-2.09017 -0.915348 -0.0392243 4
-0.822177 -0.200945 -0.0994866 50
-0.842714 -0.366096 -0.0771964 53
-0.823182 -0.200739 -0.157611 50
-0.828749 -0.360599 -0.137814 47
-0.822407 -0.199962 -0.217266 47
-0.824434 -0.359677 -0.199342 42
-7.21507 -1.71633 1.70143 33
-7.27699 -3.19206 2.11697 35
-7.29112 -1.73574 1.17887 32
-7.26951 -3.17371 1.53368 35
-7.29962 -1.73909 0.65345 20
-7.35892 -3.20062 0.979654 33
-1.68486 -0.402192 0.0296255 58
-3.15199 -1.36531 0.178204 3
-0.670053 -0.160683 -0.0343942 53
-2.10166 -0.907745 -0.0393552 4
-0.823218 -0.196638 -0.0994866 50
-0.842272 -0.360833 -0.076979 53
-0.8218 -0.196004 -0.157135 50
-0.830626 -0.356254 -0.137814 47
-0.82811 -0.196907 -0.21856 49
-0.82184 -0.353406 -0.198219 42
-7.21301 -1.70387 1.7003 33
-7.26706 -3.17258 2.11244 33
-7.29174 -1.72244 1.17848 32
-7.26154 -3.15514 1.53082 35
-7.29779 -1.7252 0.653014 20
-7.35539 -3.18383 0.978437 33
-1.68556 -0.399251 0.0296255 56
-3.14063 -1.35386 0.177419 3
-0.670333 -0.159513 -0.0343942 53
-2.10553 -0.905067 -0.0393988 4
-0.828391 -0.196337 -0.100095 53
-0.8429 -0.359362 -0.076979 53
-0.826919 -0.195692 -0.158087 50
-0.826715 -0.352841 -0.137031 49
-0.826101 -0.19491 -0.217913 47
-0.820221 -0.351001 -0.197658 42
-7.215 -1.66318 1.69862 35
-7.26583 -3.12684 2.10727 33
-7.30065 -1.68424 1.17848 33
-7.26443 -3.11127 1.52796 35
-7.28489 -1.68193 0.651053 17
-7.36055 -3.14039 0.976916 33
-1.68275 -0.389297 0.0295382 56
-0.673619 -0.156444 -0.0345255 53
-2.12174 -0.89893 -0.039617 4
-0.826989 -0.191441 -0.0997908 52
-0.844832 -0.354797 -0.076979 53
-0.830324 -0.191909 -0.158563 50
-0.830822 -0.349477 -0.137423 47
-0.824756 -0.190044 -0.217266 47
-0.824287 -0.34766 -0.198219 44
-7.21077 -1.64896 1.69694 35
-7.26462 -3.1113 2.10533 33
-7.30118 -1.67094 1.17809 33
-7.25684 -3.09154 1.5251 33
-7.28538 -1.66866 0.650836 17
-7.34775 -3.11977 0.974482 32
-1.68593 -0.386622 0.0295818 56
-0.673891 -0.155268 -0.0345255 53
-0.827322 -0.189998 -0.0997908 52
-0.84545 -0.353321 -0.076979 53
-0.823479 -0.188826 -0.157135 49
-0.826885 -0.346096 -0.136639 47
-0.822764 -0.187926 -0.21662 47
-0.820411 -0.344311 -0.197096 44
-7.21245 -1.60833 1.69525 33
-7.27245 -3.06819 2.10275 33
-7.05945 -1.57553 1.1375 1
-7.25936 -3.0478 1.52224 33
-7.28701 -1.62759 0.650182 15
-7.35766 -3.0771 0.973569 33
-1.68793 -0.37779 0.0295818 58
-0.674695 -0.151737 -0.0345255 55
-0.828338 -0.185519 -0.0997908 53
-0.840395 -0.346009 -0.0763266 53
-0.822092 -0.183836 -0.156659 50
-0.828746 -0.341617 -0.136639 49
-0.826095 -0.184137 -0.217266 49
-0.815523 -0.337039 -0.195412 42
-7.20546 -1.5949 1.693 35
-7.25553 -3.04613 2.09629 33
-7.06219 -1.5632 1.1375 1
-7.25108 -3.02944 1.51938 33
-7.28255 -1.61325 0.649528 15
-7.34698 -3.05757 0.971439 33
-1.68371 -0.373763 0.0294946 56
-0.672521 -0.150021 -0.0343942 55
-0.821391 -0.18247 -0.0988781 50
-0.836398 -0.342629 -0.0758917 53
-0.822412 -0.182401 -0.156659 52
-0.827061 -0.339221 -0.136248 47
-0.821697 -0.18166 -0.215973 47
-0.822853 -0.338432 -0.197096 44
-7.20656 -1.55561 1.69132 35
-7.2597 -3.00474 2.09306 33
-7.30656 -1.5785 1.17575 35
-7.25952 -2.98989 1.51795 33
-7.29549 -1.57743 0.649964 15
-7.35319 -3.01657 0.970222 33
-1.68314 -0.364709 0.0294509 56
-0.668416 -0.145446 -0.0341317 53
-0.819878 -0.177789 -0.0985738 50
-0.840485 -0.339189 -0.0761091 53
-0.820925 -0.17772 -0.156182 50
-0.831052 -0.335968 -0.136639 47
-0.817883 -0.176488 -0.21468 47
-0.822303 -0.333335 -0.196535 42
-7.2045 -1.54201 1.6902 33
-7.2627 -2.99114 2.09241 35
-7.29965 -1.56367 1.17418 35
-7.25162 -2.97036 1.51509 33
-7.28849 -1.5626 0.649092 15
-7.34236 -2.99716 0.968093 32
-1.68628 -0.362 0.0294946 58
-0.668669 -0.144279 -0.0341317 53
-0.815333 -0.175322 -0.0979654 50
-0.83877 -0.336782 -0.0758917 53
-0.823635 -0.176798 -0.156659 50
-0.829351 -0.333583 -0.136248 47
-0.825308 -0.17642 -0.21662 47
-0.820629 -0.330976 -0.195973 42
-7.20797 -1.50201 1.68907 35
-7.26759 -2.94726 2.08918 35
-7.29591 -1.52164 1.17223 35
-7.2648 -2.93143 1.51462 35
-7.29927 -1.52365 0.64931 17
-7.34466 -2.95183 0.966267 32
-1.68815 -0.353166 0.0294946 58
-0.669415 -0.140776 -0.0341317 53
-0.825988 -0.172926 -0.0991823 52
-0.842833 -0.333313 -0.0761091 53
-0.819773 -0.171343 -0.155706 50
-0.826505 -0.327393 -0.135465 47
-0.82622 -0.172097 -0.21662 49
-0.822408 -0.326531 -0.195973 42
-7.19362 -1.48724 1.68514 33
-7.26153 -2.93005 2.08595 35
-7.29588 -1.50967 1.17184 35
-7.25852 -2.91416 1.51223 36
-7.29217 -1.5089 0.648439 20
-7.34468 -2.93844 0.965659 33
-1.67652 -0.347691 0.0292764 55
-0.667215 -0.139103 -0.0340004 53
-0.823829 -0.171128 -0.0988781 53
-0.845726 -0.332766 -0.0763266 53
-0.820071 -0.169912 -0.155706 50
-0.83166 -0.327785 -0.136248 47
-0.81469 -0.168233 -0.213387 47
-0.820659 -0.324331 -0.195412 41
-7.19892 -1.44907 1.68458 35
-7.26729 -2.88968 2.08336 33
-7.05192 -1.42078 1.13126 1
-7.25721 -2.87106 1.5089 35
-7.29239 -1.47049 0.647785 26
-7.34612 -2.89448 0.963833 29
-1.67826 -0.339201 0.0292764 55
-0.667934 -0.135607 -0.0340004 53
-0.829579 -0.167788 -0.0994866 53
-0.842821 -0.326509 -0.0758917 53
-0.825733 -0.166723 -0.156659 52
-0.828771 -0.321615 -0.135465 47
-0.820268 -0.165052 -0.21468 47
-0.817816 -0.318237 -0.194288 42
-7.20144 -1.43651 1.68458 36
-7.25212 -2.86898 2.07755 32
-7.03986 -1.40557 1.12892 1
-7.28761 -1.4563 0.647131 32
-1.67156 -0.334513 0.0291455 58
-0.668169 -0.134441 -0.0340004 53
-0.820136 -0.164405 -0.0982696 53
-0.845709 -0.325946 -0.0761091 53
-0.818801 -0.163849 -0.15523 50
-0.831629 -0.321069 -0.135856 47
-0.815845 -0.162541 -0.213387 47
-0.820637 -0.317701 -0.19485 39
-7.20432 -1.3966 1.68346 36
-7.04493 -1.36699 1.12853 1
-7.29539 -1.41685 0.647131 36
-1.6831 -0.327658 0.02932 58
-0.671315 -0.131415 -0.0341317 53
-0.823449 -0.160436 -0.0985738 53
-0.840433 -0.318826 -0.0754568 52
-0.822085 -0.159881 -0.155706 52
-0.828692 -0.314931 -0.135073 47
-0.823799 -0.159633 -0.215327 50
-0.815528 -0.310617 -0.193165 42
-7.19694 -1.38344 1.68121 36
-7.0301 -1.35266 1.1258 1
-3.16375 -1.21624 0.651504 9
-3.08884 -1.18303 0.401293 11
-1.6714 -0.322363 0.0291019 59
-0.66664 -0.129303 -0.0338691 53
-1.70759 -0.649341 -0.0312834 38
-0.8237 -0.159142 -0.0985738 53
-0.843313 -0.31825 -0.0756742 53
-0.817542 -0.157525 -0.154754 52
-0.829241 -0.313484 -0.135073 47
-0.81696 -0.156841 -0.213387 47
-0.818288 -0.310212 -0.193727 42
-7.20648 -1.34618 1.68177 36
-7.03708 -1.31583 1.1258 1
-3.13545 -1.18712 0.644355 3
-3.08803 -1.1642 0.40038 11
-1.68283 -0.315735 0.0292764 58
-0.66974 -0.126385 -0.0340004 53
-1.70618 -0.638924 -0.0311962 53
-0.826962 -0.155281 -0.0988781 53
-0.844913 -0.313978 -0.0756742 53
-0.825567 -0.15473 -0.156182 52
-0.826252 -0.307391 -0.13429 49
-0.822492 -0.153583 -0.21468 49
-0.817624 -0.305059 -0.193165 42
-7.19661 -1.33265 1.67897 36
-7.03208 -1.3022 1.12463 1
-3.16507 -1.19207 0.650074 2
-7.02562 -1.30226 0.622074 1
-3.10399 -1.16406 0.402206 11
-1.67601 -0.311434 0.0291455 58
-0.66505 -0.124308 -0.0337378 53
-0.822351 -0.152938 -0.0982696 50
-0.847791 -0.313378 -0.0758917 52
-0.816181 -0.151513 -0.154278 50
-0.831409 -0.307688 -0.135073 47
-0.820383 -0.151712 -0.214033 47
-0.822713 -0.305352 -0.194288 44
-7.20611 -1.29412 1.67953 35
-7.03638 -1.26493 1.12424 1
-3.15056 -1.16777 0.645785 2
-7.02744 -1.26458 0.621638 1
-3.12401 -1.15296 0.404031 3
-1.67762 -0.302654 0.0291455 59
-1.706 -0.625967 0.0934197 45
-0.670627 -0.121589 -0.0340004 55
-0.823141 -0.14863 -0.0982696 53
-0.84013 -0.305334 -0.0750219 53
-0.824211 -0.148531 -0.155706 50
-0.828378 -0.301615 -0.13429 47
-0.821167 -0.147415 -0.214033 47
-0.819734 -0.299344 -0.193165 42
-7.19636 -1.27941 1.67672 35
-7.03128 -1.25135 1.12307 1
-3.1482 -1.16002 0.644832 2
-7.02228 -1.251 0.620985 1
-3.11903 -1.14493 0.403118 11
-1.67573 -0.298996 0.0291019 61
-1.70943 -0.62385 0.0935505 47
-0.665922 -0.119546 -0.0337378 55
-1.70465 -0.621424 -0.0310653 50
-0.820955 -0.146761 -0.0979654 53
-0.842999 -0.304726 -0.0752393 53
-0.822053 -0.146665 -0.15523 50
-0.828903 -0.300169 -0.13429 47
-0.816691 -0.145002 -0.21274 47
-0.820255 -0.297912 -0.193165 42
-7.20318 -1.24046 1.67672 35
-7.03551 -1.21287 1.12268 1
-3.13578 -1.1368 0.641019 2
-7.0314 -1.21341 0.621203 1
-3.12285 -1.1272 0.402814 2
-1.67235 -0.289369 0.0290146 44
-1.70574 -0.612044 0.093158 47
-0.668999 -0.116481 -0.0338691 55
-1.69858 -0.608793 -0.0308908 52
-0.819292 -0.141898 -0.0976611 50
-0.839899 -0.298614 -0.0748044 53
-0.820415 -0.141802 -0.154754 52
-0.828142 -0.294983 -0.133899 47
-0.817439 -0.140723 -0.21274 49
-0.821855 -0.29347 -0.193165 45
-7.19792 -1.22791 1.67504 35
-7.03254 -1.20099 1.12189 1
-3.13314 -1.12966 0.640066 2
-7.04578 -1.20323 0.622292 1
-3.12228 -1.12145 0.40251 2
-1.68271 -0.288129 0.0291891 14
-1.70435 -0.608518 0.0930272 47
-0.664279 -0.114476 -0.0336066 55
-1.702 -0.606673 -0.0309344 52
-0.82196 -0.141026 -0.0979654 50
-0.840419 -0.297148 -0.0748044 53
-0.823081 -0.140779 -0.15523 52
-0.824009 -0.291863 -0.133116 47
-0.817684 -0.139296 -0.21274 47
-0.813151 -0.288865 -0.190919 42
-7.19463 -1.18862 1.67279 35
-7.02899 -1.16254 1.12033 1
-3.11802 -1.10637 0.635777 2
-7.05178 -1.16755 0.622292 1
-3.11875 -1.10176 0.401293 2
-1.70387 -0.282868 0.0295382 12
-1.70516 -0.598753 0.0928963 49
-0.667333 -0.111402 -0.0337378 55
-1.69562 -0.594717 -0.0307599 50
-0.820239 -0.136318 -0.0976611 53
-0.839615 -0.291913 -0.074587 53
-0.823783 -0.136611 -0.15523 52
-0.823199 -0.28672 -0.132724 49
-0.815995 -0.134767 -0.212093 47
-0.816947 -0.28542 -0.191481 44
-7.19429 -1.17567 1.67223 35
-7.0237 -1.14907 1.11916 1
-7.04152 -1.15323 0.621203 1
-3.10897 -1.09219 0.399772 2
-1.70149 -0.594117 0.0926346 50
-0.662598 -0.109434 -0.0334753 55
-1.6943 -0.590927 -0.0307162 52
-0.822924 -0.135284 -0.0979654 53
-0.840123 -0.290447 -0.074587 53
-0.821598 -0.13478 -0.154754 52
-0.828356 -0.286924 -0.133507 47
-0.818636 -0.133585 -0.21274 49
-0.812851 -0.282369 -0.190358 42
-7.20295 -1.13711 1.67279 36
-7.02493 -1.11028 1.11838 1
-7.27397 -1.15088 0.641248 36
-3.1078 -1.07291 0.398859 2
-1.69288 -0.58082 0.0919804 47
-0.663162 -0.105963 -0.0334753 55
-1.69511 -0.580935 -0.0306726 52
-0.828547 -0.1316 -0.0985738 53
-0.834572 -0.283602 -0.0739346 55
-0.822315 -0.130333 -0.154754 52
-0.822848 -0.280157 -0.132333 47
-0.816938 -0.128924 -0.212093 47
-0.814367 -0.277967 -0.190358 45
-7.1927 -1.12391 1.66998 35
-7.02179 -1.09849 1.1176 1
-7.28827 -1.14011 0.642338 32
-3.12825 -1.07451 0.401293 3
-1.69615 -0.578973 0.0921113 49
-0.660879 -0.104421 -0.033344 55
-1.69848 -0.578788 -0.0307162 52
-0.823849 -0.129536 -0.0979654 53
-0.835065 -0.282145 -0.0739346 53
-0.820116 -0.128522 -0.154278 52
-0.82567 -0.279525 -0.132724 47
-0.814775 -0.12713 -0.211447 49
-0.814802 -0.276687 -0.190358 45
-7.0154 -1.05865 1.62731 1
-7.3058 -1.1037 1.16209 41
-7.28902 -1.10246 0.641902 27
-3.13853 -1.05971 0.401901 3
-1.69916 -0.570084 0.0921113 49
-0.663868 -0.101446 -0.0334753 56
-1.69192 -0.566981 -0.0305417 53
-0.819608 -0.124483 -0.0973569 53
-0.831764 -0.276319 -0.0734997 53
-0.818329 -0.124005 -0.153802 52
-0.827122 -0.275198 -0.132724 47
-0.817797 -0.12336 -0.212093 47
-0.807014 -0.26928 -0.188112 44
-7.12067 -1.06308 1.65145 14
-7.29794 -1.08949 1.16053 41
-7.02491 -1.05003 0.61837 1
-1.69779 -0.566321 0.0919804 49
-0.664044 -0.100287 -0.0334753 55
-1.69764 -0.56562 -0.030629 53
-0.822279 -0.123417 -0.0976611 53
-0.834606 -0.27566 -0.0737171 53
-0.820972 -0.122936 -0.154278 50
-0.825261 -0.272966 -0.132333 47
-0.8204 -0.122285 -0.21274 50
-0.809791 -0.268651 -0.188673 44
-7.0805 -1.01796 1.64078 26
-7.02491 -1.01121 1.11604 1
-7.01059 -1.01039 0.616627 1
-1.69362 -0.555072 0.0915879 49
-0.662106 -0.0963388 -0.033344 55
-1.69109 -0.553588 -0.0304544 52
-0.820457 -0.118759 -0.0973569 53
-0.83845 -0.271922 -0.0739346 53
-0.819174 -0.118289 -0.153802 50
-0.821991 -0.267089 -0.13155 47
-0.82342 -0.118327 -0.213387 50
-0.811186 -0.264408 -0.188673 44
-7.06297 -1.00286 1.63629 26
-7.02177 -0.998257 1.11526 1
-7.00988 -0.997805 0.616409 1
-1.69458 -0.552116 0.0915879 49
-0.664745 -0.0955331 -0.0334753 55
-1.6968 -0.552195 -0.0305417 55
-0.82312 -0.117673 -0.0976611 53
-0.834191 -0.268904 -0.0734997 53
-0.816949 -0.116517 -0.153325 50
-0.820111 -0.264882 -0.131158 47
-0.814079 -0.115407 -0.2108 47
-0.81396 -0.263756 -0.189235 45
-7.07312 -0.965289 1.63741 26
-7.02218 -0.959584 1.11448 1
