# .PCD v0.7 - Point Cloud Data file format
VERSION 0.7
FIELDS x y z intensity
SIZE 4 4 4 4
TYPE F F F F
COUNT 1 1 1 1
WIDTH 1539
HEIGHT 1
VIEWPOINT 0 0 0 1 0 0 0
POINTS 1539
DATA ascii
-0.70875 -0.580656 -0.0463403 33
-1.37935 -1.59914 -0.0362574 14
-2.66183 -2.17428 -0.417113 35
-1.33036 -1.54262 -0.174834 12
-1.37865 -1.1258 -0.338554 12
-1.33419 -1.54922 -0.318695 14
-2.40462 -1.9595 -0.821215 8
-1.16786 -1.35798 -0.404861 9
-6.63073 -5.3617 1.95748 11
-6.64309 -5.37359 1.34471 12
-4.73766 -5.48122 1.40023 9
-4.72625 -5.45265 0.880471 11
-2.67747 -2.16686 0.0595127 17
-0.71168 -0.577061 -0.0463403 33
-1.38907 -1.59403 -0.036301 14
-2.67704 -2.16343 -0.417722 36
-1.33815 -1.53586 -0.174834 14
-1.39197 -1.12497 -0.340459 12
-1.35333 -1.55551 -0.321436 14
-2.42015 -1.95185 -0.823155 8
-1.17336 -1.35 -0.4043 9
-6.63535 -5.34822 1.95636 9
-6.63614 -5.35075 1.34159 14
-4.75525 -5.48222 1.40262 8
-4.73156 -5.44147 0.879863 11
-2.69098 -2.17003 0.0597309 14
-0.712686 -0.575818 -0.0463403 33
-1.39841 -1.59914 -0.0364755 14
-2.69396 -2.17011 -0.419852 35
-1.34901 -1.54292 -0.175921 14
-1.39775 -1.12562 -0.341411 12
-1.35604 -1.55315 -0.321436 14
-2.42732 -1.95064 -0.824448 8
-1.16591 -1.33711 -0.40093 9
-6.68993 -5.33466 1.96422 11
-6.65441 -5.30823 1.33964 12
-4.77486 -5.44885 1.40023 8
-0.5677 -0.454637 0.0605732 15
-4.76653 -5.42408 0.88108 8
-2.70388 -2.15794 0.0597745 12
-0.707783 -0.565979 -0.0458152 33
-1.41309 -1.59955 -0.0366501 14
-2.71305 -2.16216 -0.421069 35
-1.40535 -1.12006 -0.341887 12
-1.36904 -1.55159 -0.32261 14
-2.43716 -1.93833 -0.824448 8
-1.16005 -1.31633 -0.396438 4
-6.72119 -5.34233 1.97096 9
-6.69266 -5.31965 1.34549 12
-4.7876 -5.44419 1.40119 8
-0.564594 -0.450546 0.0601375 15
-4.80387 -5.44741 0.886252 4
-2.73309 -2.17343 0.0603417 8
-0.70486 -0.561637 -0.0455526 32
-1.41919 -1.60083 -0.0367373 14
-2.73043 -2.16822 -0.423198 35
-1.37665 -1.55476 -0.323785 14
-1.15591 -1.30699 -0.394192 3
-6.77681 -5.32696 1.97882 8
-6.75343 -5.31048 1.35213 14
-4.83884 -5.44475 1.40786 4
-0.56303 -0.444505 0.0597017 15
-4.88347 -5.47965 0.895683 4
-0.71368 -0.562566 -0.0459465 33
-1.42921 -1.59525 -0.0367809 14
-2.75931 -2.16768 -0.425936 32
-1.1417 -1.27725 -0.386892 4
-6.97504 -5.46502 2.03441 9
-3.28414 -3.69294 1.31309 3
-6.91627 -5.41897 1.38295 11
-4.92669 -5.52426 1.43074 4
-0.554003 -0.435842 0.0586122 15
-4.93931 -5.52293 0.904202 9
-0.706798 -0.555164 -0.0454214 32
-1.43866 -1.6002 -0.0369555 14
-2.77287 -2.17051 -0.427458 17
-1.13419 -1.26435 -0.383523 3
-3.3002 -3.6721 1.3118 4
-4.99987 -5.54764 1.4436 11
-0.554309 -0.431409 0.0583943 15
-5.00141 -5.53384 0.910287 11
-0.709695 -0.551455 -0.0454214 33
-1.4487 -1.5945 -0.0369991 14
-1.14569 -1.26382 -0.385208 4
-3.2856 -3.643 1.30339 4
-5.02271 -5.55347 1.44742 12
-0.559003 -0.433486 0.0588301 15
-5.02842 -5.54621 0.913633 9
-0.70868 -0.54869 -0.0452901 33
-1.45988 -1.60122 -0.0372173 14
-1.14277 -1.2566 -0.383523 4
-3.28775 -3.60845 1.29693 4
-2.87999 -2.20208 0.567386 3
-5.06068 -5.53886 1.45028 11
-0.557232 -0.427626 0.0583943 15
-5.06074 -5.52346 0.914242 9
-0.715512 -0.548002 -0.0455526 35
-1.46797 -1.59381 -0.0372173 14
-1.15098 -1.25239 -0.384085 3
-2.86707 -2.18352 0.822637 2
-3.28102 -3.58844 1.29176 8
-2.84846 -2.17013 0.560362 9
-5.08456 -5.54361 1.45409 11
-0.555996 -0.425144 0.0581765 17
-5.09219 -5.53838 0.918197 9
-0.712493 -0.54373 -0.0452901 35
-1.47752 -1.59861 -0.0373918 14
-1.14987 -1.24679 -0.382962 4
-2.86327 -2.15626 0.818145 9
-2.85424 -2.15023 0.559191 11
-5.13186 -5.53672 1.45933 9
-0.550331 -0.416137 0.0573049 15
-5.13897 -5.52894 0.921239 9
-0.71533 -0.539992 -0.0452901 35
-1.48785 -1.59242 -0.0374354 14
-1.1566 -1.24055 -0.382962 12
-2.86665 -2.15176 0.818145 8
-2.86984 -2.15414 0.561533 15
-5.15822 -5.54574 1.4641 8
-0.551056 -0.415176 0.0573049 15
-5.16214 -5.53449 0.923673 9
-0.712277 -0.535747 -0.0450275 33
-1.49233 -1.59165 -0.037479 14
-1.15047 -1.22961 -0.380154 12
-2.88021 -2.13767 0.818707 2
-2.88505 -2.14202 0.562313 1
-5.19726 -5.52939 1.46696 8
-0.547222 -0.407832 0.0566512 18
-5.20635 -5.52364 0.926412 1
-0.663629 -0.494041 0.013831 14
-0.713067 -0.530523 -0.0448963 35
-1.50579 -1.58927 -0.0376099 14
-1.15355 -1.22002 -0.379031 14
-2.88748 -2.13604 0.81983 2
-2.89275 -2.13992 0.563094 1
-5.23551 -5.55068 1.47506 1
-0.545931 -0.405396 0.0564333 18
-5.19554 -5.4929 0.922761 11
-0.65042 -0.482481 0.0135256 14
-0.713992 -0.529278 -0.0448963 35
-1.51371 -1.59208 -0.0377408 14
-0.867332 -0.64051 -0.279342 44
-1.15568 -1.21801 -0.379031 14
-2.90846 -2.12808 0.822637 2
-2.90554 -2.12671 0.563484 2
-5.22801 -5.48677 1.46505 8
-0.543956 -0.399686 0.0559976 18
-5.20443 -5.44679 0.919414 9
-0.648818 -0.476232 0.0134384 14
-0.710706 -0.521113 -0.0445024 36
-1.52348 -1.58621 -0.0377845 14
-0.862039 -0.630801 -0.200466 41
-0.866659 -0.633267 -0.278049 42
-1.15175 -1.20156 -0.375662 14
-0.649731 -0.474985 0.0134384 14
-0.70556 -0.515463 -0.0441086 35
-1.52625 -1.58354 -0.0377845 14
-0.861153 -0.627852 -0.19999 41
-0.863964 -0.628765 -0.276756 42
-1.15048 -1.19603 -0.374539 14
-0.710275 -0.513221 -0.0442399 35
-1.54001 -1.58065 -0.0379153 14
-0.864538 -0.623184 -0.19999 41
-0.869206 -0.625641 -0.277403 42
-1.15524 -1.18803 -0.373977 14
-0.703056 -0.506159 -0.0437148 35
-1.54451 -1.57975 -0.037959 14
-0.860465 -0.618654 -0.125651 41
-0.865624 -0.621674 -0.19999 41
-0.866368 -0.621314 -0.276109 42
-1.1571 -1.18622 -0.373977 14
-3.20826 -3.26246 0.55676 3
-0.641138 -0.456996 0.0131329 14
-0.709769 -0.50536 -0.0439773 38
-1.556 -1.57547 -0.0380462 14
-0.867741 -0.61701 -0.12626 41
-1.51901 -1.53785 -0.185706 15
-0.862752 -0.613028 -0.198561 41
-0.871473 -0.618316 -0.276756 42
-1.15648 -1.17318 -0.371731 14
-3.09269 -2.18904 0.865314 2
-3.19988 -3.26289 1.21357 2
-3.09986 -2.19491 0.594702 3
-3.21286 -3.26367 0.882652 1
-3.22091 -3.26392 0.557977 9
-0.635892 -0.451434 0.013002 14
-0.704534 -0.499797 -0.0435835 36
-1.56225 -1.57631 -0.0381335 14
-0.864763 -0.612631 -0.125651 41
-1.52694 -1.54051 -0.186359 15
-0.857806 -0.607275 -0.197133 41
-1.52862 -1.54433 -0.339054 14
-0.864763 -0.611077 -0.274169 42
-1.15852 -1.17116 -0.371731 14
-3.10648 -2.17367 0.865875 4
-3.21239 -3.24038 1.21163 1
-3.09145 -2.16395 0.590799 9
-3.20224 -3.21893 0.875027 1
-3.24028 -3.24821 0.558281 8
-0.630053 -0.442368 0.0128275 14
-0.707141 -0.496101 -0.0435835 36
-1.57782 -1.57492 -0.038308 14
-0.855858 -0.599419 -0.123826 41
-1.53498 -1.53249 -0.186359 15
-0.865104 -0.605434 -0.198085 42
-1.54192 -1.54156 -0.340228 14
-0.869932 -0.607922 -0.274816 42
-1.16312 -1.16315 -0.37117 14
-3.08391 -2.15069 0.858575 9
-3.23335 -3.2502 1.21745 3
-3.09282 -2.15768 0.590409 9
-0.630825 -0.441267 0.0128275 14
-0.710055 -0.496293 -0.0437148 38
-1.57703 -1.56863 -0.0382208 14
-0.860872 -0.600909 -0.124434 42
-1.54294 -1.53509 -0.187011 15
-0.858099 -0.598319 -0.19618 42
-1.54984 -1.5441 -0.341403 14
-0.867024 -0.603648 -0.273523 42
-1.15635 -1.1527 -0.368362 14
-3.11118 -2.14557 0.863067 8
-3.10001 -2.13865 0.589629 8
-0.628934 -0.435231 0.0127403 15
-0.70639 -0.488443 -0.043321 38
-0.853787 -0.589359 -0.122913 42
-1.55423 -1.53077 -0.187446 15
-0.857072 -0.591187 -0.195228 41
-1.55966 -1.53771 -0.341794 14
-0.870068 -0.599252 -0.273523 42
-1.16583 -1.15006 -0.369485 14
-3.11655 -2.14206 0.863629 2
-3.08745 -2.12206 0.586507 2
-5.48908 -5.41379 0.941015 12
-0.61733 -0.425642 0.0124785 15
-0.7093 -0.488622 -0.0434522 38
-0.85686 -0.589271 -0.123217 42
-1.55868 -1.5298 -0.187663 15
-0.854054 -0.586915 -0.194276 41
-1.57113 -1.54365 -0.343752 14
-0.871113 -0.597733 -0.273523 42
-1.16437 -1.1446 -0.368362 14
-3.12406 -2.12243 0.862506 2
-3.09648 -2.10447 0.586117 2
-5.52978 -5.39711 0.943145 12
-0.623686 -0.425213 0.0125657 15
-0.705652 -0.480695 -0.0430584 38
-0.85788 -0.583384 -0.122913 42
-1.57201 -1.52684 -0.188316 15
-0.857115 -0.582435 -0.194276 42
-1.57212 -1.5285 -0.342186 12
-0.87023 -0.590457 -0.27223 42
-1.17209 -1.14019 -0.368923 14
-3.1395 -2.12571 0.865875 2
-5.53401 -5.41624 2.06269 11
-3.13492 -2.12259 0.592751 2
-5.63163 -5.47748 0.958965 14
-0.622356 -0.422723 0.0125221 15
-0.708558 -0.480861 -0.0431897 38
-0.860953 -0.583275 -0.123217 42
-1.57825 -1.52756 -0.188751 15
-0.862199 -0.583685 -0.195228 42
-1.57125 -1.52231 -0.341403 11
-0.859244 -0.580839 -0.26835 42
-1.17582 -1.13984 -0.369485 15
-3.15298 -2.11004 0.866437 3
-5.66805 -5.48975 2.1021 8
-3.14393 -2.10477 0.59236 4
-5.67202 -5.47451 1.52415 12
-5.67453 -5.46169 0.961399 14
-0.622484 -0.418069 0.0124785 15
-0.708991 -0.475757 -0.0430584 39
-0.859868 -0.576002 -0.122609 41
-1.58981 -1.52273 -0.189186 15
-0.855036 -0.57235 -0.192847 42
-1.57386 -1.50893 -0.340228 11
-0.862274 -0.576332 -0.26835 42
-1.18002 -1.13198 -0.368923 15
-3.16643 -2.11184 0.869244 3
-5.69499 -5.49663 2.10857 9
-3.17226 -2.11572 0.597043 3
-5.69394 -5.47651 1.52748 12
-5.68226 -5.45006 0.961095 14
-0.612812 -0.410051 0.0122603 15
-0.703587 -0.470367 -0.0426646 39
-0.852609 -0.569002 -0.121392 41
-1.59606 -1.5234 -0.18962 15
-0.851947 -0.568139 -0.191895 41
-1.55868 -1.48908 -0.336313 11
-0.855231 -0.569483 -0.265763 42
-1.18375 -1.1316 -0.369485 15
-3.17577 -2.09334 0.868683 3
-5.73766 -5.48009 2.11374 11
-3.18948 -2.10315 0.598214 3
-5.72431 -5.44832 1.52796 12
-5.71432 -5.42365 0.961703 12
-0.617038 -0.408212 0.0123039 15
-0.703955 -0.465303 -0.0425333 39
-2.30833 -2.18241 -0.0548442 36
-0.853504 -0.563166 -0.121088 41
-1.60763 -1.51845 -0.190055 15
-0.856961 -0.565019 -0.192371 42
-1.56466 -1.4792 -0.335922 11
-0.86022 -0.566323 -0.26641 42
-1.18789 -1.12371 -0.368923 15
-5.75421 -5.47673 2.11632 11
-5.73203 -5.43663 1.52748 12
-3.19905 -2.10224 0.331845 2
-5.749 -5.43755 0.965963 11
-0.609391 -0.401648 0.0121294 15
-0.704766 -0.464074 -0.0425333 36
-2.32122 -2.18696 -0.0550623 36
-0.850334 -0.558955 -0.120479 41
-1.61571 -1.52078 -0.190708 15
-0.857945 -0.563522 -0.192371 42
-1.56186 -1.47138 -0.334747 11
-0.857164 -0.562177 -0.265117 42
-1.18985 -1.12164 -0.368923 14
-5.77402 -5.43824 2.11309 9
-5.76221 -5.40822 1.52796 11
-3.19539 -2.07597 0.33032 2
-5.75023 -5.38193 0.961399 9
-0.613582 -0.399812 0.0121731 15
-0.705092 -0.459019 -0.042402 39
-2.33994 -2.1816 -0.0552369 36
-0.851167 -0.553146 -0.120175 41
-1.62911 -1.5174 -0.19136 14
-0.854704 -0.555021 -0.190942 42
-1.56774 -1.46149 -0.334356 11
-0.858068 -0.55637 -0.26447 42
-1.19926 -1.11872 -0.370046 14
-5.79054 -5.43477 2.11567 9
-5.77701 -5.40319 1.52939 9
-3.18437 -2.06092 0.328795 2
-5.82309 -5.43116 0.972048 8
-0.614279 -0.398741 0.0121731 15
-0.703795 -0.456432 -0.0422708 38
-2.35289 -2.18604 -0.055455 35
-0.856301 -0.554351 -0.120783 41
-1.64268 -1.52474 -0.192665 14
-0.849484 -0.549538 -0.189514 42
-1.56668 -1.45538 -0.333573 11
-0.854977 -0.552257 -0.263177 42
-1.19765 -1.1133 -0.368923 15
-5.87374 -5.45536 2.13571 8
-5.90063 -5.46128 1.55465 11
-3.17833 -2.03349 0.327052 2
-5.90248 -5.44775 0.980566 11
-0.614252 -0.394173 0.0121294 15
-0.704071 -0.451397 -0.0421395 38
-2.36981 -2.17877 -0.0555859 36
-0.850824 -0.544521 -0.119566 41
-1.65247 -1.51781 -0.192882 14
-0.852349 -0.545082 -0.189514 42
-1.57065 -1.44381 -0.33279 11
-0.859894 -0.54907 -0.263823 44
-1.20704 -1.11032 -0.370046 15
-5.94348 -5.50091 2.15768 12
-5.91556 -5.45596 1.55608 12
-3.15666 -2.01188 0.324437 9
-5.9065 -5.4324 0.979654 11
-0.610722 -0.390416 0.0120422 15
-0.702752 -0.448827 -0.0420082 39
-2.38466 -2.18478 -0.0558477 36
-0.853867 -0.544366 -0.119871 41
-1.65879 -1.51829 -0.193317 4
-0.857443 -0.546226 -0.190466 42
-1.57862 -1.44608 -0.333964 11
-0.860851 -0.547568 -0.263823 44
-1.20719 -1.10657 -0.369485 14
-6.02026 -5.51378 2.17512 11
-5.94586 -5.42657 1.55656 9
-5.9422 -5.40808 0.980871 11
-0.702979 -0.443812 -0.0418769 39
-2.40161 -2.17731 -0.0559786 36
-0.852504 -0.537248 -0.119262 41
-1.6704 -1.51294 -0.193752 4
-0.858213 -0.540424 -0.18999 42
-1.58252 -1.43447 -0.333181 11
-0.853475 -0.53664 -0.26059 42
-1.21836 -1.10516 -0.37117 14
-6.04236 -5.51467 2.17965 11
-5.94806 -5.40958 1.55465 9
-5.92591 -5.37435 0.976611 8
-0.701637 -0.441259 -0.0417456 39
-2.41652 -2.18318 -0.0562404 35
-0.851337 -0.534443 -0.118958 41
-0.850831 -0.53372 -0.188085 42
-1.58136 -1.42839 -0.332398 11
-0.854411 -0.53515 -0.26059 42
-1.22209 -1.10467 -0.371731 14
-6.08369 -5.4943 2.18417 11
-5.97084 -5.37343 1.55322 9
-7.42111 -4.60112 0.76087 39
-0.596322 -0.371077 0.0116495 15
-0.70606 -0.438894 -0.0418769 39
-2.43536 -2.17718 -0.0564149 35
-0.856233 -0.531283 -0.119262 41
-0.849439 -0.526677 -0.187133 42
-1.58331 -1.41514 -0.331223 11
-0.855146 -0.529401 -0.259944 42
-1.22605 -1.09662 -0.37117 14
-7.31811 -4.51789 1.97433 35
-6.1148 -5.50307 2.19193 9
-7.30829 -4.51181 1.35174 41
-7.39946 -4.56984 0.757819 35
-0.596969 -0.370036 0.0116495 15
-0.702575 -0.435039 -0.0416144 41
-2.44848 -2.18125 -0.0566331 36
-0.850822 -0.525883 -0.118349 41
-0.850357 -0.525193 -0.187133 41
-1.5913 -1.41731 -0.332398 11
-0.860183 -0.530437 -0.261237 42
-1.23159 -1.09773 -0.372293 14
-7.31827 -4.46173 1.96759 35
-6.17153 -5.49401 2.20162 11
-7.31995 -4.46449 1.3494 42
-7.40919 -4.52066 0.756294 32
-0.603231 -0.369403 0.0117367 15
-0.704919 -0.431232 -0.0416144 41
-2.46961 -2.17625 -0.0568512 35
-0.851535 -0.519981 -0.118045 41
-0.851089 -0.51931 -0.186657 41
-1.59685 -1.40733 -0.332007 11
-0.85272 -0.519507 -0.258004 42
-1.24298 -1.0959 -0.373977 14
-7.2982 -4.43379 1.96029 30
-6.20278 -5.50247 2.20937 9
-7.30162 -4.4376 1.34471 36
-7.40217 -4.49867 0.754769 32
-6.57331 -5.79691 1.07032 2
-0.603875 -0.36835 0.0117367 15
-0.707805 -0.431296 -0.0417456 41
-2.48466 -2.18184 -0.057113 35
-0.852351 -0.518643 -0.118045 41
-0.849895 -0.516552 -0.186181 41
-1.59745 -1.4029 -0.331615 12
-0.855692 -0.519268 -0.25865 42
-1.24652 -1.09556 -0.374539 14
-7.30669 -4.38674 1.95636 35
-6.25231 -5.49014 2.21713 9
-7.30571 -4.38787 1.3412 35
-6.4957 -5.68413 1.66951 2
-7.4099 -4.45217 0.753244 32
-6.58676 -5.74772 1.06758 3
-0.703631 -0.423731 -0.0413518 42
-2.50132 -2.17417 -0.0572439 33
-0.852926 -0.512897 -0.117741 41
-0.856709 -0.514766 -0.187133 41
-1.59733 -1.38802 -0.330049 12
-0.850019 -0.509973 -0.256064 42
-1.25224 -1.08902 -0.374539 14
-7.29552 -4.36273 1.95131 30
-6.29095 -5.50468 2.22747 9
-7.2964 -4.36497 1.33808 32
-6.54728 -5.70715 1.67999 3
-7.39415 -4.42517 0.750847 30
-6.58929 -5.7297 1.06636 3
-0.704369 -0.422503 -0.0413518 42
-2.51644 -2.17964 -0.0575057 35
-0.843167 -0.505048 -0.11622 41
-2.49047 -2.15706 -0.284648 24
-0.851284 -0.509497 -0.185705 41
-1.59603 -1.38199 -0.329266 12
-0.848921 -0.507104 -0.255417 41
-1.25965 -1.09164 -0.376223 14
-7.30014 -4.31205 1.94625 32
-6.34437 -5.49113 2.23587 9
-7.30077 -4.31413 1.33457 33
-6.59007 -5.68402 1.68333 4
-7.40512 -4.3775 0.749539 32
-6.60327 -5.67939 1.06362 3
-0.708721 -0.420078 -0.0414831 44
-2.53767 -2.17413 -0.0577238 35
-0.850162 -0.502999 -0.116828 41
-2.53006 -2.16835 -0.28791 30
-0.849799 -0.502392 -0.184752 41
-1.59388 -1.36556 -0.327308 12
-0.855727 -0.505102 -0.256711 42
-1.27107 -1.08958 -0.377908 14
-7.2817 -4.28575 1.93952 29
-6.37222 -5.49583 2.24233 9
-7.2969 -4.29639 1.33262 33
-6.61859 -5.68851 1.6881 4
-7.39773 -4.35572 0.748014 32
-6.61595 -5.67224 1.06423 3
-0.705149 -0.416309 -0.0412205 44
-2.55096 -2.17783 -0.057942 35
-0.850951 -0.501663 -0.116828 41
-2.54898 -2.17689 -0.28965 32
-0.852791 -0.50215 -0.185228 41
-1.59439 -1.36117 -0.326917 12
-0.850357 -0.499944 -0.254771 41
-1.28202 -1.09552 -0.380715 14
-7.2893 -4.239 1.93558 29
-6.42749 -5.48704 2.25202 9
-7.30222 -4.2482 1.32949 33
-6.6118 -5.62471 1.67904 4
-7.39815 -4.3057 0.745835 32
-6.56234 -5.56685 1.05085 2
-0.703002 -0.410103 -0.040958 44
-2.57339 -2.17459 -0.0582038 35
-0.853566 -0.497201 -0.116828 41
-2.57174 -2.17317 -0.290954 29
-0.848953 -0.494133 -0.1838 41
-1.59773 -1.34961 -0.326134 12
-0.854966 -0.496844 -0.255417 42
-1.2933 -1.09353 -0.3824 14
-7.28404 -4.21895 1.93222 29
-6.45912 -5.49461 2.25978 9
-7.29039 -4.22431 1.32598 33
-6.5758 -5.57231 1.66713 2
-7.38841 -4.28279 0.744092 32
-6.57205 -5.55539 1.05085 2
-0.701556 -0.407625 -0.0408267 44
-2.58291 -2.17493 -0.0583347 35
-0.850137 -0.493226 -0.11622 41
-2.58504 -2.17672 -0.292042 23
-0.849814 -0.49265 -0.1838 42
-1.59254 -1.34044 -0.324568 12
-0.851735 -0.492789 -0.254124 42
-1.29707 -1.09284 -0.382962 14
-7.29196 -4.17101 1.92828 29
-6.51646 -5.48292 2.26947 9
-7.29385 -4.17377 1.32247 33
-6.56729 -5.50625 1.65759 2
-7.39635 -4.2341 0.742567 33
-6.65338 -5.56275 1.05906 4
-0.701514 -0.402707 -0.0406954 44
-2.60423 -2.16893 -0.0585528 35
-0.842019 -0.482466 -0.114699 41
-2.60405 -2.16954 -0.292911 27
-0.843941 -0.48318 -0.181895 41
-1.59575 -1.32892 -0.323785 12
-0.852205 -0.487128 -0.253477 42
-1.3011 -1.08424 -0.3824 14
-7.28368 -4.15111 1.92435 27
-6.55377 -5.49483 2.27916 9
-7.28538 -4.15375 1.31974 32
-6.65595 -5.56091 1.67761 9
-7.39074 -4.21378 0.74126 32
-6.45634 -5.3806 1.0262 1
-3.21586 -1.83366 0.0640067 17
-0.63196 -0.520303 0.0410837 12
-0.702216 -0.401482 -0.0406954 45
-2.62338 -2.17718 -0.0589019 33
-0.840619 -0.479916 -0.114394 39
-2.61932 -2.17455 -0.294216 27
-0.844783 -0.481706 -0.181895 41
-1.59048 -1.3198 -0.322219 12
-0.848853 -0.483256 -0.252184 42
-1.30654 -1.08532 -0.383523 14
-7.27984 -4.09858 1.91762 24
-6.60936 -5.48473 2.28886 9
-7.28766 -4.10464 1.31623 33
-6.71048 -5.54906 1.68428 14
-7.39245 -4.16532 0.739299 32
-6.69683 -5.52207 1.05997 14
-3.19896 -1.80264 0.0634831 26
-0.638529 -0.520163 0.0413454 12
-0.704308 -0.397799 -0.0406954 44
-2.64209 -2.17023 -0.0590764 35
-0.84312 -0.475508 -0.114394 41
-2.6422 -2.17031 -0.295521 33
-0.838651 -0.472617 -0.179991 39
-1.59166 -1.30675 -0.321044 12
-0.851288 -0.478953 -0.252184 42
-1.31783 -1.08312 -0.385208 12
-7.27636 -4.07991 1.91481 21
-6.63566 -5.48705 2.29467 9
-7.28189 -4.08467 1.31388 33
-6.68515 -5.5065 1.67523 14
-7.38885 -4.14632 0.738209 33
-6.6758 -5.48516 1.05511 14
-3.17843 -1.78305 0.0630032 30
-0.702823 -0.395349 -0.0405642 45
-2.65553 -2.17354 -0.0592945 33
-0.841784 -0.472823 -0.11409 41
-2.65753 -2.17517 -0.296826 33
-0.843758 -0.473549 -0.180943 41
-1.58821 -1.29926 -0.319869 12
-0.852206 -0.477318 -0.252184 42
-1.32724 -1.08702 -0.387454 12
-7.26422 -4.02161 1.90582 20
-6.69328 -5.47402 2.30437 9
-7.29092 -4.03803 1.31154 33
-6.68346 -5.4466 1.6676 11
-7.38721 -4.09301 0.735812 33
-6.66688 -5.41764 1.04902 12
-3.16804 -1.75549 0.0626105 32
-0.702699 -0.390455 -0.0404329 45
-2.67307 -2.16387 -0.0594254 33
-0.848673 -0.470663 -0.114699 42
-2.67662 -2.16751 -0.297695 33
-0.846308 -0.468977 -0.180943 44
-1.59499 -1.29093 -0.319869 12
-0.854693 -0.472849 -0.252184 44
-1.34066 -1.08598 -0.3897 12
-7.25133 -3.99961 1.90077 15
-6.73651 -5.48981 2.316 8
-7.28428 -4.01942 1.3092 33
-6.63012 -5.38384 1.65188 11
-7.38125 -4.07289 0.734505 33
-6.63491 -5.37434 1.04263 12
-3.15796 -1.74272 0.0623487 33
-0.701193 -0.388023 -0.0403016 45
-2.68851 -2.16863 -0.0596872 32
-0.847238 -0.468132 -0.114394 42
-2.69008 -2.17067 -0.298783 33
-0.847125 -0.467499 -0.180943 42
-1.59533 -1.28659 -0.319478 12
-0.853401 -0.470195 -0.251538 44
-1.34804 -1.08848 -0.391385 12
-7.24222 -3.94527 1.89291 15
-6.78676 -5.47385 2.32375 8
-7.29005 -3.97295 1.30647 33
-6.65155 -5.34559 1.65045 12
-7.38865 -4.02833 0.733198 33
-6.65134 -5.3302 1.04081 14
-3.16235 -1.72432 0.0622615 33
-0.700956 -0.383275 -0.0401703 45
-2.71311 -2.16593 -0.0599926 33
-0.847497 -0.462504 -0.11409 44
-2.71464 -2.16792 -0.300305 30
-0.853794 -0.465549 -0.181895 44
-1.59819 -1.27513 -0.318695 12
-0.857892 -0.467021 -0.252184 44
-7.22699 -3.92228 1.88729 14
-6.82453 -5.4847 2.33345 8
-7.28178 -3.95198 1.30374 32
-6.68001 -5.34933 1.65521 11
-7.38692 -4.01068 0.732326 32
-6.66064 -5.31859 1.04081 11
-3.15657 -1.71403 0.0620869 33
-0.615402 -0.485148 0.039252 14
-0.697234 -0.379671 -0.0399078 45
-2.72861 -2.17055 -0.0602544 33
-0.848303 -0.461024 -0.11409 44
-2.7301 -2.1725 -0.30161 21
-0.845971 -0.459386 -0.179991 44
-0.856581 -0.464375 -0.251538 44
-7.2116 -3.86357 1.87775 14
-6.87393 -5.46544 2.34055 9
-7.28713 -3.90564 1.30101 32
-6.731 -5.33258 1.66093 9
-7.39026 -3.96253 0.730583 32
-6.71953 -5.30827 1.04567 11
-3.1655 -1.69748 0.0620869 35
-0.614015 -0.478825 0.0389903 14
-0.699213 -0.376015 -0.0399078 47
-2.74778 -2.16243 -0.060429 33
-0.850706 -0.456576 -0.11409 44
-2.75121 -2.16589 -0.302697 14
-0.850529 -0.456107 -0.180467 42
-0.850478 -0.455337 -0.248951 44
-7.18327 -3.83389 1.86876 14
-6.91185 -5.47595 2.35025 8
-7.28087 -3.88594 1.29867 33
-6.76725 -5.34213 1.6676 9
-7.37739 -3.93907 0.728622 32
-6.75802 -5.31957 1.05024 11
-3.15964 -1.68724 0.0619124 35
-0.61485 -0.477752 0.0389903 14
-0.688853 -0.36892 -0.0392514 49
-2.76334 -2.1669 -0.0606907 32
-0.844931 -0.451591 -0.113177 44
-2.75107 -2.15801 -0.302262 11
-0.842658 -0.45001 -0.178562 42
-0.849139 -0.452719 -0.248304 44
-7.18451 -3.78475 1.86371 15
-6.97272 -5.46502 2.36123 9
-7.27927 -3.83626 1.29476 33
-7.38469 -3.89342 0.727315 32
-3.16401 -1.66835 0.0618251 35
-0.615373 -0.472993 0.0388594 14
-0.692985 -0.366472 -0.0393827 47
-2.78452 -2.16007 -0.0609089 29
-0.840695 -0.443696 -0.112265 44
-0.845002 -0.445591 -0.178562 44
-0.851498 -0.448266 -0.248304 44
-7.15809 -3.75648 1.85529 15
-7.2772 -3.81896 1.2932 33
-7.38045 -3.87474 0.726225 33
-3.15806 -1.65818 0.0616506 35
-0.698045 -0.36758 -0.0396452 49
-2.80409 -2.16746 -0.0612579 27
-0.845865 -0.44453 -0.112873 42
-0.847953 -0.445254 -0.179038 44
-0.852279 -0.44678 -0.248304 44
-7.16533 -3.71098 1.85192 18
-7.27956 -3.77172 1.29008 33
-7.39179 -3.83146 0.725354 35
-2.84995 -2.18395 0.435976 3
-3.16004 -1.63817 0.0615197 35
-0.693372 -0.360356 -0.0392514 49
-2.82532 -2.16035 -0.0614761 27
-0.841568 -0.436676 -0.11196 42
-0.864451 -0.656801 -0.0917659 36
-0.848093 -0.439681 -0.178562 44
-0.85246 -0.441204 -0.247658 44
-0.854798 -0.651673 -0.239772 26
-7.15663 -3.69066 1.84799 20
-7.27516 -3.75335 1.28813 35
-2.85905 -2.18852 0.692491 4
-7.38297 -3.81056 0.723828 33
-2.838 -2.16691 0.433542 9
-3.15651 -1.62866 0.0613888 36
-0.599644 -0.452441 0.037551 14
-0.694 -0.359145 -0.0392514 47
-2.83305 -2.15845 -0.0615634 20
-0.840122 -0.434071 -0.111656 44
-0.869554 -0.658316 -0.0922008 47
-0.846676 -0.437078 -0.178086 44
-0.844712 -0.435156 -0.245071 42
-0.850134 -0.645733 -0.238088 33
-7.1461 -3.63642 1.84013 21
-2.8676 -2.17917 0.954444 8
-7.28435 -3.70833 1.28618 33
-2.85093 -2.15868 0.687725 11
-7.38351 -3.76039 0.721868 32
-2.85166 -2.15302 0.433847 14
-3.16277 -1.61098 0.0613452 36
-0.604075 -0.450696 0.0376819 14
-0.693646 -0.354375 -0.0391201 47
-2.84469 -2.1431 -0.0615634 12
-0.840246 -0.428395 -0.111352 44
-0.849029 -0.432491 -0.178086 42
-0.851287 -0.43291 -0.246365 44
-7.13876 -3.61858 1.83676 23
-2.86755 -2.17124 0.953152 9
-7.2754 -3.6878 1.28345 33
-2.87035 -2.16555 0.691538 9
-7.37673 -3.74074 0.72056 33
-2.86135 -2.15252 0.434759 26
-3.15666 -1.60094 0.0611707 36
-0.600872 -0.446636 0.0374202 14
-0.687581 -0.34978 -0.0387263 49
-2.8664 -2.15166 -0.061956 1
-0.840993 -0.426928 -0.111352 44
-0.845401 -0.428794 -0.177134 44
-0.849885 -0.430336 -0.245718 44
-7.14734 -3.57446 1.83395 23
-2.87502 -2.15329 0.951859 4
-7.27252 -3.63861 1.27955 33
-2.88361 -2.15196 0.692015 8
-7.38062 -3.69427 0.719035 32
-2.84673 -2.11822 0.430804 1
-3.15829 -1.58103 0.0610398 36
-0.599199 -0.440501 0.0371585 14
-0.684937 -0.343942 -0.0384638 49
-0.840996 -0.421411 -0.111048 44
-0.875534 -0.646155 -0.0919833 47
-0.843243 -0.422171 -0.176181 44
-0.859934 -0.635429 -0.164046 45
-0.84348 -0.421574 -0.243131 42
-0.861973 -0.638065 -0.239211 41
-7.14422 -3.55888 1.8317 23
-2.87104 -2.14248 0.949275 2
-7.26938 -3.62278 1.27798 35
-2.88933 -2.14839 0.692491 2
-7.37814 -3.67694 0.718163 33
-2.85205 -2.11522 0.431108 1
-3.15433 -1.57218 0.0609089 36
-0.591873 -0.433605 0.0366352 14
-0.685537 -0.342746 -0.0384638 50
-0.846101 -0.422299 -0.111656 44
-0.870661 -0.640174 -0.091331 49
-0.843978 -0.420699 -0.176181 44
-0.855097 -0.629509 -0.162871 47
-0.846378 -0.421174 -0.243778 44
-0.859067 -0.6338 -0.238088 41
-7.15402 -3.51713 1.82946 24
-2.87991 -2.12649 0.948628 2
-7.27717 -3.57922 1.27603 35
-2.88239 -2.12063 0.688202 2
-7.37655 -3.62966 0.716202 33
-2.88907 -2.11938 0.435064 2
-0.594135 -0.4305 0.0366352 14
-0.691803 -0.341353 -0.0387263 49
-0.848301 -0.417863 -0.111656 44
-0.871993 -0.634133 -0.0911135 47
-0.843893 -0.415341 -0.175705 44
-0.856392 -0.62356 -0.16248 47
-0.837654 -0.411576 -0.240545 42
-0.85649 -0.624958 -0.236403 41
-7.1492 -3.49929 1.82665 24
-2.87584 -2.11572 0.946044 2
-7.2701 -3.56 1.27369 35
-7.36945 -3.6102 0.714895 33
-0.586827 -0.423565 0.0361118 14
-0.683427 -0.335758 -0.0382012 49
-0.849029 -0.416382 -0.111656 44
-0.871088 -0.631139 -0.090896 49
-0.842411 -0.412791 -0.175229 44
-0.857479 -0.622065 -0.16248 47
-0.842785 -0.412082 -0.241838 42
-0.85758 -0.623463 -0.236403 39
-7.15048 -3.45209 1.82216 24
-7.27591 -3.51417 1.27135 35
-7.37542 -3.56378 0.713588 35
-0.585065 -0.417456 0.0358501 14
-0.685176 -0.332175 -0.0382012 50
-0.844563 -0.40855 -0.110743 44
-0.872363 -0.62511 -0.0906786 49
-0.84021 -0.406098 -0.174277 42
-0.858724 -0.616118 -0.162088 47
-0.838401 -0.404526 -0.239898 42
-0.858969 -0.617383 -0.235841 39
-7.14272 -3.43452 1.81879 26
-7.2614 -3.4931 1.26784 33
-7.37041 -3.54551 0.712498 33
-0.58572 -0.416537 0.0358501 14
-0.683504 -0.329898 -0.0380699 49
-0.849678 -0.409371 -0.111352 44
-0.873453 -0.623587 -0.0906786 49
-0.840917 -0.40463 -0.174277 44
-0.855794 -0.611728 -0.161305 47
-0.836927 -0.402019 -0.239252 42
-0.859937 -0.616033 -0.235841 39
-7.1518 -3.3929 1.81654 26
-7.26843 -3.44974 1.26589 33
-7.36576 -3.49748 0.710319 33
-0.58586 -0.412014 0.0357193 14
-0.685165 -0.326434 -0.0380699 50
-0.840596 -0.399606 -0.109831 44
-0.872542 -0.616266 -0.0902437 49
-0.842954 -0.400369 -0.174277 44
-0.854966 -0.60437 -0.160522 47
-0.843319 -0.399841 -0.240545 44
-0.853245 -0.604434 -0.233034 41
-7.1417 -3.37438 1.81261 26
-7.26328 -3.43178 1.26394 33
-7.3696 -3.48355 0.710101 33
-3.08778 -2.19172 0.460011 8
-0.685734 -0.325238 -0.0380699 50
-0.711716 -0.499557 -0.0145728 26
-0.845782 -0.400254 -0.110439 44
-0.871586 -0.6133 -0.0900262 49
-0.843652 -0.398897 -0.174277 44
-0.856019 -0.602877 -0.160522 47
-0.835273 -0.394258 -0.237958 42
-0.852315 -0.60153 -0.232472 41
-7.13777 -3.3254 1.80699 24
-3.0716 -2.17043 0.997094 2
-7.26772 -3.38745 1.26159 33
-3.09859 -2.18152 0.729189 3
-7.37419 -3.4386 0.708794 33
-3.08704 -2.16695 0.458186 9
-0.680693 -0.318362 -0.0376761 49
-0.704094 -0.48864 -0.0143546 26
-0.843365 -0.393728 -0.109831 44
-0.872853 -0.607144 -0.0898088 49
-0.839052 -0.391372 -0.172848 44
-0.855125 -0.595545 -0.159739 47
-0.839517 -0.390896 -0.238605 42
-0.849479 -0.592849 -0.230788 42
-7.1303 -3.30679 1.80363 24
-3.07735 -2.16646 0.99774 2
-7.26018 -3.36852 1.25925 33
-3.0827 -2.16145 0.724423 9
-7.36437 -3.41839 0.707269 32
-3.07253 -2.14874 0.455448 11
-0.683513 -0.318223 -0.0378074 49
-0.70085 -0.484545 -0.0142673 21
-0.844051 -0.392255 -0.109831 44
-0.86983 -0.602764 -0.0893739 50
-0.837506 -0.388877 -0.172372 44
-0.854141 -0.592635 -0.159347 47
-0.844651 -0.391307 -0.239898 44
-0.852506 -0.592765 -0.231349 42
-7.15473 -3.2712 1.80531 23
-3.09299 -2.15254 0.999032 9
-7.26033 -3.32098 1.25613 33
-3.10405 -2.15228 0.726806 9
-7.37143 -3.37332 0.706179 32
-3.09634 -2.14057 0.457273 9
-0.687441 -0.315678 -0.0379387 49
-0.705517 -0.482168 -0.014311 23
-0.846161 -0.387683 -0.109831 44
-0.870926 -0.596784 -0.0891564 50
-0.839598 -0.38434 -0.172372 44
-0.859262 -0.589561 -0.159739 47
-0.837897 -0.382878 -0.237312 44
-0.847696 -0.582587 -0.229103 42
-7.21529 -3.28519 1.81935 18
-3.10864 -2.15541 1.00291 8
-7.25879 -3.3065 1.25496 35
-3.11184 -2.14966 0.727759 8
-7.35918 -3.35219 0.704436 32
-3.10175 -2.13711 0.457577 2
-0.685718 -0.313444 -0.0378074 49
-0.698124 -0.475262 -0.0141364 20
-0.839992 -0.383273 -0.108918 44
-0.869916 -0.593849 -0.088939 50
-0.842502 -0.383888 -0.172848 44
-0.854194 -0.583852 -0.158564 47
-0.840763 -0.382411 -0.237958 42
-0.8426 -0.577096 -0.227419 42
-7.23907 -3.25036 1.82103 14
-3.11553 -2.13691 1.00162 4
-7.26249 -3.26238 1.25262 35
-3.1247 -2.13527 0.728236 2
-7.36469 -3.3098 0.703347 32
-3.12314 -2.12784 0.459099 2
-0.563424 -0.378551 0.0337567 14
-0.685072 -0.308827 -0.0376761 49
-0.69639 -0.468907 -0.0140492 20
-0.844252 -0.379885 -0.109222 44
-0.868898 -0.586481 -0.088504 50
-0.837715 -0.37661 -0.17142 44
-0.853161 -0.576587 -0.157781 49
-0.833869 -0.374209 -0.235372 42
-0.849631 -0.575428 -0.228542 41
-7.29811 -3.26156 1.83451 12
-3.12324 -2.1342 1.00291 2
-7.25916 -3.24567 1.25106 35
-3.1369 -2.1348 0.730142 2
-7.35454 -3.28982 0.701822 33
-3.1289 -2.12378 0.459403 3
-0.564084 -0.377567 0.0337567 14
-0.678771 -0.304578 -0.0372823 49
-0.695139 -0.466287 -0.0140056 17
-0.842647 -0.3774 -0.108918 45
-0.87198 -0.586363 -0.0887215 50
-0.838371 -0.375148 -0.17142 44
-0.856207 -0.576486 -0.158173 47
-0.836793 -0.373589 -0.236019 44
-0.842583 -0.568456 -0.226295 42
-7.26883 -3.20142 1.82272 30
-3.14674 -2.1254 1.00679 2
-7.26305 -3.20037 1.24872 33
-3.146 -2.11697 0.729666 3
-7.36084 -3.24496 0.700732 35
-3.15475 -2.11652 0.461532 4
-0.564046 -0.373118 0.0336258 14
-0.684926 -0.303031 -0.0375448 49
-0.683124 -0.452767 -0.0137001 15
-0.846949 -0.373834 -0.109222 45
-0.866768 -0.576236 -0.0878517 52
-0.842635 -0.371593 -0.171896 44
-0.855116 -0.569239 -0.15739 49
-0.838737 -0.369202 -0.236019 42
-0.847666 -0.56525 -0.226857 42
-7.26715 -3.18706 1.82103 33
-3.15044 -2.1199 1.00679 2
-7.25676 -3.184 1.24677 35
-3.17413 -2.1279 0.735385 3
-7.3528 -3.22611 0.699425 35
-3.15808 -2.11156 0.461532 4
-0.560482 -0.369454 0.0333642 14
-0.680881 -0.299832 -0.0372823 49
-0.679757 -0.448795 -0.0136129 15
-0.845262 -0.371508 -0.108918 44
-0.867773 -0.574722 -0.0878517 52
-0.834287 -0.36619 -0.169991 44
-0.854057 -0.566372 -0.156998 49
-0.83274 -0.364841 -0.234079 42
-0.844508 -0.561201 -0.225734 44
-7.25691 -3.13737 1.81429 33
-3.17519 -2.11331 1.01131 3
-7.25067 -3.13616 1.24286 33
-3.19713 -2.11997 0.738244 3
-7.35761 -3.18391 0.698335 33
-3.17116 -2.09637 0.461837 3
-2.12401 -0.919771 0.0397915 4
-0.562409 -0.366514 0.0333642 14
-0.68239 -0.296382 -0.0372823 49
-0.68619 -0.448107 -0.0137001 15
-0.838082 -0.363144 -0.107701 44
-0.874824 -0.573071 -0.0882866 52
-0.838384 -0.362934 -0.170467 44
-0.859069 -0.563256 -0.15739 47
-0.832358 -0.359667 -0.233432 42
-0.853524 -0.560814 -0.227419 44
-7.25735 -3.12404 1.81317 33
-3.18893 -2.11445 1.01454 2
-7.25159 -3.12155 1.24208 35
-3.18445 -2.10354 0.734432 3
-7.35629 -3.16811 0.697682 35
-3.16653 -2.08536 0.46062 2
-2.12791 -0.91705 0.0398351 4
-0.682906 -0.29519 -0.0372823 49
-0.674447 -0.438657 -0.0134384 15
-0.840994 -0.36266 -0.108005 44
-0.865426 -0.56469 -0.0871993 52
-0.843527 -0.363405 -0.17142 45
-0.855929 -0.559035 -0.156607 47
-0.837424 -0.360115 -0.234725 42
-0.844342 -0.552604 -0.224611 44
-7.25845 -3.07807 1.80924 35
-7.25647 -3.07872 1.24013 35
-7.36361 -3.12566 0.69681 35
-0.682194 -0.290517 -0.037151 49
-0.676735 -0.43512 -0.0134384 15
-0.838311 -0.356318 -0.107397 45
-0.866382 -0.55864 -0.0869819 52
-0.843158 -0.358028 -0.170944 45
-0.852641 -0.550499 -0.155432 47
-0.832623 -0.352908 -0.232785 42
-0.851301 -0.550842 -0.225734 44
-7.25483 -3.06161 1.80699 33
-7.25046 -3.06125 1.23818 33
-7.35988 -3.10892 0.695939 35
-0.685001 -0.290296 -0.0372823 49
-0.671203 -0.429856 -0.0133075 15
-0.845793 -0.357743 -0.10831 45
-0.867355 -0.557127 -0.0869819 52
-0.836995 -0.3537 -0.169515 45
-0.855671 -0.550355 -0.155824 47
-0.833299 -0.351309 -0.232785 42
-0.846138 -0.545367 -0.224049 44
-7.25779 -3.01671 1.80363 33
-7.25095 -3.01534 1.23545 33
-7.36509 -3.06428 0.694849 35
-0.6819 -0.28479 -0.0370197 49
-0.671415 -0.424869 -0.0132638 14
-0.845424 -0.352211 -0.108005 45
-0.868164 -0.551233 -0.0867644 52
-0.841163 -0.350106 -0.169991 45
-0.852403 -0.541715 -0.154649 47
-0.837359 -0.347864 -0.233432 42
-0.849076 -0.540781 -0.224049 42
-7.25126 -3.00065 1.80082 33
-7.24936 -2.99985 1.23428 35
-7.34742 -3.04189 0.69267 33
-0.682396 -0.283599 -0.0370197 49
-0.667942 -0.421005 -0.0131766 14
-0.848331 -0.351682 -0.10831 45
-0.860731 -0.544353 -0.0858946 52
-0.841773 -0.348638 -0.169991 45
-0.853347 -0.540226 -0.154649 45
-0.837965 -0.346402 -0.233432 42
-0.841816 -0.534038 -0.221803 44
-7.26739 -2.96137 1.80082 33
-7.24667 -2.9544 1.23116 35
-7.35171 -2.99868 0.691581 33
-0.688496 -0.281906 -0.0372823 49
-0.66591 -0.414833 -0.0130893 14
-0.840966 -0.343496 -0.107093 45
-0.861463 -0.538509 -0.0856771 52
-0.83904 -0.342378 -0.169039 45
-0.854077 -0.534431 -0.154258 45
-0.837529 -0.341103 -0.232785 44
-0.842543 -0.528318 -0.221242 42
-7.26075 -2.94538 1.79801 33
-7.24953 -2.94082 1.23077 35
-7.35232 -2.98397 0.691145 33
-0.682046 -0.277891 -0.0368885 49
-0.668749 -0.415001 -0.0131329 14
-0.843865 -0.342959 -0.107397 45
-0.860294 -0.535678 -0.0854597 52
-0.839636 -0.340913 -0.169039 45
-0.85083 -0.530307 -0.153475 47
-0.838123 -0.33964 -0.232785 44
-0.841404 -0.525546 -0.22068 42
-7.26023 -2.90099 1.79408 33
-7.25056 -2.89859 1.22843 35
-7.34883 -2.93933 0.689402 32
-7.39728 -4.59877 0.454669 26
-0.683492 -0.274316 -0.0368885 49
-0.668718 -0.410291 -0.0130893 15
-0.850199 -0.340521 -0.108005 47
-0.860972 -0.529851 -0.0852422 52
-0.836791 -0.334842 -0.168087 45
-0.851408 -0.524688 -0.153083 45
-0.839832 -0.335394 -0.232785 42
-0.844053 -0.521281 -0.22068 42
-7.24491 -2.88022 1.78903 32
-7.25102 -2.8841 1.22765 35
-7.30677 -4.54414 1.66427 39
-7.34469 -2.92281 0.68853 33
-7.41217 -4.59725 1.06515 36
-7.39468 -4.57927 0.454014 29
-0.683969 -0.273122 -0.0368885 49
-0.663059 -0.405173 -0.0129584 15
-0.843873 -0.336292 -0.107093 45
-0.861896 -0.528347 -0.0852422 52
-0.841937 -0.33519 -0.169039 47
-0.848126 -0.520598 -0.1523 45
-0.838228 -0.332893 -0.232139 42
-0.842893 -0.51852 -0.220119 42
-7.25812 -2.84009 1.78846 32
-7.32559 -4.52039 2.29403 38
-7.25042 -2.83853 1.22491 29
-7.31793 -4.4981 1.66141 39
-7.35344 -2.88031 0.687877 32
-7.40732 -4.53892 1.06089 33
-7.39806 -4.52615 0.452706 29
-0.683065 -0.268628 -0.0367572 49
-0.663109 -0.400275 -0.0129148 14
-0.84568 -0.331721 -0.107093 47
-0.860402 -0.521226 -0.0848073 52
-0.836879 -0.327954 -0.16761 44
-0.846631 -0.513568 -0.151517 44
-0.833208 -0.325871 -0.230199 42
-0.847761 -0.515228 -0.22068 41
-7.31907 -4.49874 2.2895 36
-7.31321 -4.47762 1.65855 39
-7.40174 -4.51951 1.05906 38
-7.31353 -4.4586 0.44708 1
-0.681206 -0.26653 -0.0366259 50
-0.661673 -0.397816 -0.0128711 14
-0.841574 -0.328594 -0.106484 45
-0.861311 -0.519724 -0.0848073 52
-0.83745 -0.326493 -0.16761 45
-0.85174 -0.514664 -0.1523 45
-0.829272 -0.322672 -0.228906 42
-0.840259 -0.508807 -0.218434 42
-7.32318 -4.45034 2.28369 36
-7.3106 -4.42529 1.65283 36
-7.40831 -4.47043 1.05663 35
-7.39664 -4.45635 0.450743 27
-0.680215 -0.262185 -0.0364946 50
-0.655115 -0.3893 -0.0126966 14
-0.843283 -0.324183 -0.106484 47
-0.86393 -0.515357 -0.0848073 52
-0.839092 -0.32225 -0.16761 44
-0.848081 -0.506369 -0.151126 44
-0.833151 -0.319332 -0.229552 42
-0.840828 -0.503139 -0.217873 42
-7.32061 -4.43129 2.28046 36
-7.28679 -4.39349 1.64568 32
-3.09653 -1.18331 0.28696 11
-7.39697 -4.44597 1.05389 35
-7.3402 -4.40486 0.446818 1
-0.678339 -0.260108 -0.0363633 50
-0.651507 -0.385583 -0.0126094 14
-0.843848 -0.322711 -0.106484 45
-0.849883 -0.504872 -0.0832851 50
-0.844241 -0.32253 -0.168563 45
-0.848964 -0.504888 -0.151126 45
-0.829191 -0.316164 -0.228259 42
-0.837532 -0.499156 -0.21675 42
-7.32506 -4.38173 2.27464 36
-7.21064 -4.29618 1.62328 26
-3.13299 -1.17847 0.289793 11
-7.40095 -4.39577 1.05115 35
-7.31164 -4.33577 0.443678 1
-0.677399 -0.255558 -0.0362321 50
-0.647068 -0.37834 -0.0124785 14
-0.843202 -0.317418 -0.10618 45
-0.852602 -0.500267 -0.0832851 52
-0.834425 -0.313803 -0.166182 45
-0.851596 -0.500436 -0.151126 45
-0.828573 -0.310973 -0.227612 42
-0.842227 -0.49601 -0.217311 41
-7.30574 -4.35285 2.26624 33
-7.21888 -4.28233 1.62328 21
-3.12338 -1.16864 0.288703 3
-7.39153 -4.37273 1.04872 35
-7.31705 -4.32173 0.443547 1
-0.680183 -0.255248 -0.0363633 50
-0.649879 -0.378482 -0.0125221 14
-0.84143 -0.315079 -0.105876 45
-0.85133 -0.497511 -0.0830677 50
-0.837272 -0.313203 -0.166658 45
-0.848218 -0.496434 -0.150343 47
-0.829168 -0.309381 -0.227612 42
-0.838901 -0.492053 -0.216188 41
-7.31462 -4.30468 2.26172 30
-7.23908 -4.24323 1.6228 18
-3.15771 -1.16203 0.291318 2
-7.40009 -4.3239 1.04659 35
-7.32093 -4.27075 0.44237 1
-0.679166 -0.250822 -0.0362321 50
-0.641123 -0.36866 -0.0123039 14
-0.843122 -0.310522 -0.105876 47
-0.851773 -0.491791 -0.0828502 50
-0.838954 -0.308668 -0.166658 45
-0.846543 -0.489493 -0.14956 44
-0.826241 -0.303378 -0.226319 42
-0.843653 -0.488739 -0.21675 42
-7.238 -4.22564 1.6209 15
-3.12698 -1.14455 0.288268 2
-7.38543 -4.29977 1.04354 35
-7.31036 -4.2492 0.441323 1
-0.679603 -0.249637 -0.0362321 50
-0.639605 -0.366284 -0.0122603 14
-0.838947 -0.307496 -0.105267 45
-0.85263 -0.490303 -0.0828502 52
-0.839492 -0.307203 -0.166658 45
-0.851663 -0.4905 -0.150343 47
-0.833578 -0.30441 -0.228259 44
-0.838108 -0.483728 -0.215065 41
-7.25717 -4.18772 1.62042 15
-3.13508 -1.12955 0.288485 2
-7.39494 -4.25361 1.04172 35
-1.70714 -0.615409 0.0310653 50
-7.32602 -4.20713 0.44093 1
-0.678551 -0.245231 -0.0361008 49
-0.639283 -0.361797 -0.0122167 14
-0.840545 -0.303099 -0.105267 45
-0.848707 -0.48211 -0.0821979 52
-0.841036 -0.30295 -0.166658 45
-0.84566 -0.481108 -0.148777 45
-0.828286 -0.297747 -0.226319 42
-0.836409 -0.476899 -0.213942 42
-5.80378 -3.34786 1.78352 8
-7.23755 -4.15787 1.61422 12
-3.11125 -1.11485 0.286089 2
-7.38944 -4.23329 1.03989 35
-1.70832 -0.612131 0.0310653 50
-7.32468 -4.18937 0.440407 1
-0.678978 -0.244046 -0.0361008 50
-0.639914 -0.360681 -0.0122167 14
-0.838736 -0.300798 -0.104963 45
-0.847385 -0.479391 -0.0819804 52
-0.83694 -0.299834 -0.165706 45
-0.842214 -0.477175 -0.147993 45
-0.826581 -0.295347 -0.225673 44
-0.839353 -0.476652 -0.214503 42
-5.826 -3.31881 1.78482 9
-7.24642 -4.11265 1.61136 12
-3.10549 -1.09387 0.284999 2
-7.40144 -4.18713 1.03837 35
-1.70915 -0.602348 0.0310216 50
-7.35159 -4.15214 0.440669 1
-0.675536 -0.238832 -0.0358382 50
-0.641856 -0.357213 -0.0122167 14
-0.842693 -0.297077 -0.105267 45
-0.85422 -0.477399 -0.0824153 53
-0.833917 -0.293678 -0.164753 45
-0.848998 -0.475192 -0.148777 47
-0.828116 -0.291016 -0.225673 44
-0.8398 -0.470901 -0.213942 42
-5.83808 -3.31221 1.78676 9
-7.23863 -4.09153 1.60803 12
-3.09564 -1.08433 0.28391 2
-7.39072 -4.16575 1.03594 35
-1.70312 -0.59689 0.0308908 50
-7.35375 -4.13814 0.440407 1
-0.675952 -0.237653 -0.0358382 50
-0.635943 -0.352415 -0.0120858 14
-0.83613 -0.2933 -0.104354 47
-0.850712 -0.473464 -0.0819804 52
-0.839064 -0.293837 -0.165706 44
-0.845524 -0.471284 -0.147993 47
-0.833185 -0.291156 -0.226966 44
-0.838418 -0.468383 -0.21338 44
-7.25068 -4.05005 1.60612 12
-7.39293 -4.11612 1.0332 35
-1.70139 -0.586636 0.0308035 49
-7.39059 -4.10808 0.441323 15
-0.681909 -0.235733 -0.0361008 50
-0.635534 -0.347977 -0.0120422 14
-0.83296 -0.287307 -0.103746 45
-0.851002 -0.467792 -0.081763 52
-0.835897 -0.287995 -0.164753 45
-0.84798 -0.46685 -0.147993 47
-0.825508 -0.283809 -0.224379 42
-0.838732 -0.462798 -0.212819 42
-7.24772 -4.03015 1.60374 14
-7.38708 -4.09598 1.03137 35
-1.70251 -0.583368 0.0308035 50
-7.38683 -4.08912 0.440669 15
-0.677595 -0.232928 -0.0358382 50
-0.831112 -0.285051 -0.103442 47
-0.849639 -0.4651 -0.0815455 53
-0.838721 -0.287327 -0.16523 45
-0.840157 -0.460578 -0.146427 45
-0.826051 -0.282224 -0.224379 44
-0.841668 -0.462518 -0.21338 42
-7.30089 -4.02638 2.22165 35
-7.25152 -3.98268 1.59993 12
-7.38955 -4.04522 1.02864 35
-1.70317 -0.57365 0.0307599 50
-7.3979 -4.0431 0.440015 15
-0.681172 -0.230172 -0.0359695 50
-0.834994 -0.281339 -0.103746 47
-0.852062 -0.460645 -0.0815455 55
-0.835609 -0.281227 -0.164277 45
-0.844723 -0.457359 -0.146819 45
-0.827518 -0.277895 -0.224379 44
-0.842022 -0.456785 -0.212819 44
-7.28886 -4.00316 2.21584 35
-7.24339 -3.96177 1.59659 12
-7.38283 -4.02647 1.02681 35
-1.69706 -0.568301 0.030629 50
-7.39328 -4.0255 0.43936 14
-0.679204 -0.228192 -0.0358382 50
-0.828373 -0.277672 -0.102833 47
-0.850678 -0.457965 -0.081328 52
-0.83377 -0.278993 -0.163801 45
-0.83685 -0.451154 -0.145253 45
-0.832585 -0.277972 -0.225673 44
-0.838464 -0.453123 -0.211696 42
-7.29842 -3.96045 2.2126 35
-7.24825 -3.91688 1.59325 12
-7.38416 -3.97716 1.02407 35
-1.70466 -0.561264 0.0307162 50
-7.40107 -3.97963 0.438575 14
-0.685095 -0.226308 -0.0361008 50
-0.829816 -0.273331 -0.102833 47
-0.852985 -0.453654 -0.081328 53
-0.830507 -0.273243 -0.162849 47
-0.839201 -0.446766 -0.145253 45
-0.82939 -0.272256 -0.224379 44
-0.840826 -0.448727 -0.211696 42
-7.29045 -3.93966 2.20808 35
-7.24211 -3.89724 1.59039 12
-7.38453 -3.96074 1.02316 35
-1.69851 -0.55596 0.0305853 53
-7.3926 -3.95845 0.437659 12
-0.678368 -0.222789 -0.035707 52
-0.83501 -0.27342 -0.103442 47
-0.85158 -0.450988 -0.0811106 53
-0.828648 -0.271034 -0.162373 45
-0.837803 -0.444133 -0.144861 45
-0.82527 -0.269317 -0.223086 44
-0.835171 -0.443796 -0.210011 42
-7.29394 -3.89233 2.20291 33
-7.24508 -3.85004 1.58658 12
-7.33676 -2.35562 0.671099 18
-7.38982 -3.91388 1.02103 35
-1.69902 -0.546296 0.0305417 52
-7.39999 -3.91268 0.436874 9
-0.681941 -0.219877 -0.0358382 52
-0.82934 -0.266775 -0.102529 47
-0.849605 -0.444045 -0.0806757 53
-0.830056 -0.266691 -0.162373 47
-0.835754 -0.437428 -0.144078 45
-0.833571 -0.267192 -0.225026 45
-0.839635 -0.44056 -0.210573 42
-7.29219 -3.87505 2.20033 35
-6.95224 -2.21754 1.14765 1
-7.25029 -3.83498 1.58611 12
-7.31714 -2.33524 0.66892 18
-7.38347 -3.89402 1.0192 35
-1.69054 -0.539999 0.0303672 52
-7.40018 -3.89626 0.436482 8
-0.677566 -0.217172 -0.0355757 52
-3.21748 -1.68955 -0.0628287 14
-0.82744 -0.264576 -0.102225 49
-0.854786 -0.444883 -0.0811106 53
-0.828181 -0.264499 -0.161896 45
-0.843067 -0.439425 -0.145253 47
-0.829478 -0.264133 -0.223733 45
-0.844709 -0.441372 -0.211696 42
-7.29167 -3.82431 2.19386 35
-7.23516 -2.26467 1.19253 32
-7.25505 -3.789 1.58277 12
-7.32491 -2.29413 0.668485 17
-7.38463 -3.8437 1.01647 35
-1.69573 -0.531886 0.0304108 53
-7.399 -3.84464 0.435173 11
-0.68346 -0.215111 -0.0358382 52
-3.20218 -1.65943 -0.0623487 18
-0.828859 -0.260095 -0.102225 49
-0.852684 -0.438102 -0.0806757 52
-0.827257 -0.259284 -0.16142 47
-0.843243 -0.433717 -0.144861 45
-0.833156 -0.260504 -0.224379 44
-0.836288 -0.431158 -0.208888 41
-7.23748 -2.25154 1.73905 38
-7.28977 -3.8071 2.19128 35
-7.16364 -2.22858 1.18004 32
-7.25077 -3.77067 1.58039 12
-7.30988 -2.27543 0.666741 15
-7.38032 -3.82509 1.01495 35
-1.68949 -0.526699 0.0302799 53
-7.3924 -3.82483 0.434388 11
-0.671913 -0.210214 -0.0351819 52
-3.17843 -1.64005 -0.0618251 26
-0.826942 -0.257913 -0.10192 47
-0.855659 -0.437759 -0.0808931 53
-0.830053 -0.258566 -0.161896 47
-0.84619 -0.433381 -0.145253 45
-0.826687 -0.25691 -0.222439 45
-0.837039 -0.429698 -0.208888 42
-7.23519 -2.20935 1.73568 32
-7.29393 -3.7624 2.18676 35
-7.2386 -2.21176 1.19057 26
-7.25667 -3.72718 1.57753 12
-7.31892 -2.23767 0.666524 15
-7.38192 -3.77863 1.01251 35
-1.69692 -0.519601 0.0303672 53
-7.38944 -3.77599 0.43308 9
-0.677781 -0.20815 -0.0354444 52
-3.15331 -1.60687 -0.0611707 32
-0.835358 -0.255893 -0.102833 49
-0.846852 -0.427604 -0.0798059 53
-0.831351 -0.254362 -0.161896 47
-0.839582 -0.42459 -0.143687 45
-0.827977 -0.252723 -0.222439 45
-0.834869 -0.42323 -0.207765 42
-7.22971 -2.19389 1.73343 32
-7.2919 -3.74524 2.18417 35
-7.23299 -2.19625 1.18901 26
-7.25944 -3.71101 1.57657 12
-7.30614 -2.21983 0.664998 17
-7.37524 -3.75897 1.01069 35
-1.69313 -0.514892 0.0302799 52
-7.38712 -3.75856 0.432557 9
-0.675754 -0.206242 -0.0353131 50
-3.15165 -1.5991 -0.0610834 35
-0.821553 -0.250122 -0.101008 49
-0.854256 -0.429515 -0.0804582 53
-0.827095 -0.25149 -0.160944 49
-0.838122 -0.422003 -0.143295 47
-0.821524 -0.249042 -0.2205 45
-0.839944 -0.42399 -0.208888 42
-7.23447 -2.15266 1.73175 32
-7.29052 -3.6948 2.17771 35
-7.24714 -2.15779 1.1894 26
-7.26344 -3.6652 1.57324 12
-7.30849 -2.17742 0.664127 15
-7.37552 -3.70897 1.00795 35
-1.69101 -0.504594 0.0301927 53
-7.39397 -3.71181 0.431772 9
-0.672038 -0.201278 -0.0350506 50
-0.827652 -0.247085 -0.101616 49
-0.852042 -0.4228 -0.0800233 52
-0.828444 -0.247011 -0.160944 47
-0.829293 -0.412058 -0.141338 45
-0.827448 -0.246107 -0.221793 47
-0.837876 -0.417245 -0.207765 42
-7.22616 -2.13784 1.72894 33
-7.28833 -3.67772 2.17512 33
-7.24105 -2.1436 1.18784 26
-7.26763 -3.65141 1.57276 11
-7.30273 -2.16184 0.663255 14
-7.37247 -3.69292 1.00673 35
-1.68709 -0.500224 0.0301054 53
-7.39309 -3.69683 0.431379 8
-0.672389 -0.200105 -0.0350506 50
-0.825659 -0.245082 -0.101312 50
-0.850551 -0.420197 -0.0798059 53
-0.821811 -0.243485 -0.159516 47
-0.834426 -0.412822 -0.142121 45
-0.818609 -0.24194 -0.219206 45
-0.83853 -0.415928 -0.207765 42
-7.23258 -2.09862 1.72782 33
-7.29389 -3.63431 2.17125 33
-7.25217 -2.10566 1.18784 26
-7.27283 -3.60803 1.5699 11
-7.3064 -2.12277 0.662602 12
-7.37391 -3.64546 1.0043 35
-1.69441 -0.493072 0.0301927 55
-7.38773 -3.64591 0.42994 8
-0.678189 -0.19809 -0.0353131 49
-0.831699 -0.242135 -0.10192 49
-0.848202 -0.413681 -0.079371 53
-0.830106 -0.241367 -0.160944 49
-0.827723 -0.404068 -0.140555 47
-0.824464 -0.239131 -0.2205 47
-0.834149 -0.408285 -0.206081 42
-7.21948 -2.08253 1.72389 33
-7.28941 -3.6162 2.16802 35
-7.24634 -2.09026 1.18628 26
-7.27912 -3.59533 1.5699 11
-7.31967 -2.11277 0.663473 12
-7.36914 -3.6271 1.00278 35
-1.68806 -0.488037 0.0300618 55
-7.39184 -3.6319 0.429809 8
-0.822581 -0.237941 -0.100704 49
-0.848922 -0.4122 -0.079371 52
-0.828167 -0.23924 -0.160468 49
-0.835072 -0.405896 -0.141729 45
-0.822558 -0.237027 -0.219853 47
-0.839229 -0.408986 -0.207204 42
-7.23064 -2.04344 1.72389 33
-7.28872 -3.56842 2.1622 35
-7.25244 -2.05095 1.1855 26
-7.28461 -3.55071 1.56704 9
-7.33302 -2.07509 0.663691 11
-7.37687 -3.58304 1.00125 35
-1.69059 -0.479191 0.0300618 53
-7.39279 -3.58443 0.428762 4
-0.826204 -0.234304 -0.101008 49
-0.846658 -0.405427 -0.078936 52
-0.831771 -0.235565 -0.160944 49
-0.830524 -0.39828 -0.140555 45
-0.828438 -0.234022 -0.221146 49
-0.836979 -0.402452 -0.206081 42
-7.22012 -2.02687 1.72052 32
-7.28409 -3.55039 2.15897 36
-7.25363 -2.03762 1.18511 26
-7.28479 -3.5335 1.56561 9
-7.36748 -3.56259 0.999125 35
-1.68429 -0.473919 0.0299309 53
-7.40353 -3.57369 0.429024 4
-0.672713 -0.190023 -0.0349193 50
-0.824222 -0.232192 -0.100704 49
-0.85185 -0.406115 -0.079371 52
-0.822726 -0.23147 -0.159039 50
-0.835663 -0.398981 -0.141338 47
-0.821907 -0.230487 -0.219206 47
-0.835489 -0.399927 -0.205519 42
-7.22864 -1.98713 1.71996 33
-7.28796 -3.5036 2.15445 35
-7.06692 -1.94402 1.15272 1
-7.28106 -3.4847 1.56085 11
-7.37545 -3.51733 0.997604 36
-1.68916 -0.465756 0.0299745 55
-0.676106 -0.18716 -0.0350506 50
-0.830252 -0.229042 -0.101312 52
-0.84722 -0.398435 -0.0787186 52
-0.831068 -0.228959 -0.160468 50
-0.831056 -0.391408 -0.140163 45
-0.827762 -0.227452 -0.2205 49
-0.833245 -0.393298 -0.204396 42
-7.2153 -1.97128 1.71603 32
-7.28318 -3.48565 2.15122 35
-7.25815 -1.98433 1.18355 29
-7.28492 -3.47093 1.56037 9
-7.36304 -3.49721 0.99517 35
-1.68514 -0.461491 0.0298872 55
-0.825823 -0.226433 -0.100704 52
-0.847914 -0.396955 -0.0787186 52
-0.824361 -0.225577 -0.159039 50
-0.836198 -0.392077 -0.140946 47
-0.821165 -0.224111 -0.21856 47
-0.836061 -0.393036 -0.204957 42
-7.21375 -1.93033 1.71322 32
-7.28326 -3.44048 2.14605 35
-7.26844 -1.9463 1.18355 29
-7.28907 -3.42774 1.55751 9
-7.36777 -3.45229 0.993344 35
-1.68987 -0.453602 0.0299309 55
-0.829395 -0.222745 -0.101008 50
-0.843214 -0.389343 -0.0780662 52
-0.823121 -0.22077 -0.158563 49
-0.827061 -0.382453 -0.138989 45
-0.826957 -0.221192 -0.219853 47
-0.831494 -0.385544 -0.203273 42
-7.21711 -1.91774 1.71322 33
-7.28051 -3.42365 2.14346 33
-7.27182 -1.93361 1.18355 29
-7.28897 -3.41061 1.55608 11
-7.3558 -3.43102 0.990911 33
-1.68349 -0.448432 0.0298 56
-0.670475 -0.179332 -0.0346568 52
-0.822586 -0.219391 -0.100095 50
-0.848407 -0.389974 -0.0785011 53
-0.82825 -0.220588 -0.159516 50
-0.83444 -0.384141 -0.140163 45
-0.815704 -0.216526 -0.21662 45
-0.829959 -0.38306 -0.202711 42
-7.22031 -1.87682 1.71154 35
-7.27703 -3.37403 2.137 33
