# .PCD v0.7 - Point Cloud Data file format
VERSION 0.7
FIELDS x y z intensity
SIZE 4 4 4 4
TYPE F F F F
COUNT 1 1 1 1
WIDTH 1513
HEIGHT 1
VIEWPOINT 0 0 0 1 0 0 0
POINTS 1513
DATA ascii
-0.673027 -0.107518 -0.0340004 55
-1.69747 -0.581751 -0.0307162 53
-0.823644 -0.13083 -0.0979654 53
-0.834572 -0.283602 -0.0739346 55
-0.817466 -0.129573 -0.153802 50
-0.827514 -0.281774 -0.133116 49
-0.819324 -0.129296 -0.21274 47
-0.82127 -0.280367 -0.192042 42
-7.1927 -1.12391 1.66998 35
-7.3048 -1.1427 1.16287 41
-7.28089 -1.13896 0.641684 35
-3.11887 -1.07127 0.400076 3
-1.76313 -0.276555 0.0305417 8
-1.69851 -0.579786 0.0922421 49
-0.663346 -0.104805 -0.0334753 55
-1.69139 -0.57635 -0.0305853 53
-0.821397 -0.129155 -0.0976611 55
-0.83742 -0.282955 -0.074152 53
-0.820116 -0.128522 -0.154278 52
-0.821001 -0.277916 -0.131941 47
-0.821936 -0.128234 -0.213387 50
-0.814802 -0.276687 -0.190358 44
-7.22498 -1.09023 1.67616 27
-7.3058 -1.1037 1.16209 41
-7.2841 -1.10172 0.641466 32
-3.13383 -1.05811 0.401293 3
-1.69443 -0.568483 0.0918496 49
-0.668823 -0.102074 -0.0337378 55
-1.69902 -0.569383 -0.0306726 53
-0.819608 -0.124483 -0.0973569 53
-0.831813 -0.276173 -0.0734997 53
-0.82561 -0.125096 -0.15523 52
-0.822445 -0.273613 -0.131941 49
-0.817797 -0.12336 -0.212093 50
-0.81624 -0.272417 -0.190358 44
-7.13772 -1.06434 1.65538 14
-7.29794 -1.08949 1.16053 41
-7.02245 -1.04966 0.618152 1
-1.69779 -0.566321 0.0919804 49
-0.666531 -0.100539 -0.0336066 56
-1.69291 -0.564027 -0.0305417 53
-0.824733 -0.123781 -0.0979654 53
-0.832293 -0.274721 -0.0734997 55
-0.820972 -0.122936 -0.154278 52
-0.825261 -0.272966 -0.132333 49
-0.818032 -0.12179 -0.212093 50
-0.816714 -0.270992 -0.190358 45
-7.07344 -1.01568 1.6391 26
-7.02264 -1.00964 1.11565 1
-7.0157 -1.00988 0.617063 1
-1.69609 -0.55556 0.0917188 49
-0.671991 -0.0977562 -0.0338691 58
-1.69118 -0.553293 -0.0304544 52
-0.822934 -0.118966 -0.0976611 53
-0.83845 -0.271922 -0.0739346 55
-0.819195 -0.118146 -0.153802 50
-0.824382 -0.267721 -0.131941 49
-0.825832 -0.118522 -0.214033 50
-0.808921 -0.263498 -0.188112 44
-7.07261 -1.00423 1.63854 26
-7.02439 -0.997378 1.11565 1
-7.00759 -0.996231 0.616191 1
-1.69705 -0.552599 0.0917188 49
-0.669689 -0.0962332 -0.0337378 53
-1.69215 -0.55034 -0.0304544 52
-0.820683 -0.117183 -0.0973569 53
-0.831825 -0.268127 -0.0732822 53
-0.8194 -0.116716 -0.153802 50
-0.827193 -0.267053 -0.132333 49
-0.816471 -0.115741 -0.211447 49
-0.814006 -0.263614 -0.189235 47
-7.06588 -0.964302 1.63573 26
-7.01728 -0.958916 1.1137 1
-7.00777 -0.958852 0.615755 1
-7.03216 -2.27035 0.901768 1
-1.69755 -0.542939 0.0915879 50
-0.670183 -0.0927254 -0.0337378 53
-1.69501 -0.541472 -0.0304544 53
-0.821286 -0.112884 -0.0973569 53
-0.833217 -0.263768 -0.0732822 53
-0.82 -0.112425 -0.153802 52
-0.823881 -0.2612 -0.13155 49
-0.819459 -0.111787 -0.212093 49
-0.808423 -0.257093 -0.18755 44
-7.07462 -0.954178 1.63741 26
-7.24382 -2.34991 2.02844 45
-7.0165 -0.946337 1.11331 1
-7.00697 -0.946287 0.615537 1
-7.04557 -2.26111 0.902985 1
-3.11121 -0.420391 0.0541897 35
-1.69849 -0.539975 0.0915879 50
-0.660447 -0.0902245 -0.0332127 55
-1.69595 -0.538513 -0.0304544 52
-0.823941 -0.11178 -0.0976611 53
-0.831305 -0.261553 -0.0730648 55
-0.820195 -0.110993 -0.153802 50
-0.821985 -0.259006 -0.131158 49
-0.826835 -0.111311 -0.214033 50
-0.815826 -0.257924 -0.189235 45
-7.07244 -0.91495 1.63573 26
-6.97536 -2.22233 1.9496 1
-7.02381 -0.909903 1.1137 1
-7.23671 -2.29193 1.46743 42
-7.00689 -0.908946 0.615102 1
-7.34125 -2.31388 0.939494 38
-3.11584 -0.404416 0.0542333 32
-1.69892 -0.530324 0.0914571 50
-0.665862 -0.0874048 -0.0334753 55
-1.69398 -0.528125 -0.0303672 53
-0.822054 -0.107148 -0.0973569 53
-0.832663 -0.257197 -0.0730648 55
-0.818331 -0.106385 -0.153325 50
-0.818621 -0.253213 -0.130375 49
-0.815429 -0.105452 -0.2108 49
-0.812521 -0.252178 -0.188112 45
-7.07386 -0.90384 1.63573 27
-6.99073 -2.2138 1.95283 1
-7.01559 -0.896393 1.11214 1
-7.23836 -2.27856 1.46696 39
-7.01093 -0.897031 0.61532 1
-7.3287 -2.29586 0.937364 33
-3.11654 -0.398977 0.0542333 18
-1.69984 -0.527358 0.0914571 50
-0.661061 -0.0856115 -0.0332127 55
-1.69251 -0.524422 -0.0303236 55
-0.824701 -0.106026 -0.0976611 55
-0.828357 -0.254255 -0.0726299 53
-0.82095 -0.105264 -0.153802 52
-0.819061 -0.251784 -0.130375 47
-0.820403 -0.104632 -0.212093 49
-0.810636 -0.250029 -0.18755 47
-7.0714 -0.864668 1.63404 26
-7.24432 -2.25262 2.02068 36
-7.02263 -0.859947 1.11253 1
-7.23144 -2.23482 1.46314 32
-7.00565 -0.859099 0.614448 1
-7.3264 -2.25307 0.935539 32
-3.10867 -0.38144 0.0540588 24
-1.70019 -0.517717 0.0913262 50
-0.663978 -0.0824516 -0.033344 55
-1.69523 -0.515552 -0.0303236 53
-0.820319 -0.101107 -0.0970526 55
-0.836819 -0.252109 -0.0732822 53
-0.816617 -0.100374 -0.152849 52
-0.820325 -0.247635 -0.130375 49
-0.818542 -0.100046 -0.211447 50
-0.811934 -0.245781 -0.18755 47
-7.06791 -0.852976 1.63292 27
-7.24132 -2.23783 2.01874 41
-7.02152 -0.848619 1.11214 1
-7.22594 -2.21931 1.46124 32
-7.28159 -0.879986 0.638634 36
-7.32044 -2.23865 0.934322 32
-3.10933 -0.376014 0.0540588 29
-1.69861 -0.514316 0.0911954 50
-0.664121 -0.0812926 -0.033344 56
-1.69135 -0.511134 -0.0302363 53
-0.818013 -0.0995229 -0.0967484 55
-0.82773 -0.247738 -0.0724124 53
-0.819228 -0.0992397 -0.153325 52
-0.823117 -0.246926 -0.130767 49
-0.821114 -0.0989018 -0.212093 50
-0.812319 -0.244505 -0.18755 47
-7.06986 -0.815679 1.63236 27
-7.241 -2.19763 2.01551 33
-7.01606 -0.810711 1.11058 1
-7.22534 -2.17916 1.45885 30
-7.00391 -0.810536 0.613794 1
-7.32255 -2.19743 0.933105 32
-3.11367 -0.360558 0.0541025 30
-1.70128 -0.505415 0.0911954 50
-0.657097 -0.0769585 -0.0329502 55
-1.69391 -0.502567 -0.0302363 53
-0.818522 -0.0952385 -0.0967484 55
-0.836173 -0.245546 -0.0730648 53
-0.817281 -0.0948132 -0.152849 52
-0.819669 -0.241192 -0.129984 49
-0.821604 -0.0947446 -0.212093 50
-0.813588 -0.240248 -0.18755 47
-7.06643 -0.802789 1.63124 27
-7.24021 -2.18359 2.01422 33
-7.01746 -0.798464 1.11058 1
-7.22246 -2.16316 1.45742 30
-7.00284 -0.798029 0.613576 1
-7.31687 -2.1818 0.931888 32
-3.10939 -0.354016 0.0540152 29
-1.69738 -0.501018 0.0909337 50
-0.662192 -0.0763733 -0.0332127 56
-1.69239 -0.498896 -0.0301927 55
-0.813756 -0.0932531 -0.0961399 55
-0.827052 -0.241243 -0.0721949 52
-0.812568 -0.0928378 -0.151897 52
-0.820089 -0.239761 -0.129984 49
-0.819384 -0.0928991 -0.211447 50
-0.811673 -0.238129 -0.186989 45
-7.07067 -0.764544 1.63124 26
-7.24497 -2.14233 2.01228 33
-7.01923 -0.760219 1.11019 1
-7.23368 -2.12532 1.45742 33
-7.00458 -0.759861 0.613359 1
-7.31428 -2.138 0.930062 32
-3.10623 -0.337193 0.0539279 26
-1.69527 -0.490427 0.090672 50
-0.6601 -0.0726372 -0.0330815 56
-1.69507 -0.489732 -0.0301927 56
-0.816716 -0.0891139 -0.0964442 55
-0.823523 -0.235513 -0.07176 53
-0.820379 -0.0892237 -0.153325 53
-0.821333 -0.235464 -0.129984 49
-0.817458 -0.0883522 -0.2108 50
-0.812949 -0.233734 -0.186989 47
-7.06944 -0.753179 1.63068 26
-7.2348 -2.12559 2.0084 33
-7.0155 -0.74867 1.10941 1
-7.22561 -2.10924 1.45504 33
-7.00342 -0.74737 0.613141 1
-7.3081 -2.12373 0.928846 32
-3.11179 -0.3323 0.0540152 21
-1.69604 -0.487763 0.090672 50
-0.652778 -0.0706943 -0.0326876 56
-1.69352 -0.486077 -0.030149 55
-0.816855 -0.0878309 -0.0964442 55
-0.82154 -0.233381 -0.0715426 52
-0.815652 -0.0872778 -0.152373 53
-0.824114 -0.234719 -0.130375 47
-0.820013 -0.0871765 -0.211447 50
-0.813315 -0.232457 -0.186989 47
-6.8503 -0.693621 1.57901 1
-7.24082 -2.0876 2.00711 33
-7.00213 -0.710186 1.10668 1
-7.23383 -2.07197 1.45457 35
-7.27967 -0.739551 0.637109 36
-7.31434 -2.08407 0.928237 32
-3.10597 -0.31579 0.0538843 17
-1.69617 -0.478192 0.0905412 52
-0.658107 -0.0677765 -0.0329502 56
-1.69355 -0.476815 -0.0301054 59
-0.812365 -0.0830563 -0.0958357 56
-0.825147 -0.229758 -0.07176 53
-0.816083 -0.0831484 -0.152373 53
-0.818208 -0.228369 -0.129201 49
-0.818041 -0.0827859 -0.2108 50
-0.807495 -0.226183 -0.185304 44
-6.8515 -0.681664 1.57901 1
-7.23981 -2.07363 2.00582 33
-7.00336 -0.697963 1.10668 1
-7.22835 -2.05538 1.45266 35
-7.2859 -0.727338 0.637544 30
-7.3132 -2.06995 0.927629 32
-3.10657 -0.309827 0.0538843 14
-1.697 -0.475231 0.0905412 50
-0.660709 -0.066874 -0.0330815 58
-1.69438 -0.473858 -0.0301054 74
-0.817448 -0.0821261 -0.0964442 55
-0.82315 -0.22764 -0.0715426 52
-0.821112 -0.0822046 -0.153325 53
-0.820981 -0.227614 -0.129592 49
-0.818198 -0.0812152 -0.2108 52
-0.810232 -0.22544 -0.185866 47
-6.85023 -0.644129 1.57789 1
-7.24627 -2.03312 2.00453 33
-6.9972 -0.659137 1.10512 1
-7.24138 -2.01817 1.45314 35
-7.27485 -0.686506 0.636237 36
-7.33146 -2.03235 0.928541 35
-3.09322 -0.292153 0.0536225 12
-1.69714 -0.465376 0.0904104 52
-0.658565 -0.0631804 -0.0329502 56
-1.70174 -0.466018 -0.0301927 90
-0.81541 -0.0774716 -0.0961399 55
-0.826731 -0.223992 -0.07176 52
-0.81177 -0.0768523 -0.151421 52
-0.824541 -0.223973 -0.129984 49
-0.811398 -0.0762646 -0.20886 50
-0.816133 -0.22236 -0.186989 45
-6.92644 -0.640305 1.5953 1
-7.23818 -2.01722 2.0013 33
-7.00314 -0.6486 1.1059 1
-7.22834 -2.00093 1.4498 35
-7.281 -0.674266 0.636673 36
-7.3179 -2.0162 0.926412 33
-3.09621 -0.286983 0.0536661 11
-1.69546 -0.462047 0.0902795 53
-0.658674 -0.0620309 -0.0329502 58
-1.69291 -0.460397 -0.0300181 90
-0.81553 -0.0761906 -0.0961399 55
-0.817515 -0.219907 -0.0708902 52
-0.811903 -0.0754353 -0.151421 52
-0.817789 -0.220564 -0.128809 50
-0.81153 -0.0748484 -0.20886 49
-0.814134 -0.220428 -0.186427 47
-7.06803 -0.616059 1.62731 1
-7.24597 -1.97992 2.00065 33
-6.9966 -0.611065 1.10433 1
-7.236 -1.96368 1.44932 35
-7.27688 -0.636755 0.636019 36
-7.32596 -1.97721 0.926107 35
-3.09016 -0.270657 0.0535353 11
-1.69786 -0.453163 0.0902795 52
-1.69763 -0.452473 -0.0300618 85
-0.81839 -0.0721332 -0.0964442 55
-0.818655 -0.215623 -0.0708902 50
-0.809829 -0.0711145 -0.150945 52
-0.821317 -0.216923 -0.129201 50
-0.809492 -0.0705345 -0.208214 50
-0.810575 -0.214886 -0.185304 47
-7.06424 -0.603308 1.62618 1
-7.22844 -1.96156 1.99483 33
-6.99765 -0.598853 1.10433 1
-7.23028 -1.94722 1.44742 35
-7.27798 -0.624054 0.636019 36
-7.31742 -1.9612 0.924586 35
-3.09814 -0.265361 0.0536661 11
-1.689 -0.447614 0.0897562 52
-1.696 -0.448863 -0.0300181 80
-0.811097 -0.0700766 -0.0955314 56
-0.816624 -0.21355 -0.0706728 50
-0.817289 -0.0703196 -0.152373 53
-0.819309 -0.214849 -0.128809 50
-0.816846 -0.0695827 -0.210153 50
-0.813301 -0.214105 -0.185866 47
-7.07955 -0.566047 1.62899 1
-7.23428 -1.92118 1.99354 33
-7.00079 -0.560983 1.10433 1
-7.23326 -1.90746 1.44599 35
-7.27628 -0.584269 0.635583 36
-7.31353 -1.9178 0.922761 33
-3.097 -0.248936 0.0536225 11
-1.6914 -0.438469 0.0897562 52
-0.651917 -0.0533838 -0.0325564 56
-1.69115 -0.437781 -0.0298872 76
-0.816412 -0.0660791 -0.0961399 56
-0.817731 -0.209271 -0.0706728 49
-0.81521 -0.0657037 -0.151897 52
-0.82046 -0.210413 -0.128809 50
-0.812384 -0.0649283 -0.20886 50
-0.812092 -0.209081 -0.185304 47
-7.07314 -0.554356 1.62731 1
-7.22128 -1.90423 1.98902 33
-7.00176 -0.548764 1.10433 1
-7.22471 -1.89171 1.4436 33
-7.27977 -0.571764 0.635801 36
-7.09357 -1.84674 0.894466 1
-3.09992 -0.243725 0.0536661 11
-1.68733 -0.434259 0.0894945 52
-0.656987 -0.0526342 -0.0328189 58
-0.814052 -0.0644624 -0.0958357 56
-0.810864 -0.205963 -0.0700204 50
-0.815324 -0.0642808 -0.151897 53
-0.816047 -0.207735 -0.128026 49
-0.814904 -0.0636944 -0.209507 52
-0.814812 -0.20828 -0.185866 47
-7.0809 -0.516432 1.62843 1
-7.2218 -1.86398 1.98643 32
-6.99222 -0.511198 1.10238 1
-7.22501 -1.85142 1.4417 35
-7.2777 -0.533276 0.635365 36
-7.32193 -1.86546 0.922152 35
-3.11362 -0.2284 0.0538843 8
-1.68958 -0.425418 0.0894945 52
-0.649783 -0.0486502 -0.0324251 56
-0.811903 -0.0600205 -0.0955314 56
-0.811932 -0.201715 -0.0700204 50
-0.813201 -0.059835 -0.151421 53
-0.814696 -0.202992 -0.127635 49
-0.817635 -0.0595981 -0.210153 50
-0.808811 -0.202197 -0.184181 49
-7.06469 -0.504099 1.6245 1
-7.22738 -1.85197 1.98708 32
-6.99056 -0.500038 1.10199 1
-7.21872 -1.83638 1.43979 35
-7.27862 -0.520573 0.635365 35
-7.31282 -1.85091 0.920631 35
-1.69025 -0.422763 0.0894945 52
-0.649867 -0.0475161 -0.0324251 56
-0.807046 -0.0583955 -0.094923 56
-0.805038 -0.198467 -0.069368 50
-0.810856 -0.058244 -0.150945 53
-0.817442 -0.202176 -0.128026 49
-0.817738 -0.058171 -0.210153 52
-0.816211 -0.202729 -0.185866 47
-7.07695 -0.467742 1.62674 1
-7.22027 -1.81124 1.98256 33
-6.99554 -0.463592 1.10238 1
-7.22792 -1.79982 1.43979 35
-7.27619 -0.483397 0.63493 35
-7.32 -1.81199 0.920327 33
-1.69001 -0.413308 0.0893636 52
-0.65509 -0.0444402 -0.0326876 58
-0.812293 -0.0544927 -0.0955314 56
-0.801231 -0.193054 -0.0689331 49
-0.81359 -0.0542983 -0.151421 52
-0.816093 -0.197299 -0.127635 49
-0.818022 -0.0540313 -0.210153 52
-0.807805 -0.196098 -0.183619 47
-7.08262 -0.455702 1.62787 1
-7.21639 -1.79688 1.98062 33
-6.99634 -0.451381 1.10238 1
-7.21707 -1.7824 1.43693 35
-7.27454 -0.470537 0.634712 33
-7.31352 -1.79684 0.91911 35
-1.68588 -0.409167 0.089102 53
-0.660149 -0.0436155 -0.0329502 58
-0.814863 -0.0532324 -0.0958357 56
-0.808785 -0.0525684 -0.150468 53
-0.814038 -0.195285 -0.127243 49
-0.818124 -0.0524607 -0.210153 52
-0.810511 -0.195273 -0.184181 49
-6.97068 -0.410664 1.60148 1
-7.21897 -1.75609 1.97868 33
-6.99375 -0.413231 1.1016 1
-7.22153 -1.74343 1.43598 35
-7.28692 -0.431758 0.635583 33
-7.31107 -1.75434 0.917589 35
-1.68564 -0.399457 0.0889711 52
-0.660368 -0.0401584 -0.0329502 58
-1.56382 -0.369662 -0.0274439 17
-0.817617 -0.048967 -0.0961399 56
-0.811507 -0.0483334 -0.150945 55
-0.824653 -0.193329 -0.128809 49
-0.813565 -0.0479008 -0.20886 50
-0.811556 -0.190884 -0.184181 49
-6.86674 -0.393739 1.57733 1
-7.21733 -1.74235 1.97739 33
-7.27297 -0.41821 1.1457 38
-7.21263 -1.72796 1.4336 36
-7.27772 -0.41847 0.634712 33
-7.08937 -1.68922 0.889294 1
-1.68627 -0.396808 0.0889711 53
-0.647975 -0.0382959 -0.0322938 59
-1.56203 -0.366354 -0.0274003 21
-0.812738 -0.0474021 -0.0955314 56
-0.814041 -0.0470544 -0.151421 52
-0.817784 -0.19017 -0.127635 50
-0.813648 -0.0464808 -0.20886 52
-0.809486 -0.189042 -0.183619 47
-6.85654 -0.357148 1.57452 1
-7.22135 -1.70469 1.97609 33
-7.28246 -0.380508 1.14687 38
-7.20934 -1.68862 1.43121 35
-7.28969 -0.382148 0.635583 33
-7.30109 -1.69946 0.91485 32
-1.68589 -0.387408 0.0888403 55
-0.650654 -0.0351451 -0.0324251 59
-1.5663 -0.359009 -0.0274439 21
-0.808019 -0.0428915 -0.094923 56
-0.811818 -0.0428085 -0.150945 53
-0.816363 -0.185325 -0.127243 49
-0.809049 -0.0421193 -0.207567 52
-0.808092 -0.184245 -0.183058 47
-6.86926 -0.346989 1.57733 1
-7.21491 -1.68987 1.97351 33
-7.27571 -0.367425 1.1457 36
-7.21228 -1.67604 1.43121 35
-7.28537 -0.369174 0.635147 33
-7.29438 -1.68448 0.913633 33
-1.68413 -0.383903 0.0887094 55
-0.653207 -0.0341344 -0.0325564 59
-1.56936 -0.356836 -0.0274875 23
-0.808092 -0.0414811 -0.094923 56
-0.814342 -0.0415123 -0.151421 52
-0.819091 -0.184456 -0.127635 50
-0.811533 -0.0408243 -0.208214 50
-0.810786 -0.183386 -0.183619 47
-6.87109 -0.308619 1.57733 1
-7.2216 -1.65027 1.97286 33
-7.27266 -0.327833 1.14492 36
-7.21885 -1.63645 1.43074 35
-7.29473 -0.330087 0.635801 33
-7.08313 -1.59523 0.885948 1
-1.68619 -0.374786 0.0887094 55
-0.6459 -0.0302652 -0.0321625 59
-0.810784 -0.0372179 -0.0952272 56
-0.7808 -0.170765 -0.0667586 42
-0.809651 -0.0368908 -0.150468 52
-0.81526 -0.178935 -0.126852 50
-0.811742 -0.0364329 -0.208214 50
-0.814142 -0.179535 -0.184181 49
-6.87643 -0.298035 1.57845 1
-7.21269 -1.63499 1.96963 33
-7.27322 -0.315139 1.14492 36
-7.21451 -1.62222 1.42931 35
-7.28783 -0.317032 0.635147 32
-7.3014 -1.63115 0.913025 33
-1.6844 -0.371298 0.0885786 55
-0.645952 -0.0291379 -0.0321625 59
-0.808368 -0.0356975 -0.094923 56
-0.776236 -0.168317 -0.0663237 41
-0.812167 -0.0355808 -0.150945 52
-0.815571 -0.177512 -0.126852 50
-0.814217 -0.035116 -0.20886 50
-0.8097 -0.177045 -0.183058 49
-6.87794 -0.260826 1.57845 1
-7.21879 -1.59668 1.96899 33
-7.27477 -0.277053 1.14492 36
-7.21571 -1.58284 1.42788 35
-7.29188 -0.278963 0.635365 32
-7.29772 -1.59025 0.911504 33
-1.68388 -0.361942 0.0884478 55
-0.648591 -0.0258494 -0.0322938 59
-1.63473 -0.350642 -0.0285783 44
-0.813504 -0.0316489 -0.0955314 56
-0.769806 -0.162662 -0.0656713 41
-0.809889 -0.0312375 -0.150468 52
-0.814047 -0.172855 -0.12646 50
-0.809563 -0.0306778 -0.207567 50
-0.810616 -0.172803 -0.183058 49
-7.06824 -0.256886 1.62225 21
-7.21921 -1.58356 1.96834 33
-7.27026 -0.265446 1.14414 36
-7.21127 -1.56868 1.42645 35
-7.29484 -0.266326 0.635583 30
-7.07469 -1.52986 0.883209 1
-3.12739 -0.114423 0.0540152 9
-1.68201 -0.358769 0.0883169 55
-0.64614 -0.0246276 -0.0321625 59
-1.66221 -0.353585 -0.0290583 52
-0.811072 -0.0302827 -0.0952272 56
-0.76522 -0.160267 -0.0652364 41
-0.809942 -0.0298239 -0.150468 52
-0.811934 -0.170911 -0.126069 50
-0.812029 -0.0293478 -0.208214 50
-0.810887 -0.171529 -0.183058 49
-6.87713 -0.213929 1.57789 1
-7.22241 -1.54598 1.96705 33
-7.27402 -0.227452 1.14453 36
-7.21432 -1.53114 1.42549 35
-7.28863 -0.229167 0.63493 29
-7.06803 -1.48971 0.881384 1
-3.08545 -0.0972724 0.0532735 9
-1.68386 -0.349957 0.0883169 55
-0.64626 -0.0212441 -0.0321625 59
-1.67132 -0.346711 -0.0291891 55
-0.8137 -0.0261109 -0.0955314 56
-0.763611 -0.155745 -0.065019 41
-0.812536 -0.0257977 -0.150945 52
-0.815234 -0.167168 -0.12646 50
-0.812167 -0.0252374 -0.208214 50
-0.811774 -0.167281 -0.183058 49
-6.85801 -0.201357 1.5734 1
-7.21565 -1.53136 1.96446 33
-7.26947 -0.214611 1.14375 36
-7.20764 -1.51526 1.42359 33
-7.28902 -0.216446 0.63493 30
-7.06334 -1.47585 0.880471 1
-3.10313 -0.0918585 0.0535789 12
-1.67958 -0.345997 0.0880552 56
-0.651287 -0.0202608 -0.0324251 61
-1.67926 -0.345325 -0.02932 56
-0.811264 -0.0246197 -0.0952272 56
-0.759006 -0.153395 -0.064584 39
-0.81258 -0.0243795 -0.150945 53
-0.815524 -0.165745 -0.12646 50
-0.8098 -0.023612 -0.207567 50
-0.80968 -0.165363 -0.182496 49
-6.86143 -0.164307 1.57396 1
-7.22147 -1.49181 1.96382 33
-7.27299 -0.175336 1.14414 36
-7.21788 -1.47799 1.42406 35
-7.29257 -0.177065 0.635147 29
-7.07122 -1.43761 0.880471 1
-3.10356 -0.0756094 0.0535789 12
-1.68143 -0.336904 0.0880552 56
-0.651384 -0.0168504 -0.0324251 59
-1.68111 -0.336234 -0.02932 61
-0.806424 -0.0201148 -0.0946187 58
-0.810246 -0.0199266 -0.150468 52
-0.813962 -0.160979 -0.126069 50
-0.807498 -0.019318 -0.20692 50
-0.810563 -0.160979 -0.182496 50
-6.87386 -0.153799 1.57677 1
-7.21933 -1.47823 1.96252 35
-7.27326 -0.163911 1.14414 35
-7.20842 -1.46294 1.42168 35
-7.29038 -0.164282 0.63493 32
-7.0686 -1.42552 0.879863 1
-3.10119 -0.0701372 0.0535353 15
-1.67951 -0.333769 0.0879244 56
-0.646421 -0.0156037 -0.0321625 59
-1.67924 -0.332806 -0.0292764 62
-0.806454 -0.018848 -0.0946187 56
-0.81028 -0.0185124 -0.150468 52
-0.811821 -0.159069 -0.125677 50
-0.809945 -0.017958 -0.207567 50
-0.81559 -0.160676 -0.183619 49
-6.88919 -0.118053 1.58014 1
-7.21014 -1.43836 1.958 33
-7.26908 -0.125742 1.14336 36
-7.20611 -1.42453 1.41977 33
-7.28614 -0.127294 0.634494 30
-7.06867 -1.38705 0.87895 1
-3.09651 -0.0543543 0.053448 29
-1.67879 -0.32449 0.0877936 56
-0.64899 -0.0122606 -0.0322938 59
-1.67845 -0.323822 -0.0292328 64
-0.811504 -0.0147066 -0.0952272 56
-0.810363 -0.014411 -0.150468 52
-0.81022 -0.15434 -0.125285 50
-0.810026 -0.0138583 -0.207567 52
-0.81164 -0.155458 -0.182496 50
-6.90643 -0.106288 1.58407 1
-7.21027 -1.4253 1.95735 33
-7.26435 -0.112979 1.14258 35
-7.21124 -1.41117 1.42025 35
-7.06377 -1.37328 0.878037 1
-3.10161 -0.0484852 0.0535353 35
-1.67935 -0.321559 0.0877936 56
-0.64901 -0.0111279 -0.0322938 59
-1.67656 -0.320416 -0.0291891 59
-0.804085 -0.0131811 -0.0943145 58
-0.812841 -0.0130318 -0.150945 52
-0.817759 -0.154342 -0.12646 49
-0.805221 -0.0122382 -0.206274 50
-0.804738 -0.152637 -0.180812 50
-7.21313 -1.38535 1.95606 33
-7.21612 -1.37293 1.41977 35
-7.06622 -1.33412 0.877429 1
-3.09682 -0.0321949 0.053448 23
-1.68107 -0.312469 0.0877936 56
-0.64906 -0.00772958 -0.0322938 59
-1.66844 -0.309489 -0.0290146 64
-0.806626 -0.00885337 -0.0946187 58
-0.807991 -0.00859003 -0.149992 53
-0.81613 -0.149599 -0.126069 50
-0.812519 -0.00808134 -0.208214 52
-0.810339 -0.149191 -0.181935 49
-7.20368 -1.3705 1.95283 33
-7.21127 -1.35896 1.41834 35
-3.11307 -0.0274662 0.269311 8
-7.06343 -1.3221 0.87682 1
-3.09937 -0.0268104 0.0534916 23
-1.67665 -0.308909 0.0875319 56
-0.651568 -0.00661679 -0.0324251 59
-1.6567 -0.304284 -0.0287965 58
-0.804158 -0.00756726 -0.0943145 58
-0.803097 -0.00714468 -0.14904 53
-0.813963 -0.147719 -0.125677 50
-0.807702 -0.00663202 -0.20692 50
-0.805784 -0.147015 -0.180812 49
-7.20578 -1.33314 1.95154 33
-3.10434 -0.0111503 0.485049 4
-7.20599 -1.32023 1.41596 35
-3.07831 -0.0115936 0.266261 9
-7.06537 -1.28421 0.876212 1
-3.07947 -0.01106 0.0531426 14
-1.67333 -0.299233 0.0872702 52
-0.649098 -0.00319814 -0.0322938 59
-1.66805 -0.29768 -0.028971 47
-0.801705 -0.00335055 -0.0940102 59
-0.7113 -0.124141 -0.0600175 36
-0.810485 -0.00309519 -0.150468 56
-0.809867 -0.142571 -0.124894 49
-0.80531 -0.00254044 -0.206274 52
-0.808939 -0.143233 -0.181373 49
-7.20097 -1.31925 1.9496 33
-3.08954 -0.00571153 0.482707 2
-7.20368 -1.30551 1.41501 35
-3.07334 -0.00621311 0.265825 9
-7.06272 -1.271 0.875603 1
-3.07699 -0.00514476 0.0530989 14
-1.67139 -0.29587 0.0871394 39
-0.646606 -0.00206263 -0.0321625 59
-1.64151 -0.289908 -0.0284911 47
-0.794265 -0.00194611 -0.0930975 59
-0.706613 -0.122019 -0.0595826 36
-0.808035 -0.00167977 -0.149992 53
-0.810114 -0.141157 -0.124894 49
-0.807729 -0.000993085 -0.20692 52
-0.809188 -0.141821 -0.181373 49
-7.20324 -1.27942 1.94831 33
-3.05002 0.0108459 0.476464 9
-7.20558 -1.26692 1.41405 35
-3.05092 0.0103292 0.263864 14
-7.06461 -1.23191 0.874995 1
-3.05947 0.0108961 0.0527935 20
-1.67543 -0.287252 0.0872702 20
-0.649104 0.00133346 -0.0322938 59
-1.62089 -0.277166 -0.0280984 12
-0.799227 0.00237467 -0.093706 59
-0.704788 -0.11789 -0.0593651 36
-0.805578 0.00267971 -0.149516 55
-0.806001 -0.135922 -0.124111 50
-0.805308 0.00322226 -0.206274 50
-0.809943 -0.137441 -0.181373 47
-7.19595 -1.26517 1.94572 35
-3.05246 0.0161834 0.476854 9
-7.20295 -1.2535 1.4131 35
-3.0484 0.0156401 0.263646 15
-7.06186 -1.21873 0.874387 1
-3.05195 0.0161926 0.0526626 23
-1.69315 -0.287299 0.0881861 14
-0.646604 0.00245154 -0.0321625 59
-1.65339 -0.279851 -0.0286656 12
-0.79674 0.00375356 -0.0934018 59
-0.702538 -0.116237 -0.0591477 36
-0.808027 0.00410241 -0.149992 55
-0.808671 -0.134936 -0.124502 50
-0.802886 0.00460966 -0.205627 52
-0.807782 -0.135609 -0.180812 49
-7.2001 -1.22706 1.94508 35
-3.05481 0.0321929 0.477244 9
-7.19973 -1.21413 1.4112 35
-3.05575 0.0316821 0.2643 14
-7.05835 -1.18009 0.87317 1
-3.04433 0.0320899 0.0525317 32
-1.71925 -0.282546 0.0894945 14
-0.651575 0.00589287 -0.0324251 61
-1.65977 -0.272013 -0.0287528 11
-0.79671 0.00792521 -0.0934018 61
-0.700681 -0.112146 -0.0589302 38
-0.803086 0.00827404 -0.14904 55
-0.799603 -0.129207 -0.122936 50
-0.80768 0.00887501 -0.20692 52
-0.803677 -0.130568 -0.179689 49
-7.19985 -1.21409 1.94443 36
-3.05228 0.0369603 0.476854 8
-7.19942 -1.20116 1.41072 35
-3.0532 0.036984 0.264082 14
-7.06264 -1.16941 0.873474 1
-3.04926 0.0374669 0.052619 23
-1.74679 -0.28433 0.0909337 14
-0.646572 0.00696559 -0.0321625 61
-1.6923 -0.274406 -0.02932 11
-0.796696 0.00917666 -0.0934018 62
-0.698418 -0.110517 -0.0587128 38
-0.80307 0.00967567 -0.14904 55
-0.802263 -0.128216 -0.123328 50
-0.805249 0.0102497 -0.206274 52
-0.801478 -0.128904 -0.179127 49
-7.20352 -1.17725 1.94378 35
-3.1113 0.0539965 0.486219 1
-7.19572 -1.16313 1.40881 35
-3.06791 0.0527005 0.265389 2
-7.05887 -1.13084 0.872257 1
-3.06903 0.053256 0.052968 3
-1.77044 -0.278734 0.0921113 14
-0.649022 0.0103962 -0.0322938 61
-1.6986 -0.266626 -0.0294073 11
-0.796637 0.013348 -0.0934018 67
-0.68915 -0.105287 -0.0578429 39
-0.810372 0.013879 -0.150468 56
-0.802923 -0.124013 -0.123328 50
-0.802773 0.0142781 -0.205627 52
-0.806952 -0.125483 -0.18025 49
-7.19602 -1.16312 1.9412 35
-6.97258 -1.11317 1.36449 1
-3.07778 0.0582479 0.266261 11
-7.05838 -1.11813 0.871953 1
-3.07392 0.0592466 0.0530553 14
-1.80051 -0.28033 0.0936814 14
-0.649003 0.011529 -0.0322938 64
-1.71141 -0.265612 -0.0296255 15
-0.796613 0.0147384 -0.0934018 68
-0.684413 -0.103306 -0.057408 41
-0.812801 0.0153439 -0.150945 58
-0.8007 -0.122225 -0.122936 50
-0.800329 0.0157674 -0.20498 52
-0.802358 -0.123306 -0.179127 49
-7.19506 -1.12305 1.93926 35
-6.96861 -1.07515 1.36258 1
-7.06678 -1.0803 0.872257 1
-3.09606 0.0759021 0.053448 14
-0.648934 0.014927 -0.0322938 68
-0.796521 0.0190482 -0.0934018 68
-0.689868 -0.100473 -0.0578429 42
-0.810252 0.0196775 -0.150468 58
-0.811112 -0.119386 -0.124502 50
-0.80265 0.0200222 -0.205627 52
-0.800606 -0.118591 -0.178566 49
-7.15322 0.189651 1.64134 33
-7.197 -1.11049 1.93926 35
-7.26021 0.192521 1.14219 36
-6.96563 -1.06224 1.36163 1
-7.05884 -1.06647 0.87104 1
-3.09842 0.0813724 0.0534916 12
-0.651402 0.0161267 -0.0324251 73
-0.794006 0.0203704 -0.0930975 70
-0.685117 -0.0985258 -0.057408 42
-0.810217 0.0210916 -0.150468 58
-0.806436 -0.117231 -0.123719 50
-0.805028 0.0214917 -0.206274 52
-0.798403 -0.116827 -0.178004 49
-7.15209 0.228351 1.64134 33
-7.19555 -1.07172 1.93732 33
-7.26157 0.230612 1.14258 38
-7.1993 -1.05949 1.40643 36
-7.27615 0.229818 0.63384 26
-7.05696 -1.02842 0.870127 1
-3.09295 0.0974348 0.0534044 11
-0.651309 0.0195371 -0.0324251 74
-0.791409 0.0244466 -0.0927933 70
-0.67823 -0.0938612 -0.0567557 45
-0.810095 0.0253336 -0.150468 58
-0.799709 -0.111937 -0.122545 50
-0.804904 0.0257065 -0.206274 52
-0.808645 -0.114063 -0.18025 49
-7.14685 0.239421 1.64022 33
-7.19264 -1.05845 1.93603 33
-7.25622 0.243119 1.1418 36
-6.95587 -1.0111 1.35829 1
-7.26827 0.242267 0.633186 27
-7.05384 -1.01539 0.869519 1
-3.09278 0.102833 0.0534044 9
-0.656264 0.0208429 -0.0326876 82
-0.796325 0.0259984 -0.0934018 73
-0.673463 -0.0919686 -0.0563208 45
-0.807597 0.0266622 -0.149992 58
-0.802347 -0.110893 -0.122936 50
-0.802444 0.0270258 -0.205627 53
-0.806432 -0.112301 -0.179689 49
-7.15037 0.277028 1.64134 33
-7.19312 -1.02135 1.93474 33
-7.2549 0.279842 1.1418 36
-6.95604 -0.975198 1.35734 1
-7.28188 0.279628 0.634494 29
-7.04414 -0.97762 0.867693 1
-3.1122 0.11926 0.0537534 3
-0.653652 0.0241812 -0.0325564 82
-0.793703 0.0299307 -0.0930975 73
-0.669001 -0.0877582 -0.0558859 45
-0.807452 0.0307495 -0.149992 58
-0.802898 -0.106831 -0.122936 50
-0.797472 0.0308914 -0.204334 53
-0.802165 -0.107542 -0.178566 49
-7.15474 0.289705 1.64247 35
-7.19011 -1.00812 1.93344 32
-7.2618 0.292804 1.14297 36
-6.95547 -0.961504 1.35686 1
-7.27392 0.292036 0.63384 32
-7.04092 -0.964647 0.867085 1
-3.05509 -0.413667 0.159755 9
-0.656103 0.0254239 -0.0326876 85
-0.796129 0.0314182 -0.0934018 74
-0.666685 -0.0862533 -0.0556684 47
-0.807397 0.0321587 -0.149992 58
-0.800638 -0.105093 -0.122545 50
-0.804649 0.0327296 -0.206274 52
-0.802351 -0.106141 -0.178566 49
-7.15307 0.328412 1.64247 36
-7.19306 -0.968882 1.9328 32
-7.25764 0.331976 1.14258 33
-6.95798 -0.924747 1.35639 1
-7.28716 0.33207 0.635147 27
-7.0485 -0.926863 0.867389 1
-3.06224 -0.397783 0.160017 9
-0.655961 0.0288589 -0.0326876 90
-0.786033 0.0352628 -0.0921848 77
-0.664659 -0.0824372 -0.0554509 47
-0.802308 0.0362963 -0.14904 58
-0.801177 -0.1009 -0.122545 50
-0.804467 0.0369422 -0.206274 53
-0.800499 -0.101478 -0.178004 49
-7.15011 0.339531 1.64191 35
-7.18996 -0.955686 1.93151 32
-7.26698 0.343845 1.14414 35
-6.94985 -0.911319 1.35448 1
-7.28906 0.344906 0.635365 27
-7.0401 -0.914505 0.866172 1
-3.05295 -0.391686 0.159494 9
-0.658403 0.0301231 -0.0328189 90
-0.790933 0.0367364 -0.0927933 77
-0.669741 -0.0819168 -0.0558859 49
-0.807146 0.0379355 -0.149992 58
-0.801352 -0.0995013 -0.122545 50
-0.804401 0.0383462 -0.206274 52
-0.805488 -0.100855 -0.179127 50
-6.89037 0.363315 1.58238 1
-7.18752 -0.91836 1.92957 32
-7.25768 0.3815 1.14297 35
-6.95194 -0.875823 1.354 1
-7.29468 0.382187 0.636019 27
-7.27624 -0.906623 0.894771 33
-3.05001 -0.375078 0.159232 9
-0.65325 0.0333053 -0.0325564 90
-0.785775 0.0406123 -0.0921848 79
-0.665218 -0.077795 -0.0554509 47
-0.809394 0.0421521 -0.150468 58
-0.804312 -0.0956101 -0.122936 50
-0.799374 0.0421543 -0.20498 52
-0.801171 -0.0960267 -0.178004 50
-6.88729 0.375207 1.58182 1
-7.18671 -0.90551 1.92892 32
-7.25947 0.3943 1.14336 38
-6.9463 -0.861563 1.35257 1
-7.28903 0.394648 0.635583 29
-7.27288 -0.893314 0.894162 33
-3.05314 -0.370059 0.159363 11
-0.655684 0.0345821 -0.0326876 90
-0.790658 0.0422572 -0.0927933 83
-0.662881 -0.0763312 -0.0552335 49
-0.801968 0.0431563 -0.14904 59
-0.806928 -0.0945079 -0.123328 52
-0.799291 0.0436889 -0.20498 53
-0.79892 -0.094328 -0.177443 50
-7.14536 0.428106 1.64191 33
-7.1915 -0.866613 1.92892 32
-7.2523 0.433277 1.14258 38
-6.94584 -0.824599 1.35162 1
-7.27187 0.433188 0.634276 30
-7.27761 -0.853951 0.894162 33
-3.05509 -0.353534 0.159363 11
-0.655494 0.0380148 -0.0326876 90
-0.792894 0.0466846 -0.0930975 80
-0.668218 -0.0734388 -0.0556684 50
-0.804173 0.0476441 -0.149516 58
-0.800055 -0.0894148 -0.122153 50
-0.796641 0.0477247 -0.204334 52
-0.797 -0.0897169 -0.176881 50
-7.14224 0.43918 1.64134 33
-7.18581 -0.853201 1.92698 32
-7.259 0.445123 1.14375 38
-7.18613 -0.840576 1.39833 36
-7.27359 0.446032 0.634494 32
-7.03739 -0.814399 0.864347 1
-3.05317 -0.348448 0.159232 11
-0.655427 0.0391588 -0.0326876 90
-0.79282 0.0479301 -0.0930975 83
-0.668346 -0.0722724 -0.0556684 50
-0.801639 0.0488939 -0.14904 58
-0.795305 -0.087449 -0.12137 50
-0.801377 0.0494208 -0.205627 52
-0.79714 -0.0884648 -0.176881 50
-7.14471 0.476896 1.64247 33
-7.18524 -0.816271 1.92569 32
-7.24672 0.482466 1.14219 38
-6.94154 -0.776203 1.34971 1
-7.26627 0.48251 0.634058 33
-7.03663 -0.776993 0.863738 1
-3.0475 -0.331635 0.15884 11
-0.655212 0.04259 -0.0326876 91
-0.792558 0.0520806 -0.0930975 83
-0.666239 -0.0684995 -0.0554509 49
-0.80383 0.0531168 -0.149516 58
-0.798206 -0.0835554 -0.121762 50
-0.801117 0.0534763 -0.205627 53
-0.800013 -0.0845605 -0.177443 50
-7.139 0.489031 1.64134 33
-7.18425 -0.803459 1.92504 32
-7.25326 0.49562 1.14336 38
-6.94302 -0.762875 1.34971 1
-7.26293 0.495022 0.63384 33
-7.26738 -0.789793 0.892032 33
-3.05056 -0.326585 0.15897 11
-0.655137 0.0437335 -0.0326876 95
-0.789991 0.0532924 -0.0927933 86
-0.666358 -0.0673366 -0.0554509 50
-0.801288 0.0543493 -0.14904 58
-0.798351 -0.0821621 -0.121762 50
-0.798604 0.0548445 -0.20498 53
-0.802581 -0.0834306 -0.178004 50
-7.13625 0.527649 1.64134 33
-7.1861 -0.76432 1.9244 32
-7.25293 0.535039 1.14375 39
-6.94447 -0.726254 1.34924 1
-7.26014 0.53431 0.63384 33
-7.27648 -0.750975 0.892641 33
-3.0498 -0.309819 0.15884 11
-0.659879 0.0475323 -0.0329502 98
-0.792165 0.0577506 -0.0930975 89
-0.664224 -0.0635915 -0.0552335 50
-0.803429 0.0588675 -0.149516 58
-0.791402 -0.0772169 -0.120587 50
-0.798305 0.0590252 -0.20498 53
-0.805443 -0.0793404 -0.178566 50
-7.14513 0.539594 1.64359 36
-7.18261 -0.751271 1.92311 32
-7.25208 0.546431 1.14375 38
-6.94329 -0.71388 1.34876 1
-7.25672 0.546793 0.633622 35
-7.28012 -0.739796 0.892945 35
-3.0478 -0.304776 0.158709 11
-0.657305 0.048495 -0.0328189 101
-0.792074 0.0589949 -0.0930975 89
-0.666812 -0.062683 -0.0554509 50
-0.800878 0.0600818 -0.14904 58
-0.796448 -0.0763363 -0.12137 50
-0.795793 0.0602319 -0.204334 53
-0.795874 -0.0770768 -0.17632 50
-7.13978 0.576801 1.64303 35
-7.17671 -0.713944 1.92052 30
-7.24666 0.584196 1.14336 38
-6.94682 -0.678728 1.34876 1
-7.24144 0.582515 0.632533 35
-7.27649 -0.700949 0.892032 33
-3.05929 -0.289771 0.159232 11
-0.659531 0.052138 -0.0329502 104
-0.786807 0.0627382 -0.092489 88
-0.662172 -0.058715 -0.055016 52
-0.80301 0.0643349 -0.149516 58
-0.791922 -0.07169 -0.120587 52
-0.795478 0.064259 -0.204334 52
-0.796266 -0.0729086 -0.17632 50
-6.8717 0.567165 1.58126 1
-7.17074 -0.700708 1.91858 30
-7.24317 0.59664 1.14297 38
-6.93833 -0.664447 1.34686 1
-7.25035 0.595971 0.633404 35
-7.2777 -0.688248 0.892032 33
-3.05731 -0.284196 0.159101 11
-0.661927 0.0534953 -0.0330815 109
-0.786697 0.0641113 -0.092489 88
-0.662274 -0.0575592 -0.055016 50
-0.807788 0.0661453 -0.150468 58
-0.792045 -0.0703077 -0.120587 52
-0.795354 0.0657861 -0.204334 52
-0.798817 -0.0717514 -0.176881 50
-7.14032 0.628305 1.64415 36
-7.17923 -0.662348 1.91987 30
-7.24475 0.636253 1.14375 38
-6.94416 -0.628332 1.34733 1
-7.24453 0.634972 0.633186 33
-7.28132 -0.648862 0.892032 33
-3.05631 -0.267429 0.15897 12
-0.661637 0.0569604 -0.0330815 109
-0.793753 0.0690246 -0.0934018 90
-0.667528 -0.0545318 -0.0554509 52
-0.800084 0.0698616 -0.14904 58
-0.797321 -0.0666004 -0.12137 50
-0.794998 0.0699496 -0.204334 53
-0.80162 -0.0676479 -0.177443 50
-7.1272 0.638431 1.64134 27
-7.17797 -0.649597 1.91923 30
-7.23883 0.647192 1.14297 35
-6.93791 -0.615556 1.3459 1
-7.24589 0.647837 0.633404 33
-7.27244 -0.636552 0.890815 33
-3.05673 -0.262627 0.15897 12
-0.661537 0.0581151 -0.0330815 115
-0.791173 0.0700482 -0.0930975 90
-0.665141 -0.0531505 -0.0552335 53
-0.80485 0.071702 -0.149992 58
-0.794977 -0.0649926 -0.120979 50
-0.794875 0.071337 -0.204334 53
-0.794446 -0.0657415 -0.175758 52
-7.16673 -0.612015 1.91535 29
-6.94339 -0.580638 1.34638 1
-7.27073 -0.598055 0.890207 33
-3.05806 -0.246619 0.15897 12
-0.658738 0.0613414 -0.0329502 120
-0.793265 0.0744259 -0.0934018 90
-0.662928 -0.0494639 -0.055016 53
-0.802033 0.0755403 -0.149516 58
-0.795306 -0.0608293 -0.120979 52
-0.796907 0.0755916 -0.20498 53
-0.794779 -0.0615809 -0.175758 50
-7.16538 -0.599303 1.9147 29
-6.94204 -0.567105 1.3459 1
-7.27918 -0.585966 0.89112 33
-3.05102 -0.24068 0.158578 12
-0.65863 0.062491 -0.0329502 126
-0.790664 0.0755699 -0.0930975 90
-0.660531 -0.048108 -0.0547986 53
-0.797015 0.0764628 -0.148564 58
-0.79295 -0.0592422 -0.120587 52
-0.796761 0.0771214 -0.20498 53
-0.794885 -0.0601936 -0.175758 50
-2.85826 0.290931 0.654179 47
-7.1613 -0.559956 1.91277 29
-6.93758 -0.530183 1.34447 1
-7.27729 -0.546199 0.890511 33
-3.04979 -0.223983 0.158447 12
-0.655811 0.0656847 -0.0328189 131
-0.790244 0.0798467 -0.0930975 90
-0.663257 -0.0448347 -0.055016 55
-0.801472 0.0812776 -0.149516 58
-0.795711 -0.0552755 -0.120979 52
-0.791542 0.0807932 -0.203687 53
-0.800057 -0.0562633 -0.176881 50
-2.85538 0.295169 0.653618 47
-7.1719 -0.5482 1.91535 30
-6.93604 -0.517889 1.344 1
-7.27567 -0.534584 0.890207 33
-3.05014 -0.219192 0.158447 12
-0.658178 0.0670875 -0.0329502 134
-0.792586 0.0813455 -0.0934018 90
-0.658366 -0.0433139 -0.0545811 55
-0.796447 0.0821641 -0.148564 58
-0.793344 -0.053705 -0.120587 52
-0.796203 0.0826819 -0.20498 53
-0.792857 -0.0544611 -0.175197 50
-2.85138 0.309851 0.653056 47
-7.16494 -0.511198 1.91277 29
-6.93858 -0.482777 1.344 1
-7.26599 -0.495629 0.888686 33
-3.05623 -0.203558 0.158709 12
-0.660299 0.0708042 -0.0330815 135
-0.792149 0.0854944 -0.0934018 90
-0.661069 -0.0400347 -0.0547986 55
-0.80334 0.0869996 -0.149992 58
-0.793615 -0.0495503 -0.120587 52
-0.793374 0.086445 -0.204334 53
-0.797992 -0.0506471 -0.17632 50
-2.84841 0.314558 0.652495 47
-7.15619 -0.498015 1.91018 29
-6.93459 -0.46912 1.34304 1
-7.27179 -0.483279 0.889294 35
-3.05409 -0.198058 0.158578 14
-0.655212 0.0714051 -0.0328189 140
-0.791998 0.0868768 -0.0934018 90
-0.656168 -0.0385524 -0.0543637 55
-0.800748 0.0881288 -0.149516 58
-0.791236 -0.0480006 -0.120196 52
-0.790807 0.0876975 -0.203687 53
-0.793218 -0.0489246 -0.175197 52
-2.84666 0.329965 0.652495 49
-7.15878 -0.459289 1.91018 27
-2.8581 0.330803 0.449148 55
-6.9394 -0.432959 1.34352 1
-2.88232 0.33312 0.250791 101
-7.27183 -0.443775 0.88899 33
-3.05511 -0.181531 0.158578 14
-0.659789 0.0754122 -0.0330815 146
-0.791517 0.0911606 -0.0934018 90
-0.658846 -0.0352674 -0.0545811 55
-0.797822 0.0921741 -0.14904 58
-0.793949 -0.0438701 -0.120587 52
-0.795133 0.092403 -0.20498 52
-0.791039 -0.0444805 -0.174635 50
-2.84856 0.334722 0.653056 50
-7.14993 -0.446186 1.9076 26
-2.86243 0.33637 0.449929 55
-6.9328 -0.420396 1.34209 1
-2.87678 0.337567 0.250355 130
-7.26764 -0.430786 0.888382 33
-3.06041 -0.176494 0.15884 14
-0.654698 0.0759776 -0.0328189 148
-0.796285 0.093127 -0.0940102 90
-0.658907 -0.0341175 -0.0545811 55
-0.795223 0.0932762 -0.148564 58
-0.794024 -0.0424843 -0.120587 52
-0.792573 0.0935034 -0.204334 53
-0.795979 -0.0433947 -0.175758 52
-2.84194 0.349036 0.651933 50
-7.14968 -0.409852 1.90695 26
-2.85088 0.349646 0.448368 55
-6.92749 -0.384887 1.34066 1
-2.87504 0.352124 0.250355 145
-7.26477 -0.393724 0.887773 33
-3.05877 -0.160867 0.158709 14
-0.659247 0.0800165 -0.0330815 146
-0.790878 0.0965462 -0.0934018 90
-0.661563 -0.0308008 -0.0547986 56
-0.799611 0.097905 -0.149516 58
-0.791764 -0.0383305 -0.120196 52
-0.789693 0.0972145 -0.203687 53
-0.798621 -0.0395005 -0.17632 50
-2.84132 0.353995 0.651933 50
-6.97919 -0.387741 1.86107 1
-2.85027 0.354621 0.448368 55
-6.93067 -0.371719 1.34114 1
-2.87195 0.356833 0.250137 138
-7.2704 -0.381307 0.888382 33
-3.05406 -0.155266 0.158447 14
-0.656629 0.0808567 -0.0329502 142
-0.79317 0.0982356 -0.093706 90
-0.659129 -0.0295166 -0.0545811 55
-0.799439 0.0993004 -0.149516 58
-0.791829 -0.0369486 -0.120196 50
-0.794297 0.0993382 -0.20498 53
-0.796256 -0.0379757 -0.175758 50
-2.83936 0.369363 0.651933 50
-6.97636 -0.349729 1.85978 1
-2.8532 0.370676 0.449148 55
-6.93252 -0.335426 1.34114 1
-2.87245 0.372688 0.250355 97
-7.26734 -0.342997 0.887773 33
-3.04987 -0.138506 0.158185 14
-0.656196 0.0842936 -0.0329502 134
-0.790185 0.102065 -0.0934018 90
-0.659275 -0.026065 -0.0545811 56
-0.79889 0.103624 -0.149516 58
-0.789545 -0.0326849 -0.119804 50
-0.791372 0.103179 -0.204334 53
-0.791578 -0.0335697 -0.174635 50
-2.83878 0.373823 0.651933 52
-6.97214 -0.337316 1.85848 1
-2.85507 0.375481 0.449538 56
-7.17578 -0.334813 1.38832 36
-2.86939 0.376874 0.250137 70
-7.27041 -0.330427 0.888077 33
-3.05507 -0.133941 0.158447 14
-0.653573 0.0851112 -0.0328189 124
-0.785086 0.102791 -0.0927933 90
-0.659315 -0.0250294 -0.0545811 55
-0.798727 0.104879 -0.149516 58
-0.794534 -0.0315326 -0.120587 50
-0.793602 0.104742 -0.20498 53
-0.794068 -0.032302 -0.175197 50
-2.83927 0.388518 0.652495 50
-6.97129 -0.303133 1.85784 1
-2.85313 0.389927 0.449538 55
-6.92478 -0.289024 1.33923 1
-2.85017 0.389026 0.248612 55
-7.26703 -0.29342 0.887469 33
-3.05322 -0.118376 0.158316 15
-0.655623 0.0886438 -0.0329502 115
-0.782097 0.106425 -0.092489 88
-0.659433 -0.021692 -0.0545811 56
-0.803048 0.109593 -0.150468 58
-0.78975 -0.0273099 -0.119804 50
-0.788278 0.108093 -0.203687 52
-0.794222 -0.0282824 -0.175197 49
-2.83624 0.392642 0.651933 50
-6.97181 -0.290965 1.85784 1
-2.84755 0.394226 0.448758 52
-7.17049 -0.286915 1.38689 36
-2.85442 0.394685 0.249048 52
-7.27249 -0.280931 0.888077 33
-3.05092 -0.112951 0.158185 15
-0.650522 0.0891 -0.0326876 111
-0.719205 -0.0227223 -0.0119549 11
-0.78191 0.107789 -0.092489 85
-0.656981 -0.0204455 -0.0543637 56
-0.797994 0.110313 -0.149516 55
-0.792263 -0.0260276 -0.120196 50
-0.792871 0.110142 -0.20498 53
-0.786967 -0.0266042 -0.173512 50
-2.83407 0.407982 0.651933 49
-6.97806 -0.254637 1.85913 1
-2.83812 0.408073 0.447587 49
-7.17189 -0.249367 1.38689 36
-2.84985 0.40927 0.24883 52
-7.27386 -0.242849 0.888077 33
-3.05397 -0.0970579 0.158316 15
-0.654972 0.093333 -0.0329502 107
-0.719314 -0.0189562 -0.0119549 9
-0.778879 0.111526 -0.0921848 82
-0.654593 -0.0168084 -0.0541462 56
-0.797406 0.11449 -0.149516 55
-0.787453 -0.0217126 -0.119413 50
-0.797063 0.11499 -0.206274 52
-0.787096 -0.0224833 -0.173512 50
-2.83095 0.412575 0.651372 49
-6.9785 -0.242457 1.85913 1
-2.83985 0.413382 0.447977 50
-6.92708 -0.227375 1.33923 1
-2.84174 0.413165 0.248176 50
-7.26683 -0.229913 0.887165 33
-3.04914 -0.0915698 0.158055 15
-0.652338 0.0941143 -0.0328189 103
-0.709352 -0.0173885 -0.0117804 9
-0.783594 0.113606 -0.0927933 83
-0.654621 -0.0156659 -0.0541462 58
-0.797205 0.115882 -0.149516 55
-0.789958 -0.0204171 -0.119804 52
-0.787285 0.115105 -0.203687 52
-0.787134 -0.0211095 -0.173512 50
-2.82145 0.426789 0.649687 49
-6.97488 -0.204552 1.85784 1
-2.83513 0.428371 0.447587 49
-7.16859 -0.197901 1.38594 35
-2.84439 0.42928 0.248612 50
-7.27045 -0.190659 0.887469 33
-3.05458 -0.0752018 0.158316 17
-0.654304 0.0979033 -0.0329502 101
-0.704439 -0.0134211 -0.0116931 9
-0.785421 0.118217 -0.0930975 80
-0.662163 -0.0124324 -0.0547986 56
-0.796566 0.120193 -0.149516 58
-0.787589 -0.0160772 -0.119413 50
-0.791445 0.119958 -0.20498 52
-0.787237 -0.0168504 -0.173512 50
-2.81596 0.430482 0.648564 49
-6.96798 -0.192173 1.8559 1
-2.82949 0.43257 0.446807 49
-7.17628 -0.185585 1.38737 35
-2.83871 0.433489 0.248176 50
-7.27077 -0.17797 0.887469 33
-3.04722 -0.0696875 0.157924 15
-0.651665 0.0986662 -0.0328189 99
-0.691966 -0.0118907 -0.011475 4
-0.780308 0.118832 -0.092489 76
-0.659694 -0.0112163 -0.0545811 58
-0.796355 0.121583 -0.149516 55
-0.787615 -0.0147026 -0.119413 52
-0.791235 0.121339 -0.20498 52
-0.7897 -0.0155393 -0.174073 50
-2.8184 0.446476 0.649687 49
-6.97131 -0.155742 1.85655 1
-2.82719 0.447379 0.446807 50
-7.16734 -0.147798 1.38546 35
-2.83886 0.448737 0.248394 53
-7.27408 -0.139947 0.887773 32
-3.05254 -0.0538272 0.158185 17
-0.653605 0.102469 -0.0329502 97
-0.782126 0.123307 -0.0927933 77
-0.657254 -0.00771463 -0.0543637 56
-0.798131 0.126139 -0.149992 58
-0.792619 -0.010675 -0.120196 52
-0.783435 0.124332 -0.203041 52
-0.789771 -0.0114043 -0.174073 50
-2.81529 0.450516 0.649126 49
-6.97399 -0.143626 1.85719 1
-2.8264 0.452313 0.446807 50
-7.17249 -0.135385 1.38641 33
-2.83561 0.453296 0.248176 55
-7.24206 -0.126666 0.883818 27
-0.686288 0.108768 0.0115186 8
-3.04764 -0.0484123 0.157924 20
-0.64603 0.102421 -0.0325564 95
-0.781909 0.124672 -0.0927933 76
-0.659757 -0.00661053 -0.0545811 58
-0.793064 0.126748 -0.14904 55
-0.792636 -0.00929162 -0.120196 53
-0.787985 0.126473 -0.204334 52
-0.787354 -0.00997993 -0.173512 50
-2.81281 0.465742 0.649126 50
-6.99879 -0.107496 1.86365 1
-2.82643 0.46751 0.447197 52
-2.8332 0.468137 0.248176 59
-0.683243 0.111951 0.011475 4
-3.05034 -0.0324849 0.158055 21
-0.645467 0.105915 -0.0325564 91
-0.781246 0.128764 -0.0927933 77
-0.652312 -0.00295215 -0.0539288 58
-0.79481 0.131303 -0.149516 55
-0.792674 -0.00514128 -0.120196 52
-0.789693 0.130997 -0.20498 52
-0.784959 -0.00582408 -0.17295 50
-2.8144 0.471054 0.649687 49
-2.81344 0.4704 0.445246 50
-2.83975 0.474316 0.24883 90
-0.687957 0.11409 0.0115622 4
-3.0504 -0.027161 0.158055 23
-0.647743 0.107455 -0.0326876 90
-0.78102 0.130128 -0.0927933 74
-0.654806 -0.00183886 -0.0541462 56
-0.79216 0.132282 -0.14904 55
-0.787744 -0.00370436 -0.119413 52
-0.794202 0.133321 -0.206274 52
-0.782532 -0.00442514 -0.172389 50
-2.80701 0.485441 0.648564 50
-2.82058 0.487301 0.446807 55
-3.1121 -0.017432 0.597649 9
-2.83469 0.489249 0.248612 101
-3.07933 -0.012934 0.373303 9
-0.682424 0.116837 0.011475 4
-3.048 -0.0106438 0.157924 23
-0.644711 0.110418 -0.0325564 90
-0.780304 0.134351 -0.0927933 73
-0.657297 0.00157754 -0.0543637 56
-0.79385 0.136987 -0.149516 55
-0.787752 0.000557783 -0.119413 53
-0.793493 0.137477 -0.206274 52
-0.789853 -0.000238388 -0.174073 50
-2.80864 0.49027 0.649126 50
-2.81486 0.491372 0.446026 55
-3.11213 -0.0120003 0.597649 1
-2.83383 0.494195 0.248612 125
-3.05453 -0.00745993 0.37026 3
-0.687144 0.11889 0.0115622 4
-3.05051 -0.00533227 0.158055 18
-0.644518 0.111543 -0.0325564 90
-0.784957 0.136572 -0.0934018 71
-0.652313 0.00274038 -0.0539288 56
-0.79361 0.138373 -0.149516 55
-0.792688 0.00191457 -0.120196 53
-0.790874 0.138441 -0.205627 52
-0.78498 0.00116312 -0.17295 52
-2.79875 0.50416 0.647441 52
-2.80982 0.505665 0.445636 53
-3.06552 0.00430301 0.588594 8
-2.83365 0.509468 0.24883 120
-3.04212 0.00851842 0.368739 11
-0.681592 0.121598 0.011475 8
-3.0455 0.0106306 0.157793 18
-0.646382 0.11536 -0.0326876 90
-0.779347 0.139796 -0.0927933 70
-0.652289 0.00615583 -0.0539288 58
-0.792875 0.142526 -0.149516 55
-0.7902 0.00592324 -0.119804 53
-0.792514 0.143014 -0.206274 53
-0.782527 0.00527196 -0.172389 52
-2.80035 0.508992 0.648003 52
-2.80902 0.510078 0.445636 55
-3.0606 0.00964564 0.587641 4
-2.83766 0.515305 0.249265 97
-3.04458 0.0133039 0.369043 11
-0.696133 0.125477 0.0117367 8
-3.05297 0.0154406 0.158185 24
-0.648635 0.116936 -0.0328189 90
-0.78645 0.142358 -0.093706 62
-0.657259 0.00731341 -0.0543637 58
-0.79021 0.143467 -0.14904 55
-0.790188 0.00730239 -0.119804 53
-0.787513 0.143522 -0.20498 53
-0.784954 0.00650625 -0.17295 52
-2.80005 0.524097 0.648564 52
-2.81117 0.525689 0.446416 53
-3.06297 0.0251528 0.588117 4
-2.82767 0.528286 0.248612 80
-3.04199 0.0292251 0.368739 11
-0.695489 0.128999 0.0117367 9
-3.04536 0.0313603 0.157793 26
-0.648014 0.120331 -0.0328189 90
-0.785694 0.146474 -0.093706 62
-0.65223 0.0107095 -0.0539288 58
-0.794298 0.148375 -0.149992 56
-0.78767 0.011419 -0.119413 53
-0.789149 0.147955 -0.205627 52
-0.780037 0.0105804 -0.171827 52
-2.79673 0.52853 0.648003 52
-2.80782 0.530136 0.446026 47
-3.06291 0.0310332 0.588117 3
-2.82185 0.532295 0.248176 61
-3.04194 0.0345343 0.368739 11
-0.69524 0.130334 0.0117367 9
-3.0478 0.0367015 0.157924 24
-0.642897 0.120531 -0.0325564 90
-0.787875 0.148309 -0.0940102 61
-0.654701 0.0118748 -0.0541462 58
-0.789216 0.148843 -0.14904 55
-0.790118 0.0128187 -0.119804 53
-0.786492 0.149016 -0.20498 52
-0.777581 0.0119197 -0.171266 52
-2.79383 0.543654 0.648003 52
-2.80491 0.54532 0.446026 41
-3.07989 0.047307 0.591453 3
-2.81404 0.546602 0.24774 56
-3.09877 0.0518588 0.375737 2
-0.697002 0.134451 0.0117804 12
-3.04256 0.0531118 0.157662 21
-0.642258 0.123896 -0.0325564 90
-0.779755 0.15114 -0.0930975 61
-0.65214 0.0152626 -0.0539288 58
-0.78599 0.152638 -0.148564 55
-0.787571 0.0169176 -0.119413 53
-0.79044 0.154065 -0.206274 52
-0.779941 0.0161619 -0.171827 52
-2.79537 0.548512 0.648564 50
-2.80405 0.549725 0.446026 50
-2.81308 0.551513 0.24774 56
-0.691861 0.134702 0.0116931 12
-3.04747 0.0579781 0.157924 23
-0.646939 0.125981 -0.0328189 90
-0.784386 0.153325 -0.093706 61
-0.657092 0.0164895 -0.0543637 58
-0.78813 0.154486 -0.14904 53
-0.792538 0.155914 -0.20692 52
-0.777479 0.0173479 -0.171266 52
-2.78768 0.562175 0.647441 50
-2.79629 0.563421 0.445246 50
-2.80537 0.564759 0.247304 56
-0.69362 0.138697 0.0117367 11
-3.04463 0.0738771 0.157793 23
-0.78114 0.156937 -0.0934018 59
-0.654511 0.0197581 -0.0541462 58
-0.787338 0.158473 -0.14904 53
-0.78464 0.158477 -0.20498 52
-0.782249 0.0215223 -0.172389 52
-2.78679 0.566554 0.647441 49
-7.15256 0.15222 1.90501 44
-2.79772 0.568794 0.445636 50
-7.15715 0.164758 1.38355 30
-2.8117 0.571145 0.247958 59
-7.25342 0.177006 0.885339 29
-0.686029 0.13841 0.0116058 9
-3.04449 0.0791909 0.157793 24
-0.783296 0.158797 -0.093706 59
-0.651985 0.0208392 -0.0539288 59
-0.787061 0.159847 -0.14904 53
-0.797267 0.0240276 -0.120979 56
-0.786728 0.160333 -0.205627 52
-0.78221 0.0228875 -0.172389 52
-2.78607 0.582123 0.648003 50
-6.89334 0.182995 1.83587 1
-2.79229 0.582929 0.445246 50
-7.15864 0.202298 1.38403 30
-2.80624 0.585349 0.24774 64
-7.25487 0.215054 0.885643 30
-0.690189 0.143024 0.0116931 8
-3.04404 0.0951306 0.157793 23
-0.647795 0.134388 -0.0329502 82
-0.780025 0.162386 -0.0934018 59
-0.651863 0.0243664 -0.0539288 59
-0.786213 0.163966 -0.14904 55
-0.792194 0.028057 -0.120196 55
-0.792966 0.165946 -0.207567 52
-0.782079 0.0269828 -0.172389 53
-2.77552 0.58497 0.645756 50
-6.92922 0.196024 1.84556 1
-2.79127 0.587802 0.445246 55
-7.16315 0.216186 1.38498 32
-2.80521 0.590246 0.24774 83
-7.26937 0.228173 0.887469 32
-0.687467 0.143832 0.0116495 4
-3.04636 0.100522 0.157924 23
-0.63779 0.133452 -0.0324251 73
-0.782168 0.164262 -0.093706 59
-0.651819 0.0255041 -0.0539288 64
-0.788326 0.165848 -0.149516 53
-0.799548 0.0296697 -0.12137 56
-0.787923 0.166462 -0.206274 50
-0.774726 0.0281284 -0.170704 52
-2.77707 0.601011 0.646879 50
-6.92564 0.233432 1.84491 1
-2.79046 0.603418 0.445636 55
-7.16192 0.253689 1.38498 33
-2.80198 0.605415 0.24774 82
-7.26555 0.267411 0.887165 33
-0.689147 0.147959 0.0116931 4
-3.04827 0.117095 0.158055 24
-0.637082 0.13679 -0.0324251 67
-0.778843 0.167964 -0.0934018 59
-0.656655 0.0291009 -0.0543637 64
-0.789815 0.170633 -0.149992 53
-0.796914 0.033766 -0.120979 56
-0.78704 0.170585 -0.206274 52
-0.776997 0.032406 -0.171266 52
-2.77612 0.605373 0.646879 50
-6.92281 0.245436 1.84427 1
-2.78468 0.606747 0.444856 36
-7.15901 0.266099 1.38451 30
