# .PCD v0.7 - Point Cloud Data file format
VERSION 0.7
FIELDS x y z intensity
SIZE 4 4 4 4
TYPE F F F F
COUNT 1 1 1 1
WIDTH 1514
HEIGHT 1
VIEWPOINT 0 0 0 1 0 0 0
POINTS 1514
DATA ascii
-3.14237 -1.133 0.641972 2
-7.04824 -1.20365 0.62251 1
-3.11294 -1.11808 0.401293 2
-1.68271 -0.288129 0.0291891 14
-1.7067 -0.609364 0.093158 47
-0.66674 -0.114894 -0.0337378 55
-1.702 -0.606673 -0.0309344 52
-0.812174 -0.139364 -0.0967484 50
-0.842762 -0.297991 -0.0750219 53
-0.820661 -0.140369 -0.154754 50
-0.826332 -0.2927 -0.133507 49
-0.815302 -0.138895 -0.212093 47
-0.820024 -0.29135 -0.192604 45
-7.19944 -1.18942 1.67391 35
-7.02899 -1.16254 1.12033 1
-3.1342 -1.11213 0.639113 2
-7.05915 -1.16877 0.622946 1
-3.11408 -1.1001 0.400684 2
-1.70387 -0.282868 0.0295382 12
-1.7028 -0.597919 0.0927655 49
-0.669796 -0.111808 -0.0338691 55
-1.69798 -0.59555 -0.0308035 52
-0.81779 -0.135915 -0.0973569 50
-0.839615 -0.291913 -0.074587 53
-0.823783 -0.136611 -0.15523 50
-0.825526 -0.287545 -0.133116 47
-0.818378 -0.135156 -0.21274 47
-0.810062 -0.282971 -0.189796 44
-7.19429 -1.17567 1.67223 35
-7.30883 -1.19566 1.16482 39
-7.04398 -1.15364 0.62142 1
-3.09727 -1.08806 0.398251 2
-1.70149 -0.594117 0.0926346 50
-0.665062 -0.109835 -0.0336066 55
-1.69666 -0.591756 -0.0307599 52
-0.818026 -0.134487 -0.0973569 50
-0.837774 -0.289621 -0.0743695 53
-0.816753 -0.133994 -0.153802 52
-0.82137 -0.284462 -0.132333 47
-0.823404 -0.134354 -0.214033 50
-0.815148 -0.283181 -0.190919 44
-7.20055 -1.13673 1.67223 38
-7.02493 -1.11028 1.11838 1
-7.27643 -1.15127 0.641466 36
-3.11249 -1.07454 0.399467 2
-1.69996 -0.58327 0.092373 49
-0.665628 -0.106352 -0.0336066 56
-1.69983 -0.582568 -0.0307599 52
-0.823644 -0.13083 -0.0979654 53
-0.836925 -0.284416 -0.074152 53
-0.815041 -0.129193 -0.153325 50
-0.820515 -0.279348 -0.131941 47
-0.819324 -0.129296 -0.21274 47
-0.807464 -0.275567 -0.188673 44
-7.1927 -1.12391 1.66998 35
-7.30236 -1.14232 1.16248 41
-7.29073 -1.14049 0.642556 30
-3.12356 -1.07289 0.400684 3
-1.69615 -0.578973 0.0921113 49
-0.66828 -0.105574 -0.0337378 55
-1.69612 -0.577975 -0.0306726 53
-0.821397 -0.129155 -0.0976611 53
-0.83271 -0.281335 -0.0737171 55
-0.817691 -0.128146 -0.153802 52
-0.823335 -0.27872 -0.132333 47
-0.819549 -0.127866 -0.21274 49
-0.810198 -0.275095 -0.189235 44
-7.22016 -1.08951 1.67504 27
-7.3058 -1.1037 1.16209 41
-7.28164 -1.10135 0.641248 27
-3.13618 -1.05891 0.401597 3
-1.69916 -0.570084 0.0921113 49
-0.668806 -0.10219 -0.0337378 55
-1.69902 -0.569383 -0.0306726 53
-0.824516 -0.12522 -0.0979654 53
-0.838842 -0.278713 -0.074152 53
-0.820756 -0.124369 -0.154278 50
-0.824784 -0.274406 -0.132333 47
-0.824962 -0.124429 -0.214033 50
-0.813934 -0.271633 -0.189796 44
-7.13753 -1.06559 1.65538 14
-7.30039 -1.08986 1.16092 41
-7.01999 -1.04929 0.617934 1
-1.69069 -0.563932 0.0915879 47
-0.664044 -0.100287 -0.0334753 55
-1.69527 -0.564824 -0.0305853 53
-0.819824 -0.123053 -0.0973569 53
-0.836966 -0.276454 -0.0739346 53
-0.820972 -0.122936 -0.154278 52
-0.825261 -0.272966 -0.132333 47
-0.8204 -0.122285 -0.21274 50
-0.814406 -0.270212 -0.189796 45
-7.07567 -1.01726 1.63966 26
-7.02491 -1.01121 1.11604 1
-7.01306 -1.01075 0.616845 1
-1.69599 -0.555856 0.0917188 49
-0.667048 -0.0970475 -0.0336066 55
-1.69346 -0.554372 -0.0304981 53
-0.820457 -0.118759 -0.0973569 53
-0.83845 -0.271922 -0.0739346 53
-0.821604 -0.118636 -0.154278 52
-0.826679 -0.268641 -0.132333 49
-0.818638 -0.117648 -0.212093 50
-0.81581 -0.265944 -0.189796 45
-7.06779 -1.00354 1.63741 26
-7.02422 -0.998604 1.11565 1
-7.00495 -0.997104 0.615973 1
-1.69696 -0.552895 0.0917188 49
-0.664745 -0.0955331 -0.0334753 55
-1.6968 -0.552195 -0.0305417 53
-0.825577 -0.118021 -0.0979654 53
-0.831825 -0.268127 -0.0732822 55
-0.81938 -0.11686 -0.153802 50
-0.822456 -0.265654 -0.13155 49
-0.814079 -0.115407 -0.2108 47
-0.816273 -0.26452 -0.189796 45
-7.0707 -0.96496 1.63685 26
-7.01728 -0.958916 1.1137 1
-7.00531 -0.958515 0.615537 1
-7.03216 -2.27035 0.901768 1
-1.69992 -0.543706 0.0917188 49
-0.662762 -0.0917141 -0.033344 53
-1.69739 -0.542239 -0.0304981 53
-0.823745 -0.113218 -0.0976611 53
-0.830847 -0.263003 -0.0730648 53
-0.82 -0.112425 -0.153802 52
-0.826231 -0.261959 -0.131941 49
-0.824246 -0.112432 -0.213387 50
-0.815375 -0.259348 -0.189235 45
-7.06497 -0.952877 1.63517 26
-7.25071 -2.35215 2.03038 42
-7.0165 -0.946337 1.11331 1
-6.94672 -2.23998 1.41072 1
-7.00944 -0.94662 0.615755 1
-7.05029 -2.26263 0.903594 1
-3.10873 -0.420057 0.0541461 35
-1.70087 -0.540738 0.0917188 49
-0.660447 -0.0902245 -0.0332127 55
-1.69119 -0.536988 -0.0303672 52
-0.823941 -0.11178 -0.0976611 53
-0.828933 -0.260792 -0.0728473 53
-0.817762 -0.110668 -0.153325 52
-0.819634 -0.258251 -0.130767 49
-0.819653 -0.110357 -0.212093 47
-0.815826 -0.257924 -0.189235 44
-7.06986 -0.915872 1.63517 26
-6.97037 -2.22207 1.94831 1
-7.0212 -0.910812 1.11331 1
-7.23865 -2.29394 1.46791 42
-7.28088 -0.945726 0.639287 36
-7.33848 -2.31441 0.93919 39
-3.11329 -0.404638 0.0541897 30
-1.69882 -0.530621 0.0914571 50
-0.663386 -0.087085 -0.033344 53
-1.6915 -0.52767 -0.0303236 53
-0.824496 -0.107609 -0.0976611 55
-0.827912 -0.2557 -0.0726299 55
-0.818312 -0.106528 -0.153325 50
-0.823286 -0.254843 -0.131158 47
-0.820201 -0.106207 -0.212093 50
-0.812477 -0.25232 -0.188112 47
-7.07145 -0.903531 1.63517 26
-6.98804 -2.21429 1.95218 1
-7.01788 -0.89793 1.11253 1
-7.229 -2.27561 1.46505 36
-7.00831 -0.897938 0.615102 1
-7.3212 -2.29491 0.936451 32
-3.10663 -0.397712 0.0540588 17
-1.69975 -0.527655 0.0914571 50
-0.663537 -0.085927 -0.033344 55
-1.69003 -0.52397 -0.0302799 53
-0.819759 -0.105544 -0.0970526 55
-0.835487 -0.256487 -0.0732822 53
-0.818497 -0.105099 -0.153325 52
-0.823729 -0.253405 -0.131158 49
-0.820403 -0.104632 -0.212093 49
-0.815239 -0.251634 -0.188673 45
-7.06898 -0.864373 1.63348 26
-7.24893 -2.25406 2.02197 36
-7.02018 -0.859647 1.11214 1
-7.23847 -2.237 1.46457 32
-7.00565 -0.859099 0.614448 1
-7.32403 -2.25234 0.935235 32
-3.10619 -0.381137 0.0540152 23
-1.6978 -0.516983 0.0911954 50
-0.663978 -0.0824516 -0.033344 55
-1.69523 -0.515552 -0.0303236 55
-0.817855 -0.100808 -0.0967484 53
-0.829677 -0.249914 -0.0726299 53
-0.816617 -0.100374 -0.152849 52
-0.820325 -0.247635 -0.130375 47
-0.82094 -0.100335 -0.212093 50
-0.811934 -0.245781 -0.18755 47
-7.06307 -0.852394 1.6318 26
-7.23902 -2.23711 2.0181 33
-7.02152 -0.848619 1.11214 1
-7.22125 -2.21786 1.46028 30
-7.00219 -0.846274 0.614012 1
-7.31806 -2.23792 0.934018 32
-3.10933 -0.376014 0.0540588 29
-1.69861 -0.514316 0.0911954 50
-0.659164 -0.0806962 -0.0330815 56
-1.69135 -0.511134 -0.0302363 53
-0.815549 -0.0992274 -0.0964442 55
-0.832494 -0.249193 -0.0728473 53
-0.819228 -0.0992397 -0.153325 52
-0.823117 -0.246926 -0.130767 49
-0.818716 -0.0986172 -0.211447 50
-0.814648 -0.245221 -0.188112 45
-7.07228 -0.815957 1.63292 27
-7.23638 -2.19623 2.01422 33
-7.01606 -0.810711 1.11058 1
-7.23238 -2.18129 1.46028 32
-7.281 -0.842548 0.638198 36
-7.32255 -2.19743 0.933105 32
-3.10871 -0.359985 0.0540152 30
-1.6965 -0.50398 0.0909337 50
-0.654617 -0.0766733 -0.0328189 56
-1.69391 -0.502567 -0.0302363 53
-0.820988 -0.0955211 -0.0970526 55
-0.831401 -0.244116 -0.0726299 53
-0.814843 -0.0945346 -0.152373 52
-0.822034 -0.241902 -0.130375 49
-0.824004 -0.0950171 -0.21274 50
-0.813588 -0.240248 -0.18755 49
-7.06159 -0.80224 1.63011 26
-7.23327 -2.1815 2.01228 33
-7.01746 -0.798464 1.11058 1
-7.22246 -2.16316 1.45742 32
-7.31687 -2.1818 0.931888 32
-3.11188 -0.354298 0.0540588 29
-1.69259 -0.499592 0.090672 50
-0.65723 -0.0758116 -0.0329502 55
-1.69239 -0.498896 -0.0301927 55
-0.816222 -0.0935314 -0.0964442 55
-0.822278 -0.239822 -0.07176 52
-0.817445 -0.0933867 -0.152849 52
-0.820089 -0.239761 -0.129984 49
-0.819384 -0.0928991 -0.211447 50
-0.814006 -0.238828 -0.18755 47
-7.07309 -0.764806 1.6318 26
-7.24034 -2.14096 2.01099 33
-7.02168 -0.760485 1.11058 1
-7.23133 -2.12462 1.45695 33
-7.31428 -2.138 0.930062 32
-3.10872 -0.337462 0.0539716 26
-1.69287 -0.489727 0.0905412 50
-0.652654 -0.0718335 -0.0326876 56
-1.69507 -0.489732 -0.0301927 56
-0.814249 -0.0888489 -0.0961399 55
-0.830694 -0.237608 -0.0724124 53
-0.815498 -0.0887013 -0.152373 52
-0.823703 -0.236157 -0.130375 49
-0.822261 -0.0888629 -0.212093 50
-0.815286 -0.23442 -0.18755 49
-6.85142 -0.729995 1.58014 1
-7.23711 -2.12627 2.00905 33
-7.01304 -0.748408 1.10902 1
-7.22325 -2.10855 1.45457 35
-6.99846 -0.746843 0.612705 1
-7.31286 -2.12512 0.929454 33
-3.10433 -0.331507 0.0538843 21
-1.69844 -0.48846 0.0908029 50
-0.655261 -0.0709578 -0.0328189 56
-1.69112 -0.485381 -0.0301054 55
-0.814387 -0.0875698 -0.0961399 56
-0.828716 -0.235463 -0.0721949 53
-0.815652 -0.0872778 -0.152373 53
-0.819372 -0.23334 -0.129592 49
-0.820013 -0.0871765 -0.211447 52
-0.810977 -0.231774 -0.186427 47
-7.06844 -0.715664 1.62955 26
-7.24082 -2.0876 2.00711 33
-7.00704 -0.710683 1.10746 1
-7.23383 -2.07197 1.45457 33
-7.28214 -0.739802 0.637326 38
-7.31673 -2.08476 0.928541 32
-3.10597 -0.31579 0.0538843 17
-1.69377 -0.477508 0.0904104 50
-0.655612 -0.0676404 -0.0328189 56
-1.69115 -0.476131 -0.0300618 61
-0.819772 -0.0838008 -0.0967484 55
-0.829897 -0.231266 -0.0721949 53
-0.816083 -0.0831484 -0.152373 52
-0.818208 -0.228369 -0.129201 49
-0.818041 -0.0827859 -0.2108 50
-0.812179 -0.227524 -0.186427 47
-6.85138 -0.68286 1.57901 1
-7.23749 -2.07296 2.00517 33
-7.00581 -0.698208 1.10707 1
-7.23507 -2.05867 1.45409 35
-7.28095 -0.726844 0.637109 32
-7.30842 -2.0686 0.92702 32
-3.10652 -0.310369 0.0538843 14
-1.6946 -0.474551 0.0904104 50
-0.660697 -0.0669893 -0.0330815 58
-1.69438 -0.473858 -0.0301054 74
-0.817448 -0.0821261 -0.0964442 55
-0.820713 -0.227106 -0.0713251 52
-0.813785 -0.0814836 -0.151897 52
-0.820981 -0.227614 -0.129592 49
-0.813377 -0.0808884 -0.209507 50
-0.814918 -0.226773 -0.186989 47
-6.8477 -0.645097 1.57733 1
-7.23895 -2.03242 2.00259 33
-6.99954 -0.66059 1.10551 1
-7.2363 -2.01811 1.45218 35
-7.27225 -0.687541 0.636019 36
-7.31915 -2.0303 0.92702 33
-3.09566 -0.292927 0.0536661 12
-1.70187 -0.467006 0.090672 52
-0.658565 -0.0631804 -0.0329502 58
-1.69925 -0.465647 -0.030149 90
-0.820337 -0.0780758 -0.0967484 55
-0.81953 -0.221998 -0.0711077 52
-0.8142 -0.0772215 -0.151897 52
-0.824541 -0.223973 -0.129984 49
-0.813789 -0.0766285 -0.209507 50
-0.818441 -0.223157 -0.18755 47
-7.05258 -0.65194 1.6245 15
-7.23085 -2.01653 1.99936 33
-7.00314 -0.6486 1.1059 1
-7.22597 -2.00028 1.44932 33
-7.28088 -0.675537 0.636673 36
-7.31312 -2.01488 0.925803 33
-3.10119 -0.287443 0.0537534 11
-1.69306 -0.461384 0.0901487 53
-0.658674 -0.0620309 -0.0329502 58
-1.69524 -0.461355 -0.0300618 90
-0.81553 -0.0761906 -0.0961399 55
-0.817515 -0.219907 -0.0708902 50
-0.816778 -0.0760236 -0.152373 52
-0.817789 -0.220564 -0.128809 50
-0.813935 -0.075066 -0.209507 50
-0.811786 -0.219778 -0.185866 47
-7.07542 -0.615457 1.62899 1
-7.24166 -1.97738 1.99936 33
-7.00409 -0.610486 1.10551 1
-7.23161 -1.96113 1.44837 33
-7.28443 -0.636134 0.636673 36
-7.31912 -1.97399 0.925195 33
-3.09518 -0.270551 0.0536225 11
-1.69312 -0.451567 0.0900178 52
-0.65899 -0.0585813 -0.0329502 56
-1.6953 -0.451526 -0.0300181 85
-0.820875 -0.0722036 -0.0967484 55
-0.82106 -0.216271 -0.0711077 50
-0.812287 -0.0711832 -0.151421 52
-0.818933 -0.216279 -0.128809 49
-0.819129 -0.0712133 -0.2108 50
-0.812963 -0.215382 -0.185866 45
-7.06182 -0.603102 1.62562 1
-7.23111 -1.96094 1.99548 33
-7.00012 -0.599063 1.10472 1
-7.23265 -1.94786 1.44789 35
-7.2756 -0.622572 0.635801 36
-7.31263 -1.95991 0.923978 33
-3.08818 -0.264512 0.0534916 11
-1.68659 -0.446968 0.0896253 52
-0.659091 -0.057431 -0.0329502 58
-1.68884 -0.44663 -0.0298872 82
-0.81357 -0.070286 -0.0958357 56
-0.814218 -0.212906 -0.0704553 52
-0.81241 -0.0697654 -0.151421 53
-0.821694 -0.215489 -0.129201 50
-0.819252 -0.0697835 -0.2108 52
-0.813301 -0.214105 -0.185866 47
-7.07216 -0.5667 1.62731 1
-7.23628 -1.92307 1.99419 33
-6.99823 -0.562008 1.10394 1
-7.22344 -1.90621 1.44408 35
-7.27866 -0.585739 0.635801 36
-7.31799 -1.92033 0.923369 33
-3.08948 -0.248878 0.0534916 11
-1.68891 -0.438131 0.0896253 52
-0.656894 -0.0537808 -0.0328189 58
-0.811453 -0.0658288 -0.0955314 56
-0.815322 -0.20864 -0.0704553 50
-0.815199 -0.065846 -0.151897 52
-0.822811 -0.211184 -0.129201 49
-0.81478 -0.0652587 -0.209507 50
-0.809699 -0.208601 -0.184742 47
-7.07071 -0.554166 1.62674 1
-7.23029 -1.90796 1.9916 32
-6.99674 -0.5496 1.10355 1
-7.22946 -1.89296 1.44456 35
-7.28216 -0.573229 0.636019 36
-7.31653 -1.90631 0.922761 35
-3.09743 -0.243531 0.0536225 11
-1.68967 -0.435183 0.0896253 52
-0.654498 -0.0524401 -0.0326876 58
-0.809093 -0.0642203 -0.0952272 56
-0.808454 -0.205336 -0.069803 50
-0.812866 -0.0642339 -0.151421 53
-0.8184 -0.208501 -0.128418 49
-0.814904 -0.0636944 -0.209507 50
-0.817132 -0.209039 -0.186427 49
-7.06632 -0.515372 1.62506 1
-7.2218 -1.86398 1.98643 32
-6.98976 -0.511018 1.10199 1
-7.22739 -1.85203 1.44217 35
-7.28018 -0.533458 0.635583 36
-7.31471 -1.86362 0.921239 35
-3.11112 -0.228218 0.0538407 8
-1.68958 -0.425418 0.0894945 52
-0.657253 -0.0491935 -0.0328189 58
-0.811903 -0.0600205 -0.0955314 56
-0.809518 -0.2011 -0.069803 50
-0.810754 -0.0596591 -0.150945 52
-0.819481 -0.204213 -0.128418 49
-0.817635 -0.0595981 -0.210153 52
-0.813531 -0.203406 -0.185304 47
-7.07198 -0.504617 1.62618 1
-7.22504 -1.85137 1.98643 32
-6.99302 -0.500214 1.10238 1
-7.21158 -1.83456 1.43836 35
-7.26868 -0.519864 0.634494 35
-7.3032 -1.84847 0.919414 33
-1.68783 -0.422151 0.0893636 52
-0.657338 -0.0480463 -0.0328189 58
-0.814472 -0.0589199 -0.0958357 56
-0.805038 -0.198467 -0.069368 50
-0.815753 -0.0585872 -0.151897 53
-0.819836 -0.202783 -0.128418 49
-0.815328 -0.0580038 -0.209507 52
-0.811489 -0.201527 -0.184742 49
-7.07452 -0.467582 1.62618 1
-7.21793 -1.81065 1.98191 32
-6.99308 -0.463429 1.10199 1
-7.22078 -1.79803 1.43836 35
-7.27868 -0.483562 0.635147 35
-7.3176 -1.8114 0.920023 35
-1.69001 -0.413308 0.0893636 53
-0.650107 -0.0441127 -0.0324251 56
-0.809817 -0.0543308 -0.0952272 56
-0.801231 -0.193054 -0.0689331 49
-0.811141 -0.0541391 -0.150945 53
-0.81849 -0.197893 -0.128026 49
-0.813202 -0.0537213 -0.20886 50
-0.810169 -0.196687 -0.184181 47
-7.07776 -0.45539 1.62674 1
-7.21873 -1.79747 1.98126 35
-6.99141 -0.451064 1.1016 1
-7.21469 -1.78181 1.43645 35
-7.27702 -0.470697 0.63493 35
-7.31111 -1.79625 0.918806 33
-1.68588 -0.409167 0.089102 52
-0.650183 -0.042978 -0.0324251 58
-0.814863 -0.0532324 -0.0958357 56
-0.806404 -0.192842 -0.069368 47
-0.816133 -0.0530332 -0.151897 53
-0.818834 -0.196464 -0.128026 49
-0.813303 -0.05216 -0.20886 52
-0.808146 -0.194688 -0.183619 49
-6.97068 -0.410664 1.60148 1
-7.22131 -1.75667 1.97932 33
-7.27231 -0.429634 1.1457 38
-7.21676 -1.74227 1.43502 35
-7.27698 -0.431171 0.634712 33
-7.31107 -1.75434 0.917589 33
-1.68322 -0.398874 0.0888403 53
-0.652892 -0.0397194 -0.0325564 58
-1.56139 -0.36908 -0.0274003 18
-0.810185 -0.0485346 -0.0952272 56
-0.802559 -0.187456 -0.0689331 47
-0.813958 -0.0484751 -0.151421 53
-0.81745 -0.191597 -0.127635 50
-0.813565 -0.0479008 -0.20886 52
-0.813924 -0.191456 -0.184742 49
-6.85944 -0.393322 1.57565 1
-7.21733 -1.74235 1.97739 33
-7.27297 -0.41821 1.1457 38
-7.20309 -1.72566 1.43169 33
-7.27523 -0.418327 0.634494 33
-7.31623 -1.74343 0.917893 33
-1.68384 -0.39623 0.0888403 53
-0.650467 -0.0384379 -0.0324251 58
-1.56203 -0.366354 -0.0274003 20
-0.812738 -0.0474021 -0.0955314 56
-0.800462 -0.185478 -0.0687157 47
-0.816491 -0.0471918 -0.151897 53
-0.817784 -0.19017 -0.127635 49
-0.816059 -0.0466143 -0.209507 52
-0.809486 -0.189042 -0.183619 47
-6.8687 -0.357779 1.57733 1
-7.21665 -1.70358 1.9748 33
-7.27506 -0.380123 1.1457 38
-7.21173 -1.68918 1.43169 35
-7.27974 -0.381629 0.634712 33
-7.30834 -1.70115 0.915763 33
-1.68346 -0.386842 0.0887094 55
-0.645667 -0.0348864 -0.0321625 59
-1.55413 -0.35618 -0.0272258 24
-0.812975 -0.043146 -0.0955314 56
-0.811818 -0.0428085 -0.150945 53
-0.813959 -0.184765 -0.126852 49
-0.813872 -0.042362 -0.20886 50
-0.812836 -0.185356 -0.184181 49
-6.86683 -0.346867 1.57677 1
-7.21491 -1.68987 1.97351 33
-7.27818 -0.367549 1.14609 38
-7.20989 -1.67548 1.43074 35
-7.28537 -0.369174 0.635147 32
-1.68413 -0.383903 0.0887094 53
-0.650714 -0.0340094 -0.0324251 59
-1.56936 -0.356836 -0.0274875 23
-0.813049 -0.041727 -0.0955314 56
-0.811891 -0.0413916 -0.150945 52
-0.816686 -0.1839 -0.127243 50
-0.816357 -0.0410586 -0.209507 50
-0.810786 -0.183386 -0.183619 49
-6.87347 -0.309927 1.57789 1
-7.22366 -1.65207 1.97351 33
-7.27507 -0.329213 1.14531 36
-7.21138 -1.63607 1.42931 35
-7.29218 -0.331248 0.635583 32
-1.68612 -0.37508 0.0887094 55
-0.655877 -0.0307113 -0.0326876 59
-0.810777 -0.0373594 -0.0952272 56
-0.807193 -0.0369242 -0.149992 52
-0.817637 -0.179621 -0.127243 50
-0.814148 -0.0366791 -0.20886 50
-0.811735 -0.179138 -0.183619 49
-6.874 -0.29793 1.57789 1
-7.21711 -1.63732 1.97092 33
-7.27563 -0.316516 1.14531 36
-7.20733 -1.6206 1.42788 35
-7.28777 -0.318304 0.635147 32
-7.07836 -1.58247 0.885035 1
-1.68677 -0.372137 0.0887094 55
-0.645952 -0.0291379 -0.0321625 59
-0.81332 -0.0360499 -0.0955314 56
-0.809708 -0.0356189 -0.150468 52
-0.81554 -0.177655 -0.126852 50
-0.809391 -0.0349162 -0.207567 50
-0.809669 -0.177186 -0.183058 49
-6.87064 -0.260551 1.57677 1
-7.22115 -1.5972 1.96963 33
-7.27477 -0.277053 1.14492 36
-7.21332 -1.58232 1.4274 35
-7.29188 -0.278963 0.635365 32
-7.08197 -1.54309 0.884426 1
-1.68388 -0.361942 0.0884478 55
-0.648591 -0.0258494 -0.0322938 59
-0.808544 -0.0314645 -0.094923 56
-0.807437 -0.0311471 -0.149992 53
-0.814047 -0.172855 -0.12646 50
-0.811977 -0.0307651 -0.208214 50
-0.808237 -0.172281 -0.182496 47
-7.0585 -0.256534 1.62001 21
-7.22157 -1.58408 1.96899 33
-7.27026 -0.265446 1.14414 36
-7.20888 -1.56816 1.42597 35
-7.28987 -0.266146 0.635147 32
-7.06499 -1.52775 0.881993 1
-3.13488 -0.114694 0.0541461 9
-1.68201 -0.358769 0.0883169 55
-0.648635 -0.0247173 -0.0322938 59
-0.806113 -0.030106 -0.0946187 56
-0.809942 -0.0298239 -0.150468 52
-0.811934 -0.170911 -0.126069 50
-0.812029 -0.0293478 -0.208214 49
-0.810887 -0.171529 -0.183058 49
-6.87469 -0.213853 1.57733 1
-7.21769 -1.54497 1.96575 33
-7.27402 -0.227452 1.14453 36
-7.21192 -1.53063 1.42502 35
-7.28863 -0.229167 0.63493 29
-7.07046 -1.49023 0.881688 1
-3.12043 -0.0983594 0.0538843 9
-1.68142 -0.349442 0.0881861 55
-0.651251 -0.0213974 -0.0324251 59
-1.67377 -0.347226 -0.0292328 55
-0.81122 -0.0260355 -0.0952272 56
-0.80763 -0.0256504 -0.149992 52
-0.81765 -0.167678 -0.126852 50
-0.814581 -0.0253082 -0.20886 50
-0.807008 -0.16627 -0.181935 49
-6.86288 -0.201499 1.57452 1
-7.21329 -1.53086 1.96382 33
-7.27194 -0.214684 1.14414 36
-7.21485 -1.51678 1.42502 35
-7.28902 -0.216446 0.63493 30
-7.06819 -1.47687 0.88108 1
-3.10562 -0.0919314 0.0536225 11
-1.67958 -0.345997 0.0880552 56
-0.648792 -0.0201884 -0.0322938 59
-1.67437 -0.344304 -0.0292328 56
-0.811264 -0.0246197 -0.0952272 56
-0.807673 -0.0242408 -0.149992 53
-0.817941 -0.16625 -0.126852 49
-0.807386 -0.0235458 -0.20692 50
-0.80968 -0.165363 -0.182496 50
-6.86143 -0.164307 1.57396 1
-7.21674 -1.49083 1.96252 33
-7.27053 -0.175277 1.14375 36
-7.21067 -1.47651 1.42263 35
-7.29257 -0.177065 0.635147 29
-7.07122 -1.43761 0.880471 1
-3.10356 -0.0756094 0.0535789 12
-1.68143 -0.336904 0.0880552 56
-0.651384 -0.0168504 -0.0324251 61
-1.67376 -0.334743 -0.0291891 61
-0.808905 -0.0201724 -0.094923 56
-0.8127 -0.0199827 -0.150945 53
-0.813962 -0.160979 -0.126069 50
-0.812327 -0.0194251 -0.208214 52
-0.808177 -0.160491 -0.181935 49
-6.88117 -0.153961 1.57845 1
-7.22169 -1.47872 1.96317 35
-7.27326 -0.163911 1.14414 35
-7.20842 -1.46294 1.42168 35
-7.28789 -0.164226 0.634712 32
-7.06617 -1.42503 0.879559 1
-3.10619 -0.070248 0.0536225 15
-1.68196 -0.334263 0.0880552 58
-0.648917 -0.0156586 -0.0322938 59
-1.67924 -0.332806 -0.0292764 62
-0.811416 -0.0189554 -0.0952272 58
-0.81028 -0.0185124 -0.150468 52
-0.80698 -0.158092 -0.124894 50
-0.809945 -0.017958 -0.207567 50
-0.80604 -0.158736 -0.181373 49
-6.88188 -0.117929 1.57845 1
-7.21724 -1.43978 1.95994 33
-7.27155 -0.125784 1.14375 36
-7.21092 -1.42548 1.42073 35
-7.28863 -0.127337 0.634712 30
-7.06867 -1.38705 0.87895 1
-3.09651 -0.0543543 0.053448 29
-1.68369 -0.325451 0.0880552 56
-0.646491 -0.0123317 -0.0321625 59
-1.6809 -0.324303 -0.0292764 64
-0.806542 -0.0146252 -0.0946187 56
-0.733914 -0.138974 -0.062192 36
-0.810363 -0.014411 -0.150468 53
-0.81022 -0.15434 -0.125285 50
-0.810026 -0.0138583 -0.207567 50
-0.80925 -0.154986 -0.181935 49
-6.91616 -0.107643 1.58631 1
-7.21264 -1.42577 1.958 33
-7.26435 -0.112979 1.14258 35
-7.20858 -1.41195 1.41977 35
-7.06134 -1.37281 0.877733 1
-3.0966 -0.0489498 0.053448 35
-1.67935 -0.321559 0.0877936 56
-0.649008 -0.0112412 -0.0322938 59
-1.67901 -0.320892 -0.0292328 62
-0.806566 -0.0132175 -0.0946187 58
-0.7366 -0.138168 -0.0624095 38
-0.810387 -0.0129967 -0.150468 52
-0.810488 -0.152926 -0.125285 50
-0.807634 -0.0124116 -0.20692 52
-0.807129 -0.153105 -0.181373 49
-7.21052 -1.38616 1.95542 33
-7.21347 -1.37373 1.4193 35
-7.06843 -1.33582 0.877733 1
-3.09681 -0.0327354 0.053448 23
-1.67856 -0.312299 0.0876627 56
-0.646563 -0.00770518 -0.0321625 59
-1.67085 -0.310244 -0.0290583 64
-0.804143 -0.00897077 -0.0943145 58
-0.808852 -0.148221 -0.124894 49
-0.807688 -0.00818269 -0.20692 50
-0.80792 -0.148877 -0.181373 49
-7.21056 -1.37312 1.95477 33
-7.20645 -1.35805 1.41739 35
-3.10311 -0.0279243 0.26844 8
-7.06099 -1.32165 0.876516 1
-3.08437 -0.0266874 0.0532298 23
-1.67665 -0.308909 0.0875319 56
-0.646576 -0.00657671 -0.0321625 59
-1.6591 -0.305032 -0.0288401 58
-0.806639 -0.00758631 -0.0946187 58
-0.813963 -0.147719 -0.125677 49
-0.812532 -0.00666321 -0.208214 50
-0.805784 -0.147015 -0.180812 49
-3.10201 -0.0100724 0.706963 3
-7.21313 -1.3332 1.95348 35
-3.10681 -0.0106158 0.485439 4
-7.21104 -1.31986 1.41691 35
-3.08329 -0.011072 0.266697 9
-7.06804 -1.28342 0.876516 1
-3.07447 -0.0105077 0.0530553 15
-1.68075 -0.300279 0.0876627 53
-0.644105 -0.0031842 -0.0320313 59
-1.66564 -0.296943 -0.0289274 49
-0.806668 -0.00322189 -0.0946187 58
-0.807437 -0.142128 -0.124502 50
-0.810141 -0.00240579 -0.207567 52
-0.808964 -0.143092 -0.181373 49
-3.06305 -0.00515213 0.697978 2
-7.20595 -1.31886 1.95089 33
-3.11424 -0.00574601 0.48661 2
-7.20609 -1.30595 1.41548 35
-3.07085 -0.00567323 0.265607 9
-7.06516 -1.27144 0.875908 1
-3.07199 -0.00513865 0.0530117 15
-1.67385 -0.296312 0.0872702 39
-0.646606 -0.00206263 -0.0321625 59
-1.64402 -0.290063 -0.0285347 49
-0.806672 -0.00195477 -0.0946187 59
-0.812544 -0.141595 -0.125285 50
-0.810144 -0.00099182 -0.207567 52
-0.804394 -0.140952 -0.18025 49
-3.07034 0.0109153 0.699663 4
-7.2054 -1.2811 1.94895 35
-3.05743 0.010342 0.477634 11
-7.20536 -1.26818 1.41405 35
-3.04594 0.00977847 0.263428 14
-7.06195 -1.23271 0.874691 1
-3.04948 0.0103237 0.052619 23
-1.68521 -0.289261 0.0877936 39
-0.646608 0.001323 -0.0321625 59
-1.62576 -0.278307 -0.0281856 12
-0.809153 0.00228022 -0.094923 59
-0.803125 0.00252711 -0.14904 55
-0.810842 -0.136913 -0.124894 50
-0.807723 0.00309519 -0.20692 50
-0.80752 -0.13716 -0.180812 47
-3.06544 0.016246 0.69854 4
-7.20287 -1.26768 1.94766 35
-3.05 0.0156368 0.476464 9
-6.96845 -1.21253 1.36687 1
-3.05089 0.0151216 0.263864 15
-7.0592 -1.21954 0.874082 1
-3.05445 0.016207 0.0527063 21
-1.69064 -0.287169 0.0880552 14
-0.649101 0.00246635 -0.0322938 61
-1.65827 -0.280989 -0.0287528 12
-0.805573 0.0039451 -0.149516 55
-0.803781 -0.134234 -0.123719 50
-0.805301 0.00462778 -0.206274 52
-0.807758 -0.13575 -0.180812 47
-3.06775 0.0328585 0.699102 4
-7.20248 -1.22747 1.94572 36
-3.04987 0.0321386 0.476464 9
-7.19973 -1.21413 1.4112 36
-3.05326 0.0316551 0.264082 14
-7.05835 -1.18009 0.87317 1
-3.04932 0.0321448 0.052619 26
-1.72418 -0.283369 0.0897562 14
-0.646583 0.0058371 -0.0321625 61
-1.6647 -0.272835 -0.0288401 11
-0.698224 -0.111736 -0.0587128 38
-0.807994 0.00833315 -0.149992 55
-0.806908 -0.130432 -0.124111 50
-0.805266 0.00884424 -0.206274 52
-0.808481 -0.131378 -0.180812 49
-3.06769 0.0376773 0.699102 9
-7.20223 -1.2145 1.94508 36
-3.05228 0.0369603 0.476854 8
-7.19458 -1.20035 1.40977 35
-3.05569 0.0370153 0.2643 14
-7.0553 -1.16819 0.872561 1
-3.04926 0.0374669 0.052619 23
-1.74925 -0.284738 0.0910646 14
-0.644075 0.00693335 -0.0320313 61
-1.69723 -0.27522 -0.0294073 11
-0.695961 -0.110111 -0.0584953 38
-0.805524 0.00970951 -0.149516 55
-0.812006 -0.129832 -0.124894 50
-0.805249 0.0102497 -0.206274 52
-0.803881 -0.129305 -0.179689 49
-3.09912 0.0543083 0.706401 1
-7.19875 -1.17646 1.94249 35
-3.12859 0.0543042 0.488951 1
-7.19572 -1.16313 1.40881 35
-3.08285 0.0529639 0.266697 2
-7.06132 -1.13123 0.872561 1
-3.07653 0.0533895 0.0530989 3
-1.77044 -0.278734 0.0921113 14
-0.646526 0.0103509 -0.0321625 61
-1.70107 -0.26702 -0.0294509 11
-0.80408 0.0134857 -0.0943145 67
-0.68915 -0.105287 -0.0578429 39
-0.803011 0.0137402 -0.14904 55
-0.800485 -0.123622 -0.122936 50
-0.810016 0.0144197 -0.207567 53
-0.804547 -0.125095 -0.179689 50
-7.19602 -1.16312 1.9412 36
-6.96046 -1.11123 1.36211 1
-3.08276 0.0583444 0.266697 11
-7.05838 -1.11813 0.871953 1
-3.07392 0.0592466 0.0530553 14
-1.79558 -0.279549 0.0934197 14
-0.646507 0.0114793 -0.0321625 62
-1.70894 -0.265222 -0.0295818 15
-0.801575 0.0148389 -0.0940102 67
-0.686873 -0.103695 -0.0576255 39
-0.807893 0.0152428 -0.149992 58
-0.805577 -0.122999 -0.123719 50
-0.807572 0.0159229 -0.20692 52
-0.799953 -0.122921 -0.178566 49
-7.19506 -1.12305 1.93926 35
-6.97104 -1.07552 1.36306 1
-7.06433 -1.07992 0.871953 1
-3.08856 0.075715 0.0533171 15
-0.646438 0.0148642 -0.0321625 65
-0.806444 0.0193029 -0.0946187 68
-0.684944 -0.0997214 -0.057408 42
-0.805346 0.0195499 -0.149516 58
-0.808671 -0.119012 -0.124111 50
-0.805064 0.0200866 -0.206274 52
-0.805421 -0.119334 -0.179689 49
-7.16053 0.189846 1.64303 44
-7.197 -1.11049 1.93926 35
-7.26021 0.192521 1.14219 36
-6.96563 -1.06224 1.36163 1
-7.05639 -1.0661 0.870736 1
-3.09592 0.0813056 0.053448 12
-0.651402 0.0161267 -0.0324251 74
-0.796487 0.0204384 -0.0934018 71
-0.682655 -0.0981542 -0.0571906 44
-0.80531 0.0209554 -0.149516 58
-0.803995 -0.116862 -0.123328 50
-0.807441 0.0215604 -0.20692 52
-0.808037 -0.118296 -0.18025 49
-7.14722 0.228195 1.64022 33
-7.19078 -1.071 1.93603 33
-7.2591 0.230533 1.14219 36
-6.95653 -1.0236 1.35877 1
-7.27864 0.229897 0.634058 27
-7.05451 -1.02806 0.869823 1
-3.09295 0.0974348 0.0534044 11
-0.648814 0.019457 -0.0322938 74
-0.793889 0.0245275 -0.0930975 71
-0.67823 -0.0938612 -0.0567557 44
-0.807642 0.0252527 -0.149992 58
-0.799709 -0.111937 -0.122545 50
-0.807317 0.0257878 -0.20692 52
-0.806235 -0.113708 -0.179689 49
-7.15172 0.239585 1.64134 33
-7.19025 -1.0581 1.93538 33
-7.25622 0.243119 1.1418 36
-6.95587 -1.0111 1.35829 1
-7.26578 0.242184 0.632969 27
-7.05138 -1.01504 0.869214 1
-3.10027 0.103085 0.0535353 9
-0.656264 0.0208429 -0.0326876 80
-0.793845 0.0259131 -0.0930975 71
-0.675928 -0.092323 -0.0565382 45
-0.802692 0.0264918 -0.14904 58
-0.804858 0.0271113 -0.206274 52
-0.806432 -0.112301 -0.179689 49
-7.1455 0.276838 1.64022 33
-7.19073 -1.02101 1.93409 32
-7.25243 0.279747 1.14141 38
-6.95604 -0.975198 1.35734 1
-7.27691 0.279436 0.634058 30
-7.05151 -0.978648 0.868606 1
-3.12469 0.119744 0.0539716 3
-0.653652 0.0241812 -0.0325564 82
-0.788745 0.029735 -0.092489 73
-0.669001 -0.0877582 -0.0558859 45
-0.807452 0.0307495 -0.149992 58
-0.799884 0.0309892 -0.20498 52
-0.802165 -0.107542 -0.178566 49
-7.14987 0.289507 1.64134 33
-7.19011 -1.00812 1.93344 33
-7.2544 0.292504 1.1418 35
-6.9579 -0.961842 1.35734 1
-7.27392 0.292036 0.63384 32
-7.03846 -0.964309 0.866781 1
-3.05509 -0.413667 0.159755 9
-0.656103 0.0254239 -0.0326876 85
-0.79365 0.031316 -0.0930975 76
-0.671621 -0.0869276 -0.0561033 45
-0.804945 0.0320568 -0.149516 58
-0.802236 0.0326272 -0.205627 52
-0.807178 -0.106809 -0.179689 50
-7.14334 0.327963 1.64022 35
-7.19067 -0.968558 1.93215 32
-7.26257 0.332203 1.14336 33
-6.96041 -0.925072 1.35686 1
-7.28716 0.33207 0.635147 26
-7.0485 -0.926863 0.867389 1
-3.05234 -0.396481 0.159494 9
-0.655961 0.0288589 -0.0326876 89
-0.79099 0.035494 -0.0927933 77
-0.667128 -0.0827614 -0.0556684 47
-0.807211 0.0365267 -0.149992 56
-0.798729 -0.100577 -0.122153 50
-0.804467 0.0369422 -0.206274 53
-0.800499 -0.101478 -0.178004 50
-7.15011 0.339531 1.64191 36
-7.18756 -0.955367 1.93086 32
-7.26451 0.343728 1.14375 33
-6.94985 -0.911319 1.35448 1
-7.28657 0.344788 0.635147 29
-7.03764 -0.914184 0.865868 1
-3.05295 -0.391686 0.159494 9
-0.658403 0.0301231 -0.0328189 90
-0.788455 0.0366169 -0.092489 77
-0.667271 -0.0815969 -0.0556684 49
-0.804695 0.037816 -0.149516 58
-0.801352 -0.0995013 -0.122545 50
-0.801989 0.038227 -0.205627 53
-0.803073 -0.100537 -0.178566 49
-6.88794 0.363186 1.58182 1
-7.18272 -0.917744 1.92827 32
-7.26015 0.38163 1.14336 36
-6.94707 -0.875206 1.35305 1
-7.29219 0.382056 0.635801 27
-7.04726 -0.877939 0.866476 1
-3.05249 -0.375387 0.159363 9
-0.655743 0.0334377 -0.0326876 90
-0.79073 0.0408772 -0.0927933 79
-0.670161 -0.0784089 -0.0558859 47
-0.802042 0.0417565 -0.14904 58
-0.796961 -0.094692 -0.121762 50
-0.804197 0.0424172 -0.206274 53
-0.801171 -0.0960267 -0.178004 50
-7.1427 0.389174 1.64078 33
-7.18671 -0.90551 1.92892 32
-7.25947 0.3943 1.14336 38
-6.95117 -0.862171 1.35353 1
-7.27908 0.394107 0.634712 27
-7.03646 -0.864118 0.864955 1
-3.05066 -0.369754 0.159232 9
-0.655684 0.0345821 -0.0326876 90
-0.78818 0.0421204 -0.092489 82
-0.662881 -0.0763312 -0.0552335 47
-0.799518 0.0430202 -0.148564 58
-0.794675 -0.0929991 -0.12137 50
-0.801703 0.043825 -0.205627 53
-0.803755 -0.0949285 -0.178566 50
-7.14049 0.427814 1.64078 33
-7.18671 -0.866032 1.92763 32
-7.2523 0.433277 1.14258 38
-6.95315 -0.825472 1.35305 1
-7.27435 0.433337 0.634494 30
-7.27022 -0.853078 0.893249 33
-3.05014 -0.352952 0.159101 11
-0.653002 0.0378649 -0.0325564 90
-0.785464 0.0462341 -0.0921848 82
-0.665745 -0.0731491 -0.0554509 50
-0.799273 0.0473453 -0.148564 58
-0.795151 -0.0888369 -0.12137 50
-0.796641 0.0477247 -0.204334 52
-7.13981 0.43903 1.64078 33
-7.18821 -0.853487 1.92763 32
-7.25407 0.444819 1.14297 36
-6.94971 -0.812761 1.3521 1
-7.27856 0.446338 0.63493 32
-7.27401 -0.841944 0.893554 33
-3.05317 -0.348448 0.159232 11
-0.655427 0.0391588 -0.0326876 90
-0.790344 0.047776 -0.0927933 83
-0.668346 -0.0722724 -0.0556684 50
-0.79674 0.0485866 -0.148088 58
-0.80021 -0.0880183 -0.122153 50
-0.801377 0.0494208 -0.205627 53
-7.13985 0.47657 1.64134 33
-7.19004 -0.81682 1.92698 32
-7.25657 0.483125 1.14375 38
-6.94642 -0.776752 1.35067 1
-7.26627 0.48251 0.634058 32
-7.04403 -0.777815 0.864651 1
-3.05743 -0.332731 0.159363 11
-0.657703 0.0427572 -0.0328189 90
-0.795034 0.0522476 -0.0934018 86
-0.668715 -0.068772 -0.0556684 52
-0.796484 0.0526186 -0.148088 59
-0.793298 -0.0830118 -0.120979 52
-0.801117 0.0534763 -0.205627 53
-0.800013 -0.0845605 -0.177443 52
-7.139 0.489031 1.64134 33
-7.18425 -0.803459 1.92504 32
-7.25326 0.49562 1.14336 38
-6.94058 -0.762605 1.34924 1
-7.25796 0.494682 0.633404 35
-7.27725 -0.790872 0.893249 35
-3.04311 -0.325776 0.158578 11
-0.655137 0.0437335 -0.0326876 95
-0.792466 0.0534638 -0.0930975 86
-0.661406 -0.0668004 -0.055016 49
-0.796391 0.0540086 -0.148088 59
-0.793441 -0.0816271 -0.120979 52
-0.798604 0.0548445 -0.20498 53
-0.797738 -0.0828976 -0.176881 50
-7.14111 0.528009 1.64247 35
-7.1861 -0.76432 1.9244 32
-7.25047 0.534856 1.14336 38
-6.94203 -0.725997 1.34876 1
-7.25269 0.533761 0.633186 33
-7.27155 -0.750462 0.892032 33
-3.0498 -0.309819 0.15884 11
-0.654899 0.0471632 -0.0326876 98
-0.79464 0.0579354 -0.0934018 88
-0.661746 -0.0633364 -0.055016 50
-0.79364 0.0581331 -0.147611 59
-0.796314 -0.0777262 -0.12137 50
-0.800713 0.0592075 -0.205627 53
-0.798175 -0.0785803 -0.176881 50
-7.14027 0.539226 1.64247 33
-7.18502 -0.751524 1.92375 32
-7.25208 0.546431 1.14375 38
-6.94329 -0.71388 1.34876 1
-7.24678 0.546043 0.632751 35
-7.27765 -0.739544 0.892641 35
-3.05028 -0.305028 0.15884 11
-0.654816 0.0483061 -0.0326876 101
-0.789599 0.0588062 -0.0927933 88
-0.664334 -0.0624321 -0.0552335 50
-0.798431 0.0598939 -0.148564 58
-0.791535 -0.0758355 -0.120587 50
-0.798201 0.0604184 -0.20498 53
-0.798297 -0.0773264 -0.176881 52
-7.14464 0.577195 1.64415 36
-7.18392 -0.714667 1.92246 30
-7.24666 0.584196 1.14336 38
-6.93949 -0.678007 1.34733 1
-7.24393 0.582715 0.632751 35
-7.28143 -0.701428 0.892641 35
-3.05184 -0.289053 0.15884 11
-0.649586 0.0512168 -0.0324251 104
-0.789281 0.0629397 -0.0927933 88
-0.664641 -0.0590689 -0.0552335 50
-0.80301 0.0643349 -0.149516 58
-0.796837 -0.072165 -0.12137 50
-0.797885 0.0644577 -0.20498 53
-0.793842 -0.0726717 -0.175758 52
-6.8718 0.565965 1.58126 1
-7.17554 -0.701181 1.91987 30
-7.24809 0.597046 1.14375 38
-6.94066 -0.665894 1.34733 1
-7.24786 0.595766 0.633186 33
-7.27029 -0.687542 0.89112 33
-3.05979 -0.284431 0.159232 11
-0.651984 0.0525563 -0.0325564 107
-0.78917 0.0643172 -0.0927933 88
-0.662264 -0.0576748 -0.055016 50
-0.800451 0.0655318 -0.14904 58
-0.796962 -0.0707742 -0.12137 50
-0.797771 0.0658501 -0.20498 52
-0.798817 -0.0717514 -0.176881 49
-7.14043 0.627059 1.64415 36
-7.17671 -0.663377 1.91923 30
-7.23994 0.634557 1.14297 38
-6.94161 -0.629321 1.34686 1
-7.24713 0.633925 0.633404 33
-7.27379 -0.649466 0.89112 33
-3.06124 -0.268406 0.159232 12
-0.654187 0.0561882 -0.0326876 110
-0.791294 0.0686672 -0.0930975 90
-0.665038 -0.0544274 -0.0552335 52
-0.797652 0.0695047 -0.148564 58
-0.792403 -0.0661597 -0.120587 50
-0.797416 0.0700264 -0.20498 53
-0.79433 -0.0671279 -0.175758 50
-7.12246 0.636753 1.64022 24
-7.17546 -0.65063 1.91858 30
-7.23883 0.647192 1.14297 35
-6.93781 -0.616767 1.3459 1
-7.24601 0.646573 0.633404 33
-7.27491 -0.63677 0.89112 35
-3.05424 -0.26241 0.15884 12
-0.659061 0.0577764 -0.0329502 115
-0.793644 0.0702714 -0.0934018 90
-0.665132 -0.0532666 -0.0552335 53
-0.797529 0.0708967 -0.148564 58
-0.792517 -0.0647766 -0.120587 50
-0.792482 0.0709786 -0.203687 53
-0.794446 -0.0657415 -0.175758 50
-7.17155 -0.612429 1.91664 30
-6.9385 -0.580226 1.34543 1
-7.27073 -0.598055 0.890207 33
-3.05558 -0.246414 0.15884 12
-0.656264 0.0609901 -0.0328189 119
-0.790795 0.0741898 -0.0930975 90
-0.662919 -0.0495796 -0.055016 53
-0.797147 0.0750716 -0.148564 55
-0.790385 -0.0604229 -0.120196 52
-0.796907 0.0755916 -0.20498 53
-0.792351 -0.0613779 -0.175197 49
-7.16538 -0.599303 1.9147 27
-6.9395 -0.568115 1.34543 1
-7.2767 -0.585766 0.890815 33
-3.056 -0.241081 0.15884 12
-0.656156 0.0621354 -0.0328189 126
-0.785725 0.075089 -0.092489 90
-0.663005 -0.0484225 -0.055016 53
-0.8019 0.07694 -0.149516 58
-0.797872 -0.05964 -0.12137 52
-0.796774 0.0769824 -0.20498 53
-0.794885 -0.0601936 -0.175758 50
-2.85832 0.290432 0.654179 47
-7.16361 -0.561397 1.91341 29
-6.93504 -0.531205 1.344 1
-7.2772 -0.547469 0.890511 33
-3.05473 -0.224889 0.158709 12
-0.655822 0.0655702 -0.0328189 130
-0.792726 0.0799621 -0.0934018 90
-0.663249 -0.0449504 -0.055016 53
-0.796604 0.0806349 -0.148564 58
-0.793249 -0.0550895 -0.120587 52
-0.79636 0.0811532 -0.20498 53
-0.792761 -0.0558448 -0.175197 50
-2.86028 0.295173 0.654741 47
-7.16458 -0.548893 1.91341 29
-6.93351 -0.518915 1.34352 1
-7.26824 -0.534033 0.889294 33
-3.04765 -0.219009 0.158316 12
-0.655707 0.0667147 -0.0328189 134
-0.795054 0.0816032 -0.093706 90
-0.658359 -0.0434288 -0.0545811 55
-0.796462 0.0820251 -0.148564 58
-0.790882 -0.0535233 -0.120196 52
-0.796217 0.082543 -0.20498 53
-0.787998 -0.0540974 -0.174073 50
-2.8538 0.310115 0.653618 47
-7.15772 -0.510678 1.91083 29
-6.93858 -0.482777 1.344 1
-7.26847 -0.495799 0.88899 33
-3.05125 -0.203218 0.158447 12
-0.655348 0.0701471 -0.0328189 135
-0.794615 0.0857649 -0.093706 90
-0.661062 -0.04015 -0.0547986 55
-0.796021 0.0861942 -0.148564 58
-0.793615 -0.0495503 -0.120587 52
-0.795774 0.0867108 -0.20498 53
-0.790701 -0.0501399 -0.174635 50
-2.85088 0.314329 0.653056 49
-7.1586 -0.498185 1.91083 27
-6.93206 -0.470162 1.34257 1
-7.26684 -0.482946 0.888686 33
-3.05409 -0.198058 0.158578 12
-0.652743 0.0710155 -0.0326876 140
-0.791998 0.0868768 -0.0934018 90
-0.661131 -0.0389962 -0.0547986 55
-0.79587 0.0875834 -0.148564 58
-0.796163 -0.0483296 -0.120979 52
-0.795622 0.0880996 -0.20498 53
-0.790787 -0.0487598 -0.174635 52
-2.84914 0.32975 0.653056 49
-7.1587 -0.460539 1.91018 27
-2.86307 0.330874 0.449929 53
-6.92953 -0.43355 1.34161 1
-2.87743 0.332044 0.250355 55
-7.27175 -0.445044 0.88899 33
-3.05508 -0.182064 0.158578 14
-0.657322 0.0750088 -0.0329502 146
-0.791533 0.0910225 -0.0934018 90
-0.65884 -0.0353824 -0.0545811 55
-0.790525 0.0911784 -0.147611 58
-0.797548 0.0925468 -0.205627 53
-0.798326 -0.0450749 -0.17632 50
-2.84378 0.333654 0.651933 50
-7.15226 -0.447586 1.90824 26
-2.86494 0.336159 0.450319 55
-6.92783 -0.421304 1.34114 1
-2.86942 0.336192 0.249701 55
-7.26756 -0.432054 0.888382 33
-3.0529 -0.176584 0.158447 14
-0.657191 0.0761559 -0.0329502 148
-0.793837 0.0926959 -0.093706 90
-0.658901 -0.0342325 -0.0545811 56
-0.795239 0.0931374 -0.148564 58
-0.799783 0.0942254 -0.206274 53
-0.800835 -0.0438294 -0.176881 50
-2.84187 0.349532 0.651933 50
-7.15699 -0.409022 1.90889 27
-2.86062 0.351353 0.449929 55
-6.92756 -0.383678 1.34066 1
-2.87003 0.352017 0.249919 55
-7.27227 -0.392862 0.888686 33
-3.05631 -0.160198 0.158578 14
-0.651813 0.0790985 -0.0326876 146
-0.793324 0.0969896 -0.093706 90
-0.659077 -0.030667 -0.0545811 56
-0.799594 0.0980445 -0.149516 58
-0.794469 0.0979518 -0.20498 53
-0.793763 -0.0390917 -0.175197 50
-2.84132 0.353995 0.651933 50
-6.97685 -0.386388 1.86042 1
-2.86007 0.355846 0.449929 56
-6.92576 -0.371453 1.34018 1
-2.86694 0.356717 0.249701 55
-7.26544 -0.381044 0.887773 33
-3.05406 -0.155266 0.158447 14
-0.656629 0.0808567 -0.0329502 142
-0.790708 0.0979263 -0.0934018 90
-0.659129 -0.0295166 -0.0545811 55
-0.799422 0.0994399 -0.149516 55
-0.796761 -0.0372087 -0.120979 50
-0.789505 0.0987304 -0.203687 53
-0.791391 -0.0377139 -0.174635 50
-2.83943 0.368867 0.651933 52
-6.97389 -0.350824 1.85913 1
-2.85572 0.370497 0.449538 55
-6.92756 -0.336394 1.34018 1
-2.8651 0.371223 0.249701 55
-7.26486 -0.342878 0.887469 33
-3.05483 -0.139273 0.158447 14
-0.65126 0.0835334 -0.0326876 134
-0.736462 -0.0296902 -0.0122603 11
-0.787724 0.101743 -0.0930975 89
-0.656782 -0.0260632 -0.0543637 55
-0.803775 0.104124 -0.150468 58
-0.794478 -0.0329192 -0.120587 50
-0.79139 0.103041 -0.204334 53
-0.789144 -0.0334515 -0.174073 49
-2.83885 0.373327 0.651933 50
-6.9769 -0.33877 1.85978 1
-2.85752 0.375804 0.449929 55
-6.92323 -0.32407 1.33923 1
-2.86939 0.376874 0.250137 55
-7.27289 -0.330541 0.888382 33
-3.05258 -0.133828 0.158316 14
-0.653588 0.0849971 -0.0328189 124
-0.731519 -0.0281798 -0.0121731 11
-0.787545 0.103118 -0.0930975 90
-0.659315 -0.0250294 -0.0545811 55
-0.791428 0.103908 -0.148088 55
-0.789601 -0.0313068 -0.119804 50
-0.788815 0.104102 -0.203687 53
-0.791635 -0.0321881 -0.174635 50
-2.83678 0.388681 0.651933 50
-6.97376 -0.302023 1.85848 1
-2.85551 0.390761 0.449929 52
-6.91748 -0.287505 1.3378 1
-2.86244 0.391216 0.249701 52
-7.26708 -0.292152 0.887469 33
-3.05573 -0.117943 0.158447 15
-0.655607 0.0887582 -0.0329502 115
-0.726661 -0.0241503 -0.0120858 11
-0.786995 0.10724 -0.0930975 89
-0.659437 -0.0215769 -0.0545811 56
-0.793304 0.108387 -0.148564 55
-0.787287 -0.0270721 -0.119413 50
-0.793043 0.108896 -0.20498 53
-0.791793 -0.0280426 -0.174635 50
-2.83376 0.392801 0.651372 50
-6.96945 -0.289647 1.85719 1
-2.84748 0.394723 0.448758 50
-6.92042 -0.27553 1.33828 1
-2.85682 0.395526 0.249265 50
-7.27254 -0.279662 0.888077 33
-3.05593 -0.11261 0.158447 15
-0.650506 0.0892135 -0.0326876 110
-0.781891 0.107926 -0.092489 85
-0.659473 -0.020426 -0.0545811 56
-0.788253 0.10909 -0.147611 58
-0.789801 -0.0257937 -0.119804 50
-0.792852 0.11028 -0.20498 52
-0.786972 -0.0264668 -0.173512 50
-2.82677 0.40743 0.650249 49
-6.97811 -0.253419 1.85913 1
-2.84538 0.409627 0.448758 49
-7.16948 -0.248028 1.38641 35
-2.85471 0.410479 0.249265 50
-7.26894 -0.241411 0.887469 33
-3.05149 -0.0964421 0.158185 15
-0.650014 0.0927317 -0.0326876 106
-0.786227 0.112731 -0.0930975 83
-0.659574 -0.0168576 -0.0545811 56
-0.794957 0.114276 -0.14904 58
-0.789925 -0.0216579 -0.119804 50
-0.792263 0.11443 -0.20498 53
-0.791969 -0.0225143 -0.174635 49
-2.82605 0.412363 0.650249 47
-6.97613 -0.241154 1.85848 1
-2.83733 0.413521 0.447587 49
-7.16749 -0.234182 1.38594 35
-2.85152 0.415101 0.249048 49
-7.26935 -0.228724 0.887469 33
-3.04666 -0.0909592 0.157924 15
-0.649851 0.0938661 -0.0326876 103
-0.781119 0.113382 -0.092489 82
-0.659603 -0.0157064 -0.0545811 56
-0.797184 0.116021 -0.149516 58
-0.789961 -0.0202792 -0.119804 50
-0.794431 0.116305 -0.205627 53
-0.787138 -0.0209721 -0.173512 50
-2.82378 0.427647 0.650249 47
-6.97974 -0.203479 1.85913 1
-2.83749 0.429236 0.447977 49
-7.17843 -0.196926 1.38784 35
-2.83939 0.429029 0.248176 49
-7.27296 -0.189457 0.887773 32
-3.04961 -0.0745389 0.158055 17
-0.644414 0.0965173 -0.0324251 100
-0.778041 0.117232 -0.0921848 80
-0.659676 -0.0122525 -0.0545811 58
-0.791693 0.119591 -0.148564 58
-0.790057 -0.0161427 -0.119804 50
-0.791424 0.120096 -0.20498 52
-0.784804 -0.0166463 -0.17295 50
-2.81829 0.431343 0.649126 49
-6.97767 -0.191228 1.85848 1
-2.83437 0.433319 0.447587 49
-7.17631 -0.184332 1.38737 35
-2.84356 0.43474 0.248612 50
-7.26581 -0.177845 0.88686 32
-3.05221 -0.0698095 0.158185 15
-0.64918 0.0984006 -0.0326876 98
-0.782761 0.11921 -0.0927933 79
-0.654717 -0.0109812 -0.0541462 56
-0.793908 0.121347 -0.14904 58
-0.785147 -0.0146414 -0.119021 50
-0.791213 0.121478 -0.20498 52
-0.787265 -0.0154764 -0.173512 50
-2.8184 0.446476 0.649687 49
-6.97131 -0.155742 1.85655 1
-2.82475 0.446992 0.446416 49
-7.16734 -0.147798 1.38546 35
-2.83886 0.448737 0.248394 50
-7.27408 -0.139947 0.887773 32
-3.05004 -0.0537793 0.158055 17
-0.648674 0.101685 -0.0326876 96
-0.779675 0.122916 -0.092489 79
-0.657254 -0.00771463 -0.0543637 56
-0.79086 0.124977 -0.148564 55
-0.792619 -0.010675 -0.120196 52
-0.78582 0.124715 -0.203687 52
-0.787335 -0.0113541 -0.173512 50
-2.80807 0.449358 0.647441 49
-6.96433 -0.14342 1.85461 1
-2.82396 0.451921 0.446416 49
-7.17495 -0.135433 1.38689 33
-2.83316 0.452902 0.247958 53
-7.25447 -0.126891 0.885339 29
-3.04514 -0.0483687 0.157793 20
-0.643565 0.102025 -0.0324251 95
-0.781909 0.124672 -0.0927933 76
-0.659757 -0.00661053 -0.0545811 58
-0.795487 0.12714 -0.149516 58
-0.792636 -0.00929162 -0.120196 52
-0.787985 0.126473 -0.204334 53
-0.792225 -0.0100718 -0.174635 50
-2.81281 0.465742 0.649126 50
-7.00362 -0.107574 1.86495 1
-2.81912 0.466297 0.446026 50
-2.83566 0.468544 0.248394 53
-0.685709 0.11236 0.0115186 4
-3.04036 -0.0323628 0.157531 21
-0.647929 0.106324 -0.0326876 91
-0.778798 0.128356 -0.092489 76
-0.657292 -0.00301126 -0.0543637 58
-0.790205 -0.00511025 -0.119804 52
-0.787311 0.130598 -0.204334 52
-2.80959 0.470247 0.648564 50
-2.82074 0.471625 0.446416 52
-2.82501 0.471847 0.247522 56
-0.690422 0.114504 0.0116058 4
-3.0504 -0.027161 0.158055 23
-0.647743 0.107455 -0.0326876 90
-0.783467 0.13054 -0.0930975 74
-0.654806 -0.00183886 -0.0541462 58
-0.795151 -0.00378451 -0.120587 52
-0.787059 0.132109 -0.204334 52
-2.80461 0.485025 0.648003 52
-2.81328 0.486037 0.445636 53
-3.1121 -0.017432 0.597649 9
-2.83223 0.488824 0.248394 65
-3.08925 -0.0129912 0.37452 9
-0.689813 0.118117 0.0116058 4
-3.048 -0.0106438 0.157924 23
-0.642252 0.109992 -0.0324251 90
-0.785194 0.135202 -0.0934018 73
-0.654807 0.00158971 -0.0541462 58
-0.789015 0.136144 -0.148564 58
-0.793493 0.137477 -0.206274 52
-0.780109 -0.000175462 -0.171827 50
-2.79904 0.48859 0.646879 49
-2.81252 0.490455 0.445636 55
-3.09495 -0.0119073 0.594313 1
-2.82892 0.493337 0.248176 77
-3.05453 -0.00799305 0.37026 3
-0.692068 0.119752 0.0116495 4
-3.04801 -0.00585597 0.157924 17
-0.637141 0.110251 -0.0321625 90
-0.782536 0.136006 -0.0930975 73
-0.659784 0.00271691 -0.0545811 56
-0.791193 0.137947 -0.14904 55
-0.788496 0.138021 -0.20498 52
-0.782544 0.00103803 -0.172389 52
-2.79405 0.502806 0.646318 52
-2.81234 0.505613 0.446026 55
-3.06061 0.00376969 0.587641 8
-2.82639 0.507649 0.248176 79
-3.04212 0.00798747 0.368739 11
-0.693913 0.123697 0.0116931 8
-3.04551 0.010099 0.157793 18
-0.646382 0.11536 -0.0326876 90
-0.784255 0.140544 -0.0934018 68
-0.65727 0.00616626 -0.0543637 58
-0.790485 0.14195 -0.14904 55
-0.78773 0.00591979 -0.119413 53
-0.792539 0.142875 -0.206274 52
-0.780092 0.00513453 -0.171827 50
-2.79556 0.508119 0.646879 52
-2.81388 0.510963 0.446416 55
-3.05569 0.00963792 0.586687 4
-2.81815 0.511244 0.247522 67
-3.03962 0.01329 0.368435 11
-0.688756 0.124132 0.0116058 8
-3.05048 0.0154319 0.158055 24
-0.643723 0.11604 -0.0325564 90
-0.784009 0.141912 -0.0934018 67
-0.657259 0.00731341 -0.0543637 58
-0.787822 0.142887 -0.148564 55
-0.790188 0.00730239 -0.119804 53
-0.787513 0.143522 -0.20498 52
-0.784954 0.00650625 -0.17295 52
-2.79038 0.522787 0.646318 52
-2.80379 0.524813 0.445246 50
-3.06296 0.0256874 0.588117 4
-2.81534 0.526484 0.247522 58
-3.04199 0.029756 0.368739 11
-0.688097 0.127737 0.0116058 9
-3.04785 0.031914 0.157924 26
-0.648014 0.120331 -0.0328189 90
-0.78323 0.146152 -0.0934018 62
-0.654721 0.0107321 -0.0541462 58
-0.79186 0.148058 -0.149516 55
-0.78767 0.011419 -0.119413 52
-0.784378 0.147194 -0.204334 52
-0.782471 0.0107349 -0.172389 52
-2.79434 0.528076 0.647441 50
-2.80297 0.529217 0.445246 44
-3.06291 0.0310332 0.588117 3
-2.80952 0.530471 0.247087 56
-3.04938 0.0346071 0.369652 11
-0.692784 0.129869 0.0116931 11
-3.0478 0.0367015 0.157924 23
-0.64535 0.120997 -0.0326876 90
-0.782999 0.147382 -0.0934018 62
-0.657191 0.0119017 -0.0543637 58
-0.791601 0.14944 -0.149516 55
-0.787649 0.0127937 -0.119413 53
-0.788864 0.14947 -0.205627 52
-0.782453 0.0119639 -0.172389 52
-2.78675 0.541768 0.646318 52
-2.79531 0.542942 0.444465 39
-3.07989 0.0467694 0.591453 3
-2.80436 0.544209 0.246869 55
-3.07149 0.0509083 0.37239 2
-0.689665 0.132896 0.0116495 12
-3.04257 0.0525808 0.157662 21
-0.64473 0.124262 -0.0326876 90
-0.782217 0.15148 -0.0934018 61
-0.657123 0.0152279 -0.0543637 58
-0.790834 0.153445 -0.149516 53
-0.792509 0.0169935 -0.120196 55
-0.790467 0.153927 -0.206274 52
-0.78238 0.0160607 -0.172389 52
-2.7859 0.546145 0.646318 49
-2.79436 0.54782 0.444465 49
-2.8034 0.549102 0.246869 56
-0.686979 0.133617 0.0116058 12
-3.04996 0.0580217 0.158055 23
-0.644512 0.125387 -0.0326876 90
-0.784386 0.153325 -0.093706 61
-0.654605 0.0163309 -0.0541462 58
-0.790565 0.154825 -0.149516 53
-0.78754 0.0182922 -0.119413 55
-0.783091 0.153897 -0.204334 52
-0.779915 0.017387 -0.171827 52
-2.77813 0.560244 0.645195 49
-2.79387 0.562932 0.444856 52
-2.80049 0.563773 0.246869 56
-0.68137 0.136222 0.0115186 12
-3.04962 0.0739904 0.158055 23
-0.643846 0.12876 -0.0326876 88
-0.783572 0.15743 -0.093706 59
-0.65949 0.019872 -0.0545811 59
-0.789744 0.158962 -0.149516 53
-0.789902 0.0224706 -0.119804 55
-0.787007 0.158959 -0.205627 52
-0.774942 0.0213667 -0.170704 52
-2.77963 0.565094 0.645756 50
-2.79289 0.567808 0.444856 50
-7.16206 0.164868 1.38451 32
-2.80682 0.570151 0.247522 61
-7.25094 0.176947 0.885035 29
-0.688479 0.138909 0.0116495 9
-3.04948 0.0793129 0.158055 24
-0.646067 0.130382 -0.0328189 85
-0.783296 0.158797 -0.093706 59
-0.656965 0.0209617 -0.0543637 59
-0.791869 0.160833 -0.149992 53
-0.79233 0.0239087 -0.120196 55
-0.786728 0.160333 -0.205627 52
-0.779775 0.0228314 -0.171827 52
-2.77643 0.58061 0.645756 52
-6.89089 0.184135 1.83522 1
-2.78735 0.582404 0.444465 50
-7.16106 0.203616 1.38451 30
-2.8037 0.585329 0.247522 73
-7.25236 0.216248 0.885339 30
-0.682824 0.141607 0.0115622 8
-3.04652 0.0957364 0.157924 23
-0.642909 0.133363 -0.0326876 80
-0.784854 0.163543 -0.0940102 59
-0.654352 0.0244412 -0.0541462 59
-0.786184 0.164103 -0.14904 53
-0.792194 0.028057 -0.120196 55
-0.785849 0.164587 -0.205627 52
-0.782075 0.0271193 -0.172389 52
-2.77313 0.584466 0.645195 52
-6.92677 0.197167 1.84491 1
-2.78402 0.586272 0.444075 55
-7.15824 0.216041 1.38403 30
-2.81242 0.592279 0.248394 90
-7.26193 0.227945 0.886556 30
-0.682576 0.142798 0.0115622 4
-3.04387 0.100443 0.157793 23
-0.63779 0.133452 -0.0324251 73
-0.779741 0.163748 -0.0934018 59
-0.656798 0.0256623 -0.0543637 62
-0.790698 0.166495 -0.149992 55
-0.794612 0.0295163 -0.120587 56
