# .PCD v0.7 - Point Cloud Data file format
VERSION 0.7
FIELDS x y z intensity
SIZE 4 4 4 4
TYPE F F F F
COUNT 1 1 1 1
WIDTH 1591
HEIGHT 1
VIEWPOINT 0 0 0 1 0 0 0
POINTS 1591
DATA ascii
-1.17741 -2.22954 -0.304849 50
-0.727657 -2.26157 -0.204407 64
-1.17922 -2.23108 -0.482832 49
-0.722254 -2.24998 -0.369201 53
-1.18132 -2.23132 -0.666672 56
-0.719749 -2.24877 -0.536259 50
-2.94423 -5.55666 1.44144 11
-1.73608 -5.45994 1.52375 1
-3.00403 -5.67183 1.00873 33
-1.80937 -5.65702 1.14669 20
-1.18245 -2.23433 0.218107 4
-1.81734 -5.65822 0.724396 26
-1.1801 -2.22895 0.0434129 50
-0.728731 -2.25408 0.122335 47
-1.1849 -2.23708 -0.131276 50
-0.730777 -2.25641 -0.040795 50
-1.18207 -2.22988 -0.305153 50
-0.730079 -2.25555 -0.203972 53
-1.18426 -2.23119 -0.483308 49
-0.728442 -2.25577 -0.370375 55
-1.18862 -2.23565 -0.668611 55
-0.72328 -2.24763 -0.536259 50
-3.04818 -5.68068 1.47794 15
-1.82968 -5.65564 1.58126 23
-3.03953 -5.6669 1.01068 15
-1.83874 -5.65012 1.14716 20
-1.1961 -2.23271 0.218543 4
-1.84463 -5.64155 0.723483 23
-1.19254 -2.22515 0.0434565 50
-0.74285 -2.25736 0.122728 49
-1.19778 -2.23304 -0.131407 50
-0.742189 -2.25269 -0.040795 49
-1.19843 -2.2324 -0.30637 50
-0.744203 -2.2588 -0.204625 49
-1.19787 -2.22949 -0.484261 49
-0.740243 -2.25192 -0.370375 53
-1.20221 -2.23386 -0.669905 55
-0.736546 -2.24845 -0.537382 55
-3.03266 -5.62817 1.46559 15
-1.83582 -5.64095 1.57803 15
-3.03067 -5.6268 1.00444 15
-1.84349 -5.62792 1.14335 17
-1.19763 -2.22623 0.218107 4
-1.85216 -5.63125 0.722571 23
-1.19919 -2.22726 0.0435437 50
-0.749908 -2.26554 0.123251 50
-1.20405 -2.23534 -0.131669 49
-0.747682 -2.25614 -0.0408823 50
-1.20351 -2.23249 -0.306674 49
-0.749701 -2.26223 -0.20506 52
-1.20409 -2.23171 -0.485213 50
-0.744172 -2.25063 -0.370375 53
-1.21109 -2.24004 -0.672491 55
-0.740469 -2.24716 -0.537382 49
-3.06657 -5.6181 1.46727 33
-1.86253 -5.61947 1.5748 15
-3.06343 -5.61466 1.00522 38
-1.86983 -5.60887 1.14144 15
-1.87788 -5.60702 0.720745 21
-1.21323 -2.22534 0.043631 50
-0.758192 -2.24961 0.122597 42
-1.21933 -2.23558 -0.132063 49
-0.761467 -2.2568 -0.0409695 52
-1.21676 -2.22812 -0.306978 49
-0.761536 -2.25827 -0.20506 52
-1.22086 -2.23378 -0.487118 49
-0.758294 -2.25373 -0.37155 61
-1.22397 -2.23579 -0.673138 55
-0.754157 -2.24774 -0.538505 49
-3.07656 -5.61541 1.46783 36
-1.86928 -5.60705 1.57222 15
-3.07581 -5.61634 1.00639 39
-1.81814 -5.42173 1.10379 1
-1.88037 -5.58524 0.718311 20
-1.22192 -2.23199 0.0438055 50
-0.764113 -2.25552 0.122989 47
-1.22323 -2.23345 -0.132063 47
-0.763808 -2.25073 -0.0408823 49
-1.22264 -2.23056 -0.307587 49
-0.766271 -2.2593 -0.205277 53
-1.22594 -2.23379 -0.487594 49
-0.76144 -2.25006 -0.371158 50
-1.22903 -2.23577 -0.673784 55
-0.757687 -2.24656 -0.538505 49
-3.10474 -5.59709 1.46727 23
-1.84736 -5.4488 1.53021 1
-3.09559 -5.58288 1.00327 21
-1.90244 -5.57975 1.13811 15
-1.90237 -5.55419 0.715573 21
-1.23198 -2.22359 0.0437619 50
-0.776721 -2.25385 0.12312 47
-1.23694 -2.2316 -0.132326 45
-0.779242 -2.25866 -0.0411004 50
-1.23792 -2.23063 -0.3085 47
-0.778504 -2.25775 -0.205495 49
-1.23842 -2.22971 -0.48807 49
-0.774009 -2.24838 -0.37155 50
-1.24268 -2.23374 -0.675078 55
-0.771011 -2.24717 -0.539628 47
-3.12775 -5.61775 1.47401 33
-1.90197 -5.57819 1.56769 14
-3.12336 -5.60983 1.00912 35
-1.85103 -5.39762 1.10141 1
-1.8403 -5.342 0.688496 1
-1.2383 -2.2258 0.0438492 50
-0.782279 -2.25721 0.123382 47
-1.24205 -2.23161 -0.132457 45
-0.783183 -2.25729 -0.0411004 49
-1.24181 -2.22847 -0.3085 49
-0.782443 -2.25639 -0.205495 50
-1.24111 -2.2254 -0.487594 49
-0.779539 -2.25169 -0.372333 50
-1.24776 -2.23367 -0.675724 55
-0.775722 -2.24812 -0.540189 49
-3.16289 -5.60923 1.47626 33
-1.92641 -5.55446 1.56382 14
-3.15875 -5.60415 1.01107 33
-1.88168 -5.39481 1.10284 1
-1.88298 -5.37445 0.693972 1
-1.25362 -2.22582 0.0439801 49
-0.794087 -2.25308 0.123382 47
-1.25739 -2.2316 -0.132851 47
-0.794992 -2.25316 -0.0411004 50
-1.25835 -2.23058 -0.309717 49
-0.79507 -2.25461 -0.205712 52
-1.25758 -2.22741 -0.489498 49
-0.790502 -2.24525 -0.371941 50
-1.26182 -2.23131 -0.677018 55
-0.78668 -2.24173 -0.539628 49
-3.1777 -5.61485 1.47906 33
-1.93927 -5.56021 1.5664 14
-3.17461 -5.60937 1.01302 35
-1.95673 -5.57915 1.14144 15
-1.97462 -5.60527 0.724396 18
-1.2612 -2.23015 0.044111 49
-0.799677 -2.2564 0.123644 47
-1.26375 -2.23375 -0.133113 45
-0.799754 -2.25413 -0.041144 50
-1.26591 -2.23485 -0.310629 49
-0.80066 -2.25792 -0.206147 59
-1.26389 -2.22949 -0.490451 49
-0.795239 -2.2462 -0.372333 50
-1.2669 -2.2312 -0.677664 55
-0.79301 -2.24725 -0.541312 49
-3.21507 -5.60758 1.48187 33
-1.98061 -5.58151 1.57545 14
-3.21228 -5.60497 1.01536 33
-2.00088 -5.60779 1.14955 15
-1.27449 -2.22546 0.0441546 49
-0.811874 -2.25204 0.123644 47
-1.27457 -2.22471 -0.132982 45
-0.812782 -2.25212 -0.0411877 50
-1.27675 -2.22582 -0.310325 49
-0.812024 -2.25121 -0.20593 88
-1.27838 -2.22687 -0.491403 49
-0.808652 -2.24665 -0.373116 52
-1.28136 -2.2285 -0.678957 55
-0.805157 -2.24293 -0.541312 49
-3.22752 -5.60886 1.48356 33
-1.99926 -5.60307 1.58256 14
-3.22478 -5.60634 1.01653 33
-2.02554 -5.64588 1.15812 20
-2.03551 -5.65207 0.732306 26
-1.28211 -2.22974 0.0442855 49
-0.817101 -2.25546 0.123905 47
-1.28219 -2.22898 -0.133376 47
-0.817559 -2.25305 -0.0412313 49
-1.28148 -2.22596 -0.310629 49
-0.818485 -2.25682 -0.206582 49
-1.28594 -2.23101 -0.492832 49
-0.813408 -2.24756 -0.373507 52
-1.28767 -2.23044 -0.680251 55
-0.810323 -2.24625 -0.542435 50
-3.26543 -5.60662 1.48749 36
-2.04319 -5.63603 1.59483 15
-3.2603 -5.60004 1.01849 35
-2.0608 -5.65401 1.16194 24
-1.97741 -5.40125 0.70097 1
-1.29464 -2.22538 0.0443291 49
-0.8289 -2.25116 0.123905 47
-1.29762 -2.2287 -0.13377 47
-0.828953 -2.24888 -0.0412313 49
-1.29812 -2.22779 -0.311846 49
-0.830291 -2.2525 -0.206582 52
-1.29846 -2.22659 -0.493308 47
-0.826013 -2.24559 -0.373899 50
-1.30138 -2.22807 -0.681544 55
-0.822073 -2.24197 -0.542435 50
-3.27398 -5.59881 1.48692 29
-2.05798 -5.64608 1.59871 17
-3.26758 -5.59008 1.0177 15
-2.06913 -5.64313 1.16051 21
-1.98427 -5.3908 0.700057 1
-1.30143 -2.2272 0.0444164 49
-0.831966 -2.24736 0.123775 41
-1.3015 -2.22643 -0.13377 47
-0.83374 -2.24978 -0.0412749 49
-1.30452 -2.22981 -0.312455 49
-0.834221 -2.25105 -0.206582 49
-1.30482 -2.22856 -0.49426 47
-0.830782 -2.24646 -0.37429 49
-1.3081 -2.22973 -0.682837 53
-0.825985 -2.24054 -0.542435 49
-3.29305 -5.56215 1.48187 4
-2.08682 -5.63033 1.59742 15
-3.27765 -5.53832 1.01146 1
-2.09351 -5.61841 1.15765 20
-2.0082 -5.36604 0.698231 1
-1.31435 -2.22251 0.04446 49
-0.846737 -2.24984 0.124167 47
-1.31823 -2.22818 -0.134295 47
-0.845024 -2.24289 -0.0412313 49
-1.31529 -2.22058 -0.312151 49
-0.848615 -2.25365 -0.207234 59
-1.32187 -2.22991 -0.496165 47
-0.844261 -2.24671 -0.375073 49
-1.31976 -2.22285 -0.682837 53
-0.840646 -2.24288 -0.54412 49
-3.30552 -5.56325 1.48356 2
-2.0916 -5.6131 1.59354 15
-3.23336 -5.44401 0.995072 1
-2.09301 -5.58716 1.15193 17
-2.01227 -5.35126 0.69671 1
-1.3195 -2.22236 0.0445036 49
-0.851148 -2.25085 0.124298 47
-1.32467 -2.23017 -0.134558 47
-0.850699 -2.24609 -0.0413186 47
-1.32132 -2.22278 -0.312759 47
-0.853424 -2.25449 -0.207452 56
-1.3245 -2.22549 -0.495689 47
-0.849917 -2.24985 -0.375856 47
-1.32859 -2.22884 -0.685424 53
-0.845876 -2.24612 -0.545243 50
-3.32204 -5.52499 1.47794 3
-2.11401 -5.58662 1.58902 15
-3.28091 -5.45875 1.00093 3
-2.11778 -5.56732 1.15002 17
-2.11625 -5.54006 0.722875 21
-1.3346 -2.22208 0.0446345 47
-0.863813 -2.24869 0.124429 47
-1.33633 -2.2232 -0.134558 47
-0.863841 -2.24643 -0.0414058 47
-1.33678 -2.22221 -0.313672 47
-0.863438 -2.24534 -0.207017 49
-1.33955 -2.22506 -0.497117 47
-0.862566 -2.24768 -0.376248 49
-1.34235 -2.22622 -0.686717 52
-0.860223 -2.24849 -0.546928 49
-3.32287 -5.50459 1.47401 12
-2.11776 -5.56712 1.58449 14
-3.26618 -5.41285 0.993511 2
-2.12146 -5.5449 1.14621 15
-2.12148 -5.52478 0.721354 23
-1.34145 -2.22379 0.0447218 47
-0.867736 -2.24718 0.124429 45
-1.34537 -2.22941 -0.135083 47
-0.868657 -2.24725 -0.0414495 47
-1.34451 -2.22624 -0.314584 47
-0.869142 -2.24848 -0.207452 47
-1.34598 -2.22692 -0.498069 47
-0.867371 -2.24848 -0.376639 47
-1.35037 -2.22983 -0.688657 52
-0.863276 -2.24471 -0.546366 50
-3.331 -5.4512 1.46446 12
-2.14177 -5.53981 1.57997 14
-3.4023 -5.56998 1.0259 9
-2.14337 -5.51541 1.1424 15
-2.15674 -5.52709 0.723179 18
-1.35698 -2.22314 0.0448527 47
-0.881696 -2.24711 0.12469 45
-1.35963 -2.2266 -0.135345 47
-0.879894 -2.24019 -0.0414058 47
-1.35653 -2.21893 -0.314584 47
-0.881809 -2.24622 -0.207669 47
-1.35929 -2.2217 -0.498546 47
-0.880421 -2.24605 -0.377031 49
-1.36203 -2.22273 -0.688657 53
-0.87629 -2.24228 -0.546928 49
-3.3179 -5.41066 1.45492 12
-2.14881 -5.5293 1.57803 14
-3.38619 -5.52194 1.0181 12
-2.17794 -5.57569 1.15574 15
-3.40754 -5.5589 0.567384 11
-2.20979 -5.63424 0.737783 23
-1.36478 -2.22716 0.0449836 47
-0.886528 -2.24789 0.124821 45
-1.36482 -2.22635 -0.135476 47
-0.887456 -2.24796 -0.0415804 49
-1.3643 -2.2229 -0.315497 47
-0.888456 -2.25163 -0.208322 50
-1.36573 -2.2235 -0.499498 47
-0.88524 -2.24681 -0.377422 49
-1.36971 -2.22652 -0.690597 53
-0.881089 -2.24302 -0.547489 47
-3.33042 -5.36572 1.44762 12
-2.18216 -5.52921 1.58126 14
-3.40594 -5.48945 1.01536 12
-2.23871 -5.64408 1.17242 23
-3.41165 -5.50078 0.563244 12
-2.23743 -5.61798 0.737174 30
-1.37643 -2.21998 0.0449836 47
-0.898286 -2.24321 0.124821 45
-1.37909 -2.22342 -0.135739 47
-0.900139 -2.2456 -0.041624 49
-1.37854 -2.21994 -0.316106 47
-0.901155 -2.24926 -0.208539 50
-1.38384 -2.22674 -0.501879 47
-0.898817 -2.24673 -0.378206 49
-1.38262 -2.22137 -0.691243 53
-0.892821 -2.23837 -0.547489 47
-3.31823 -5.3274 1.43863 12
-2.23179 -5.62645 1.61034 15
-3.41943 -5.48978 1.01653 14
-2.2413 -5.62192 1.16861 20
-3.34619 -5.37432 0.550824 1
-2.23986 -5.59563 0.73474 27
-1.38426 -2.22394 0.0451145 47
-0.904055 -2.24628 0.125083 45
-1.38826 -2.22948 -0.136264 47
-0.904057 -2.24403 -0.041624 47
-1.38373 -2.21964 -0.31641 47
-0.90508 -2.24769 -0.208539 47
-1.38772 -2.22432 -0.501879 45
-0.902737 -2.24516 -0.378206 50
-1.38906 -2.22304 -0.692537 53
-0.899432 -2.2436 -0.549174 49
-3.32491 -5.27434 1.42909 12
-2.25852 -5.60796 1.6084 15
-3.46525 -5.49896 1.02161 12
-2.26244 -5.58963 1.16432 20
-3.43404 -5.45154 0.560629 12
-2.26167 -5.56543 0.732306 26
-1.39989 -2.223 0.0452454 45
-0.916743 -2.24383 0.125214 45
-1.40257 -2.2264 -0.136527 47
-0.918619 -2.24621 -0.0417549 47
-1.39931 -2.21866 -0.317323 45
-0.916836 -2.24292 -0.208539 47
-1.40197 -2.22118 -0.502831 45
-0.916874 -2.24743 -0.37938 47
-1.40326 -2.21982 -0.69383 53
-0.912081 -2.24112 -0.549735 47
-3.31235 -5.23618 1.4201 12
-2.25836 -5.57938 1.60129 15
-3.50161 -5.53733 1.0298 12
-2.26665 -5.57203 1.16146 18
-3.51412 -5.55709 0.572177 12
-2.26761 -5.55497 0.731394 29
-1.40778 -2.22689 0.0453763 47
-0.92121 -2.2447 0.125345 45
-1.40913 -2.22817 -0.136789 47
-0.921592 -2.24229 -0.0417112 47
-1.40412 -2.21855 -0.317627 47
-0.922633 -2.24592 -0.208974 49
-1.40585 -2.21873 -0.502831 47
-0.921727 -2.24811 -0.379772 47
-1.41361 -2.22756 -0.697063 53
-0.918352 -2.24645 -0.55142 52
-3.32264 -5.19209 1.4128 12
-2.28291 -5.55894 1.59871 15
-3.54253 -5.53764 1.03331 12
-2.29202 -5.55367 1.16003 18
-3.53952 -5.53503 0.571742 11
-2.29287 -5.53385 0.730177 29
-1.41903 -2.21974 0.0453763 47
-0.934861 -2.24445 0.125606 44
-1.42212 -2.22286 -0.13692 45
-0.935802 -2.24452 -0.0418421 47
-1.41973 -2.21744 -0.31854 49
-0.936288 -2.24566 -0.209409 49
-1.42104 -2.21778 -0.50426 45
-0.933485 -2.24325 -0.379772 49
-1.42617 -2.22241 -0.69771 52
-0.931031 -2.24387 -0.551981 52
-3.30799 -5.1494 1.4027 12
-2.28893 -5.54601 1.59613 15
-3.54418 -5.51898 1.03097 9
-2.29893 -5.54019 1.15812 18
-3.54244 -5.51837 0.570652 11
-2.29967 -5.52297 0.729264 30
-1.42599 -2.22122 0.0454635 47
-0.939737 -2.24512 0.125737 45
-1.426 -2.22038 -0.13692 47
-0.940679 -2.24519 -0.0418858 45
-1.42629 -2.21913 -0.319148 45
-0.941164 -2.24632 -0.209626 47
-1.42756 -2.21942 -0.505212 45
-0.938347 -2.2439 -0.380163 49
-1.43698 -2.22981 -0.700943 52
-0.934946 -2.24224 -0.551981 47
-3.31322 -5.09671 1.39315 12
-2.31517 -5.52464 1.59354 15
-3.57803 -5.50594 1.03214 9
-2.3203 -5.50998 1.15431 15
-3.57089 -5.49703 0.570434 11
-2.32855 -5.50816 0.72896 23
-1.44169 -2.22001 0.0455944 49
-0.952842 -2.24231 0.125868 47
-1.44305 -2.22125 -0.137446 47
-0.953787 -2.24237 -0.0419294 47
-1.44369 -2.2197 -0.320365 47
-0.954852 -2.24595 -0.210061 49
-1.44357 -2.21783 -0.50664 44
-0.951043 -2.24123 -0.380555 49
-1.4526 -2.22833 -0.702883 52
-0.948954 -2.24164 -0.553104 49
-3.30125 -5.0609 1.38473 11
-2.32201 -5.51391 1.5916 14
-3.57993 -5.48997 1.03019 9
-2.36237 -5.58279 1.17052 14
-3.58048 -5.49079 0.570434 11
-2.38366 -5.61417 0.743563 26
-1.44556 -2.21749 0.0455944 47
-0.956363 -2.24081 0.125868 47
-1.44966 -2.22291 -0.137708 47
-0.959655 -2.24531 -0.0420167 45
-1.44853 -2.21951 -0.320669 45
-0.959745 -2.24658 -0.210279 47
-1.45147 -2.22147 -0.508069 45
-0.956881 -2.24412 -0.381338 47
-1.45516 -2.22377 -0.702236 52
-0.954372 -2.24463 -0.554227 50
-3.31697 -5.02728 1.38023 9
-2.37829 -5.56874 1.61099 12
-3.60046 -5.45878 1.02785 8
-2.40895 -5.61363 1.17957 18
-3.61234 -5.47884 0.571088 8
-2.41499 -5.60617 0.744172 29
-1.4609 -2.2164 0.0457253 47
-0.971045 -2.24265 0.12626 45
-1.4654 -2.22154 -0.138102 45
-0.972986 -2.24501 -0.0421039 45
-1.4656 -2.22017 -0.321886 47
-0.97248 -2.24381 -0.210496 49
-1.46675 -2.22024 -0.509497 45
-0.971546 -2.24588 -0.382512 47
-1.47307 -2.22644 -0.705469 52
-0.966111 -2.2396 -0.554227 50
-3.31363 -5.0032 1.37518 4
-2.41082 -5.61786 1.6265 14
-3.68771 -5.56984 1.05009 9
-2.42554 -5.62252 1.18243 21
-3.69202 -5.57843 0.5822 11
-2.4228 -5.59739 0.743563 26
-1.46653 -2.21568 0.0457689 45
-0.97595 -2.24324 0.126391 47
-1.47204 -2.22314 -0.138365 45
-0.977897 -2.2456 -0.0421476 45
-1.47085 -2.21968 -0.32219 45
-0.977385 -2.24439 -0.210714 47
-1.46927 -2.21563 -0.509021 44
-0.974485 -2.24191 -0.382121 49
-1.47734 -2.22361 -0.705469 52
-0.972912 -2.24462 -0.555912 50
-2.4431 -5.60916 1.62779 15
-3.72467 -5.56006 1.05204 9
-2.44709 -5.59175 1.17862 17
-3.72492 -5.56251 0.582636 11
-2.44707 -5.57056 0.741738 26
-1.4809 -2.21212 0.0458562 45
-0.989076 -2.24021 0.126522 47
-1.48783 -2.22162 -0.138758 45
-0.991038 -2.24257 -0.0421912 45
-1.4856 -2.21581 -0.322799 45
-0.991127 -2.2438 -0.211148 49
-1.48534 -2.21376 -0.51045 45
-0.989185 -2.24356 -0.383295 47
-1.49166 -2.21985 -0.706762 52
-0.986019 -2.24156 -0.556474 50
-2.45289 -5.60489 1.62779 14
-3.721 -5.53576 1.04853 9
-2.45586 -5.58522 1.17814 17
-3.71655 -5.52913 0.579804 11
-2.45282 -5.5599 0.740825 23
-1.48754 -2.21368 0.0459435 45
-0.993601 -2.24094 0.126653 45
-1.49588 -2.22524 -0.139152 45
-0.994951 -2.24083 -0.0421912 45
-1.49324 -2.21965 -0.323712 45
-0.995042 -2.24207 -0.211148 47
-1.49606 -2.22134 -0.512831 45
-0.994095 -2.24409 -0.383687 47
-1.49958 -2.22325 -0.708702 50
-0.990519 -2.24224 -0.557035 50
-2.47341 -5.57474 1.62262 14
-3.7541 -5.52233 1.0497 8
-2.47712 -5.55702 1.1748 15
-3.74449 -5.51025 0.579804 11
-2.47279 -5.52659 0.738087 23
-1.50435 -2.21439 0.046118 47
-1.00736 -2.24027 0.126915 45
-1.50713 -2.21764 -0.139152 45
-1.01037 -2.2449 -0.0423657 45
-1.50903 -2.21795 -0.324624 45
-1.01045 -2.2461 -0.212018 49
-1.51143 -2.21982 -0.514259 45
-1.00986 -2.24787 -0.385253 47
-1.5149 -2.22161 -0.710642 50
-1.00423 -2.24147 -0.558158 49
-2.47724 -5.55717 1.61874 14
-3.75955 -5.50965 1.04853 4
-2.4768 -5.53029 1.17004 15
-3.73866 -5.48108 0.577407 9
-2.4865 -5.53132 0.739304 26
-1.51103 -2.21589 0.0462052 45
-1.01434 -2.24534 0.127307 45
-1.51663 -2.22325 -0.139677 45
-1.01326 -2.24085 -0.0423221 45
-1.5143 -2.21736 -0.324929 45
-1.01539 -2.2466 -0.212236 45
-1.51531 -2.21718 -0.514259 45
-1.01378 -2.24611 -0.385253 49
-1.52151 -2.22295 -0.711935 50
-1.00814 -2.23972 -0.558158 49
-2.50233 -5.53532 1.61616 14
-3.77151 -5.4655 1.04385 8
-2.50572 -5.51724 1.17004 18
-3.76024 -5.45118 0.576317 11
-2.52262 -5.53403 0.741434 24
-1.52688 -2.21412 0.0463361 45
-1.02608 -2.23999 0.127307 45
-1.52967 -2.21733 -0.139809 45
-1.02705 -2.24006 -0.0424093 45
-1.52871 -2.21349 -0.325537 45
-1.02714 -2.24126 -0.212236 47
-1.53248 -2.21729 -0.516164 45
-1.02758 -2.24526 -0.386036 47
-1.53725 -2.22091 -0.713875 50
-1.02287 -2.24106 -0.559843 50
-2.508 -5.52214 1.61357 14
-3.80918 -5.4995 1.05165 8
-2.53569 -5.55753 1.17957 15
-3.81371 -5.50807 0.583072 8
-2.57662 -5.62667 0.754516 30
-1.53359 -2.21556 0.0464234 45
-1.03207 -2.24274 0.127569 45
-1.53638 -2.21876 -0.140071 45
-1.03304 -2.24281 -0.0424966 47
-1.5354 -2.21489 -0.326146 42
-1.03623 -2.25078 -0.213323 49
-1.53775 -2.21663 -0.51664 45
-1.03252 -2.24571 -0.386427 47
-1.54388 -2.22219 -0.715168 50
-1.02678 -2.23927 -0.559843 49
-2.54192 -5.51991 1.6168 14
-3.87051 -5.526 1.06063 9
-2.58944 -5.59765 1.19101 18
-3.88107 -5.5431 0.588955 11
-2.605 -5.61085 0.754212 27
-1.54803 -2.21159 0.0465107 44
-1.04485 -2.23957 0.1277 45
-1.55084 -2.21478 -0.140334 45
-1.04582 -2.23964 -0.0425402 45
-1.048 -2.24532 -0.213323 49
-1.55215 -2.21256 -0.517592 45
-1.0453 -2.24252 -0.386819 45
-1.55967 -2.22 -0.717108 50
-1.03952 -2.23608 -0.560404 50
-2.56977 -5.55493 1.62844 14
-3.89862 -5.54549 1.0657 9
-2.61263 -5.62207 1.1972 18
-3.88645 -5.53021 0.588301 11
-2.59908 -5.57255 0.749648 18
-1.55621 -2.21502 0.0466416 47
-1.04981 -2.24001 0.127831 44
-1.55614 -2.21411 -0.140465 44
-1.05185 -2.24234 -0.0426275 45
-1.05087 -2.24124 -0.213106 47
-1.56167 -2.21787 -0.519497 47
-1.0513 -2.24516 -0.387602 47
-1.56493 -2.21924 -0.717755 50
-1.04444 -2.23647 -0.560966 49
-3.35623 -4.71988 1.32689 3
-2.62646 -5.60046 1.64588 14
-3.9276 -5.525 1.0657 8
-2.62845 -5.57944 1.19101 15
-3.90669 -5.49761 0.586994 11
-2.61023 -5.52071 0.744476 15
-1.56923 -2.20888 0.0466852 44
-1.06366 -2.23899 0.128092 44
-1.06464 -2.23906 -0.0426711 45
-1.06617 -2.24227 -0.213758 47
-1.57611 -2.21366 -0.520449 45
-1.0641 -2.24186 -0.387993 47
-1.58074 -2.21692 -0.719695 50
-1.05822 -2.23538 -0.562089 50
-3.3942 -4.75565 1.33868 4
-2.62802 -5.57838 1.64071 14
-3.92433 -5.50005 1.06219 8
-2.62343 -5.5411 1.18386 14
-3.91049 -5.48267 0.586122 9
-2.61667 -5.50942 0.743563 20
-1.06971 -2.24164 0.128354 45
-1.07069 -2.24171 -0.0427584 47
-1.07115 -2.24266 -0.213975 45
-1.58283 -2.2149 -0.521402 45
-1.06801 -2.24 -0.387993 47
-1.58781 -2.2178 -0.720988 50
-1.06212 -2.23353 -0.562089 49
-3.44983 -4.77868 1.35047 9
-2.64257 -5.53138 1.63102 14
-3.94246 -5.46272 1.05907 4
-2.64499 -5.51179 1.18052 15
-3.92552 -5.44124 0.583943 9
-2.64751 -5.49742 0.743867 23
-1.0829 -2.23807 0.128485 44
-1.08498 -2.24039 -0.0428457 47
-1.08504 -2.2415 -0.21441 44
-1.08293 -2.24105 -0.389168 47
-1.60223 -2.21337 -0.722281 50
-1.07735 -2.23434 -0.563773 49
-3.48878 -4.81666 1.36283 11
-2.65952 -5.54201 1.63554 14
-2.65141 -5.50053 1.17909 15
-2.65399 -5.48879 0.743259 23
-1.0875 -2.23862 0.128616 44
-1.08997 -2.24074 -0.0428893 47
-1.09004 -2.24185 -0.214628 47
-1.08899 -2.24361 -0.389951 49
-1.60893 -2.21448 -0.723575 49
-1.08297 -2.23703 -0.564896 49
-3.36421 -4.59395 1.30443 2
-2.67594 -5.50457 1.62844 14
-2.6846 -5.49807 1.18148 17
-2.69359 -5.49711 0.746301 27
-1.10031 -2.23513 0.128746 44
-1.1013 -2.2352 -0.0428893 45
-1.10505 -2.24282 -0.21528 47
-1.10289 -2.24231 -0.390734 47
-1.62298 -2.2102 -0.724868 50
-1.09467 -2.23133 -0.564896 49
-3.33759 -4.54097 1.29095 2
-2.68766 -5.50424 1.62973 14
-2.7027 -5.50834 1.18481 20
-2.69881 -5.48349 0.745084 24
-1.10751 -2.23993 0.129139 44
-1.16169 -1.58147 -0.101345 12
-1.10741 -2.23776 -0.0429765 45
-1.11006 -2.24312 -0.215498 49
-1.10789 -2.2426 -0.391126 49
-1.63296 -2.21485 -0.727454 49
-1.09963 -2.2316 -0.565458 49
-3.31122 -4.45443 1.2713 3
-2.72168 -5.49828 1.63231 14
-2.73696 -5.5051 1.1872 18
-3.27466 -4.40844 0.477396 4
-2.74503 -5.50213 0.749648 21
-1.2218 -1.64568 0.0351666 12
-1.12296 -2.24061 0.129531 44
-1.1625 -1.56535 -0.100688 14
-1.12508 -2.24292 -0.0431947 47
-1.12624 -2.24619 -0.216367 49
-1.12182 -2.24119 -0.391909 47
-1.64598 -2.2082 -0.728101 49
-1.11711 -2.23653 -0.568266 49
-3.32259 -4.45508 1.27298 3
-2.74201 -5.51515 1.63877 15
-2.75642 -5.52009 1.19149 18
-3.28533 -4.40671 0.477831 3
-2.77364 -5.53776 0.755124 21
-1.21421 -1.62952 0.0348612 11
-1.1276 -2.24107 0.129662 44
-1.12788 -2.23871 -0.0431511 47
-1.13016 -2.24422 -0.216367 49
-1.12684 -2.24143 -0.3923 49
-1.65417 -2.21113 -0.730041 49
-1.11845 -2.23041 -0.567143 49
-2.77639 -5.51415 1.64265 14
-2.80091 -5.53893 1.19863 15
-2.84856 -5.61392 0.767598 35
-1.1427 -2.24182 0.130055 44
-1.14372 -2.24189 -0.0433256 47
-1.17143 -1.55347 -0.234265 4
-1.14753 -2.24938 -0.217455 49
-1.13967 -2.2377 -0.392692 49
-1.6668 -2.20465 -0.730688 49
-1.13451 -2.23322 -0.569389 47
-2.81539 -5.56751 1.6601 14
-2.85371 -5.61671 1.21674 21
-2.8516 -5.59567 0.765773 27
-1.14548 -2.2376 0.129924 44
-1.1716 -1.54918 -0.100295 15
-1.14536 -2.23544 -0.0432383 44
-1.17714 -1.55538 -0.234873 4
-1.15033 -2.24515 -0.217237 49
-1.14358 -2.23571 -0.392692 47
-1.1384 -2.23124 -0.569389 47
-2.87407 -5.6081 1.6769 15
-2.87187 -5.57987 1.21198 17
-2.87274 -5.56252 0.763339 24
-1.23098 -1.61059 0.0347739 11
-1.1633 -2.24246 0.130578 44
-1.17514 -1.53708 -0.0999007 15
-1.16318 -2.24031 -0.0434565 45
-1.17799 -1.53914 -0.233352 14
-1.16321 -2.24131 -0.217455 45
-1.15866 -2.23628 -0.393866 47
-1.1538 -2.23154 -0.571073 49
-2.85075 -5.53863 1.65751 14
-2.8726 -5.5574 1.20817 17
-2.86551 -5.52714 0.759079 21
-1.24141 -1.61835 0.0349921 11
-1.16567 -2.23841 0.130447 44
-1.18391 -1.54294 -0.100426 15
-1.16708 -2.23828 -0.0434565 44
-1.18041 -1.53729 -0.233352 23
-1.16941 -2.2437 -0.21789 47
-1.1625 -1.51237 -0.363315 17
-1.16256 -2.23425 -0.393866 47
-1.15619 -2.22756 -0.570512 47
-2.88877 -5.54341 1.66333 14
-2.8882 -5.51886 1.20292 15
-2.8852 -5.49448 0.756646 21
-1.25418 -1.61797 0.035123 11
-1.17737 -2.23228 0.130447 44
-1.1917 -1.53693 -0.100426 14
-1.18072 -2.23677 -0.0435437 44
-1.18387 -1.52521 -0.23244 15
-1.18191 -2.23996 -0.218107 45
-1.16562 -1.50066 -0.361886 17
-1.17539 -2.23032 -0.394258 45
-1.17123 -2.22796 -0.572196 47
-2.88391 -5.51053 1.65493 14
-2.89098 -5.50077 1.20006 15
-2.9179 -5.53335 0.76273 23
-1.257 -1.61578 0.035123 11
-1.18476 -2.23684 0.13084 44
-1.20205 -1.54469 -0.101082 14
-1.18696 -2.23913 -0.043631 44
-1.18501 -1.52119 -0.232135 15
-1.18698 -2.24009 -0.218324 45
-1.16069 -1.48895 -0.359505 18
-1.18274 -2.23482 -0.395432 45
-1.17624 -2.22806 -0.572758 47
-2.92401 -5.5167 1.66139 14
-3.03143 -5.69579 1.24629 14
-1.73046 -2.20048 0.241857 11
-3.03204 -5.67785 0.78494 15
-1.27472 -1.62096 0.0353848 11
-1.19881 -2.23501 0.131102 44
-1.21322 -1.5423 -0.101345 14
-1.19867 -2.23288 -0.043631 44
-1.19295 -1.51496 -0.232135 14
-1.20104 -2.23824 -0.218759 47
-1.15934 -1.47129 -0.356648 18
-1.19559 -2.23077 -0.395824 45
-1.19018 -2.22618 -0.573881 45
-3.04128 -5.7142 1.72278 20
-3.03097 -5.671 1.242 15
-1.73276 -2.1955 0.241639 11
-3.01852 -5.6288 0.778855 17
-1.2791 -1.6207 0.0354284 11
-1.20625 -2.23952 0.131494 44
-1.21745 -1.54214 -0.101476 14
-1.20374 -2.23299 -0.0436746 44
-1.19868 -1.51677 -0.232744 14
-1.20495 -2.23614 -0.218759 45
-1.15886 -1.46542 -0.355696 17
-1.20181 -2.23304 -0.396607 44
-1.19292 -2.22195 -0.573319 44
-3.04484 -5.64928 1.70792 14
-3.04429 -5.62482 1.23533 17
-3.04677 -5.61073 0.778551 35
-1.29537 -1.62374 0.0356465 11
-1.21796 -2.23317 0.131494 44
-1.2289 -1.53943 -0.101739 14
-1.21781 -2.23105 -0.0437619 44
-1.2128 -1.51822 -0.233961 14
-1.21822 -2.23178 -0.218977 44
-1.15425 -1.444 -0.351887 15
-1.21584 -2.23105 -0.39739 45
-1.20917 -2.22424 -0.575566 45
-3.04436 -5.62484 1.7021 23
-3.05626 -5.62112 1.23581 33
-3.0613 -5.61412 0.779768 35
-1.29692 -1.6193 0.0356029 11
-1.22305 -2.23323 0.131625 44
-1.23471 -1.54118 -0.102001 14
-1.22409 -2.23331 -0.0438492 44
-1.2139 -1.51417 -0.233657 14
-1.2245 -2.23402 -0.219412 44
-1.15062 -1.43434 -0.349982 17
-1.22091 -2.2311 -0.397781 44
-1.21771 -2.23069 -0.577812 45
-3.08055 -5.61888 1.70533 32
-3.09392 -5.6201 1.23914 36
-3.09403 -5.60182 0.780376 21
-1.3101 -1.61831 0.0357338 12
-1.23753 -2.23096 0.131887 44
-1.25534 -1.5502 -0.103051 14
-1.23616 -2.22665 -0.0438492 44
-1.2252 -1.51143 -0.234265 14
-1.23858 -2.23194 -0.219847 44
-1.15681 -1.42618 -0.349506 15
-1.23535 -2.22878 -0.398564 44
-1.23093 -2.2262 -0.578373 45
-3.09384 -5.61984 1.70727 30
-3.09898 -5.6061 1.23724 20
-3.11101 -5.60944 0.782202 33
-1.31924 -1.62378 0.0359083 12
-1.24263 -2.23098 0.132017 44
-1.26277 -1.55382 -0.103445 14
-1.24125 -2.22668 -0.0438928 44
-1.23567 -1.51891 -0.235786 14
-1.24489 -2.23413 -0.220282 44
-1.1531 -1.41655 -0.347601 15
-1.24283 -2.2331 -0.399739 44
-1.236 -2.22618 -0.578935 44
-3.12694 -5.61255 1.70986 27
-3.14287 -5.61819 1.24343 32
-3.14422 -5.60228 0.783419 33
-1.33061 -1.62094 0.0359956 12
-1.25513 -2.22683 0.132148 44
-1.27723 -1.5549 -0.10397 14
-1.25863 -2.23126 -0.044111 44
-1.23861 -1.50689 -0.234873 14
-1.25658 -2.22758 -0.220282 44
-1.15869 -1.40881 -0.347125 15
-1.25291 -2.22463 -0.399347 44
-1.24963 -2.22415 -0.580058 45
-3.1438 -5.61974 1.71373 32
-3.15725 -5.61857 1.24486 32
-3.16251 -5.61193 0.785548 32
-1.34009 -1.6261 0.0361701 12
-1.26269 -2.23117 0.132541 44
-1.2863 -1.56037 -0.104495 14
-1.26252 -2.22906 -0.044111 44
-1.24914 -1.51429 -0.236395 14
-1.26291 -2.22972 -0.220716 44
-1.15802 -1.403 -0.346173 14
-1.26285 -2.2332 -0.401305 44
-1.25708 -2.22834 -0.581742 45
-3.17415 -5.60265 1.71373 32
-3.19511 -5.6169 1.2482 33
-3.19897 -5.60551 0.78707 32
-1.35499 -1.62674 0.0363446 12
-1.27722 -2.22864 0.132802 44
-1.30085 -1.56128 -0.105021 14
-1.2758 -2.22437 -0.0441546 44
-1.26686 -1.51893 -0.23822 14
-1.27827 -2.22957 -0.221369 44
-1.16717 -1.39859 -0.346649 14
-1.27575 -2.2287 -0.401697 44
-1.84418 -2.20547 -0.760432 11
-1.27033 -2.22362 -0.582304 44
-4.55431 -5.4433 1.62787 11
-3.19228 -5.6118 1.71826 32
-4.56132 -5.45359 1.11799 11
-3.2122 -5.62411 1.25106 33
-3.21023 -5.60479 0.787678 33
-1.36264 -1.63012 0.0364755 12
-1.2832 -2.23096 0.133064 44
-1.30518 -1.56092 -0.105152 14
-1.28466 -2.23081 -0.0443291 44
-1.27562 -1.52455 -0.239437 14
-1.2834 -2.22949 -0.221586 44
-1.16488 -1.39091 -0.34522 14
-1.28331 -2.2329 -0.402871 44
-1.84802 -2.20225 -0.760432 11
-1.27623 -2.22585 -0.583427 45
-4.63782 -5.48447 1.64752 9
-3.22545 -5.60394 1.72084 30
-4.65997 -5.51259 1.13516 12
-3.24431 -5.61415 1.25249 33
-4.6585 -5.51279 0.628393 14
-3.24326 -5.59435 0.788591 32
-1.37571 -1.62893 0.0366064 12
-1.29486 -2.22421 0.133064 44
-1.31495 -1.55597 -0.105283 14
-1.29719 -2.22644 -0.0443727 44
-1.28519 -1.51974 -0.239741 14
-1.29755 -2.22705 -0.222021 44
-1.16556 -1.37751 -0.343316 14
-1.29622 -2.22829 -0.403263 44
-1.8654 -2.20023 -0.763019 9
-1.29275 -2.22758 -0.585673 45
-4.68995 -5.52651 1.66268 11
-3.24488 -5.61504 1.72601 29
-4.67598 -5.51198 1.13672 12
-3.25385 -5.60579 1.25201 32
-4.66973 -5.50655 0.628611 14
-3.24928 -5.58224 0.787678 24
-1.38693 -1.63581 0.0368246 12
-1.30376 -2.23058 0.133588 44
-1.33059 -1.5689 -0.106333 14
-1.30359 -2.2285 -0.04446 44
-1.29909 -1.53073 -0.241871 14
-1.30395 -2.22909 -0.222456 44
-1.1616 -1.368 -0.341411 14
-1.30135 -2.22815 -0.403654 44
-1.86492 -2.19113 -0.761079 8
-1.29541 -2.22321 -0.585111 44
-4.71661 -5.49736 1.66156 12
-3.28374 -5.612 1.73054 29
-4.70573 -5.4866 1.13672 12
-3.29185 -5.6035 1.25535 14
-4.69135 -5.47175 0.627521 12
-3.26685 -5.54319 0.784636 3
-1.40035 -1.63422 0.0369555 12
-1.31962 -2.22995 0.13398 45
-1.33878 -1.56191 -0.106333 14
-1.31689 -2.22356 -0.0445036 42
-1.3122 -1.52933 -0.242784 14
-1.31939 -2.22867 -0.223109 42
-1.16098 -1.35239 -0.33903 14
-1.31551 -2.22557 -0.404437 44
-1.88424 -2.19049 -0.764312 9
-1.31112 -2.22247 -0.586796 44
-4.71888 -5.48256 1.65931 11
-3.28498 -5.59168 1.72601 8
-4.70951 -5.47359 1.13555 12
-3.29913 -5.59351 1.2544 1
-4.70577 -5.46922 0.628175 12
-3.24275 -5.4825 0.776725 1
-1.40647 -1.63556 0.0370427 12
-1.32566 -2.23217 0.134242 45
-1.34803 -1.56714 -0.106858 14
-1.32332 -2.22556 -0.0445909 42
-1.32432 -1.53854 -0.244609 14
-1.32455 -2.2285 -0.223326 44
-1.16815 -1.35593 -0.340459 12
-1.32316 -2.22964 -0.405612 44
-1.88964 -2.18902 -0.764959 9
-1.31585 -2.22251 -0.587358 44
-4.75232 -5.46329 1.661 11
-3.29106 -5.53759 1.71438 1
-4.74945 -5.4619 1.13828 11
-3.33368 -5.58729 1.25678 1
-4.72849 -5.43969 0.627521 12
-3.24978 -5.42923 0.771553 1
-1.42293 -1.63785 0.0372609 12
-1.33861 -2.22734 0.134373 44
-1.35785 -1.56194 -0.10699 15
-1.33842 -2.22527 -0.0447218 42
-1.33562 -1.53533 -0.245218 14
-1.33876 -2.22581 -0.223761 44
-1.16855 -1.3426 -0.338554 14
-1.33608 -2.2248 -0.406003 44
-1.89435 -2.17215 -0.762372 11
-1.33246 -2.22396 -0.589604 44
-4.76505 -5.45865 1.66212 9
-3.30937 -5.54637 1.7189 3
-4.75735 -5.45174 1.13789 11
-3.35448 -5.59772 1.26059 3
-4.74616 -5.44082 0.628611 11
-3.29499 -5.48313 0.780072 3
-1.42114 -1.62947 0.03713 12
-1.34764 -2.23356 0.134896 44
-1.37043 -1.57085 -0.107777 14
-1.34488 -2.22721 -0.0448091 42
-1.34973 -1.54607 -0.247347 14
-1.34906 -2.23414 -0.224848 44
-1.16766 -1.33687 -0.337602 14
-1.34377 -2.22882 -0.407178 44
-1.90488 -2.17578 -0.764959 11
-1.33759 -2.22372 -0.590165 44
-4.79935 -5.43827 1.66381 9
-3.33559 -5.52217 1.71697 14
-4.78351 -5.42222 1.13711 9
-3.37993 -5.57379 1.25916 2
-4.79859 -5.4412 0.631661 8
-3.38515 -5.56491 0.794371 11
-1.43958 -1.63325 0.0373918 12
-1.3597 -2.22623 0.134896 42
-1.37864 -1.56365 -0.107777 14
-1.35951 -2.22418 -0.0448963 42
-1.35808 -1.53875 -0.247347 14
-1.36203 -2.22918 -0.225066 42
-1.36055 -2.23019 -0.408744 44
-1.91785 -2.16758 -0.765605 12
-1.35086 -2.21853 -0.590727 44
-4.80789 -5.43073 1.66381 4
-3.32521 -5.48329 1.70663 14
-4.81494 -5.44058 1.14258 4
-3.40877 -5.59934 1.26631 11
-4.82955 -5.45706 0.634494 8
-3.38614 -5.54687 0.792546 12
-1.44574 -1.63448 0.037479 12
-1.3684 -2.23262 0.135419 42
-1.38633 -1.56685 -0.108171 14
-1.366 -2.22607 -0.0449836 42
-1.36872 -1.5459 -0.248869 14
-1.36852 -2.23105 -0.2255 44
-1.36316 -2.22571 -0.408352 42
-1.92644 -2.16965 -0.767545 12
-1.35435 -2.21641 -0.590727 44
-4.88175 -5.45631 1.67953 3
-3.33653 -5.43961 1.69823 12
-4.92898 -5.51099 1.16287 8
-3.40879 -5.53602 1.25583 11
-4.9202 -5.50309 0.642774 9
-3.40862 -5.51851 0.791025 12
-1.45733 -1.63086 0.0375663 12
-1.37876 -2.2233 0.135288 39
-1.40284 -1.56887 -0.108827 14
-1.37856 -2.22125 -0.0450272 42
-1.38673 -1.5498 -0.250694 14
-1.37887 -2.22173 -0.225283 42
-1.37739 -2.22274 -0.409135 42
-1.94708 -2.17065 -0.771425 11
-1.36977 -2.21551 -0.592411 44
-4.97429 -5.54021 1.70817 12
-3.32451 -5.39881 1.68724 11
-4.97489 -5.5428 1.17145 11
-3.4091 -5.51275 1.25201 12
-4.97637 -5.54639 0.648874 11
-3.39996 -5.48301 0.786765 14
-1.46714 -1.6355 0.0377408 12
-1.38527 -2.22513 0.13555 41
-1.41058 -1.57199 -0.109221 14
-1.38375 -2.22096 -0.0450708 41
-1.39441 -1.55291 -0.251607 14
-1.38406 -2.22144 -0.2255 42
-1.38386 -2.22453 -0.409918 42
-1.95286 -2.1687 -0.772072 9
-1.37619 -2.21726 -0.593534 44
-5.0222 -5.53305 1.71434 12
-3.33326 -5.34793 1.6769 11
-5.01974 -5.53226 1.17497 11
-3.44312 -5.50315 1.25392 12
-5.01635 -5.53045 0.650182 11
-3.43353 -5.47084 0.787678 12
-1.474 -1.62595 0.0376972 12
-1.40127 -2.22395 0.135943 39
-1.42215 -1.56828 -0.109484 14
-1.40107 -2.22191 -0.0452454 41
-1.4028 -1.54534 -0.251607 14
-1.40229 -2.22471 -0.226588 42
-1.40074 -2.22563 -0.411485 42
-1.96419 -2.15845 -0.772072 8
-1.39204 -2.21598 -0.595219 44
-5.04237 -5.53776 1.71827 12
-3.31828 -5.30319 1.66462 11
-5.04671 -5.54445 1.17926 9
-3.50878 -5.58654 1.27441 11
-5.03941 -5.53641 0.651925 11
-3.51476 -5.58098 0.804411 12
-1.48357 -1.63076 0.0378717 12
-1.40742 -2.22597 0.136204 36
-1.42993 -1.57133 -0.109878 14
-1.40627 -2.22158 -0.045289 41
-1.40883 -2.22647 -0.227023 42
-1.40725 -2.22736 -0.412268 42
-1.97121 -2.15858 -0.773365 3
-1.39682 -2.21585 -0.59578 42
-5.08285 -5.52383 1.7222 9
-3.32702 -5.25774 1.65558 11
-5.08905 -5.53249 1.18238 9
-3.54359 -5.57907 1.2768 11
-5.0876 -5.53283 0.65454 11
-3.54127 -5.55831 0.803803 12
-1.49688 -1.62875 0.0380026 12
-1.4204 -2.22068 0.136335 33
-1.44463 -1.57142 -0.110403 14
-1.42153 -2.22075 -0.0454199 41
-1.4241 -2.22561 -0.227675 42
-1.41889 -2.21996 -0.412268 41
-1.98866 -2.15567 -0.775951 3
-1.40971 -2.21056 -0.596342 42
-5.11631 -5.54269 1.73063 9
-3.3168 -5.22133 1.64588 11
-5.11378 -5.53993 1.18589 11
-3.54014 -5.55218 1.27203 9
-5.10738 -5.53492 0.655847 11
-3.53895 -5.5333 0.801065 9
-1.5099 -1.63715 0.0382644 12
-1.42562 -2.2203 0.136466 32
-1.44906 -1.57073 -0.110534 14
-1.42945 -2.22459 -0.0455508 41
-1.42932 -2.22522 -0.227892 42
-1.42676 -2.22372 -0.413442 42
-2.00063 -2.16105 -0.779185 2
-1.42011 -2.21837 -0.59915 44
-5.16285 -5.53273 1.73624 9
-3.32583 -5.17544 1.63684 11
-5.16124 -5.53293 1.19018 11
-3.56783 -5.5315 1.27155 9
-5.15668 -5.52996 0.658462 12
-3.56518 -5.51053 0.800456 9
-1.52015 -1.63105 0.038308 12
-1.44265 -2.22119 0.136989 30
-1.45557 -1.5613 -0.110403 14
-1.44244 -2.21917 -0.0455944 41
-1.44501 -2.22398 -0.228545 42
-1.43972 -2.21829 -0.413834 42
-2.02182 -2.16112 -0.783064 2
-1.43303 -2.21295 -0.599711 44
-5.18319 -5.53706 1.74017 11
-3.31394 -5.13714 1.6265 11
-5.18946 -5.54374 1.19448 11
-3.57215 -5.51702 1.26965 9
-5.18164 -5.53731 0.660423 8
-3.56669 -5.4918 0.798631 8
-1.523 -1.6284 0.038308 12
-1.4438 -2.21448 0.136728 26
-1.45829 -1.55875 -0.110403 14
-1.45039 -2.22294 -0.0457253 41
-1.45161 -2.22563 -0.22898 42
-1.44493 -2.21785 -0.414225 42
-2.03386 -2.16639 -0.786297 2
-1.44351 -2.22067 -0.602519 44
-5.22312 -5.51955 1.74354 1
-3.32102 -5.08936 1.6168 11
-5.27952 -5.58107 1.20852 1
-3.59159 -5.48387 1.26631 9
-5.19858 -5.49744 0.658897 9
-3.59853 -5.47991 0.799543 8
-1.45949 -2.21315 0.13712 24
-1.46471 -1.54928 -0.110272 12
-1.46476 -2.21949 -0.0458126 41
-1.46597 -2.22216 -0.229415 42
-1.45885 -2.21464 -0.415008 42
-2.05349 -2.16447 -0.789531 2
-1.45073 -2.20722 -0.600834 42
-5.21836 -5.49721 1.73905 8
-3.31272 -5.05728 1.6084 11
-5.21177 -5.49217 1.19096 11
-3.60519 -5.48374 1.26774 8
-5.19007 -5.47121 0.656718 9
-3.65447 -5.54409 0.809888 8
-1.46846 -2.21919 0.137644 21
-1.471 -2.22136 -0.0458998 42
-1.47221 -2.22402 -0.22985 42
-1.17503 -1.23722 -0.324269 14
-1.46543 -2.21621 -0.415791 42
-2.05522 -2.15949 -0.788884 2
-1.4626 -2.2169 -0.604203 44
-5.22588 -5.44963 1.73231 9
-3.31875 -5.01282 1.59936 11
-5.22583 -5.45147 1.18784 9
-3.71606 -5.59285 1.29729 9
-3.71685 -5.57717 0.817494 9
-1.48106 -2.21381 0.137774 18
-1.48361 -2.21596 -0.0459435 41
-1.48759 -2.22275 -0.230502 42
-1.17957 -1.22949 -0.323793 14
-1.48073 -2.21493 -0.416966 42
-2.07115 -2.15428 -0.790824 2
-1.4765 -2.21353 -0.605326 44
-3.30747 -4.97684 1.58966 11
-3.72718 -5.5884 1.29777 9
-3.72106 -5.56242 0.816277 8
-1.4877 -2.21537 0.138036 15
-1.49164 -2.2196 -0.0460743 41
-1.49285 -2.22222 -0.230719 42
-1.18172 -1.22743 -0.323793 14
-1.48734 -2.21645 -0.417749 42
-1.48307 -2.215 -0.606449 42
-3.31416 -4.92879 1.57997 11
-3.7505 -5.55798 1.29538 9
-3.74138 -5.52782 0.814147 8
-1.49966 -2.20729 0.138036 15
-1.50643 -2.21564 -0.0461616 41
-1.50625 -2.21618 -0.230937 42
-1.18492 -1.2175 -0.32284 12
-1.50208 -2.21246 -0.418532 41
-1.49775 -2.21098 -0.607573 44
-3.30521 -4.89696 1.57157 12
-3.74783 -5.53313 1.29109 9
-3.75798 -5.53155 0.815668 8
-1.50491 -2.20673 0.138167 14
-1.5117 -2.21507 -0.0462052 42
-1.51291 -2.21766 -0.231372 41
-1.18876 -1.21719 -0.323317 12
-1.5101 -2.21596 -0.419706 41
-1.50708 -2.21643 -0.609819 44
-3.22337 -3.26842 1.05006 2
-3.31449 -4.85564 1.56382 12
-3.21443 -3.26048 0.718013 2
-3.77675 -5.51343 1.29109 8
-3.23068 -3.27808 0.399609 4
-3.75601 -5.46678 0.808975 8
-2.13358 -2.1648 0.0524445 36
-1.51786 -2.20088 0.138298 14
-1.52753 -2.21331 -0.0463361 41
-1.52733 -2.21382 -0.231807 41
-1.18994 -1.20571 -0.321888 9
-1.52727 -2.21617 -0.421272 41
-1.52141 -2.21253 -0.610942 42
-3.23364 -3.26855 1.05174 3
-3.30114 -4.81795 1.55348 12
-3.15236 -3.18642 0.702794 1
-3.77386 -5.48862 1.2868 8
-3.21012 -3.24588 0.396341 12
-3.79792 -5.50722 0.815972 8
-2.16549 -2.1895 0.0531426 39
-1.53021 -2.21056 0.139083 14
-1.53543 -2.2173 -0.232459 41
-1.19377 -1.20537 -0.322364 9
-1.53254 -2.21553 -0.421664 41
-1.52665 -2.21188 -0.611503 42
-3.24611 -3.24584 1.05006 3
-3.30709 -4.77279 1.54443 11
-3.16202 -3.16289 0.701233 1
-3.81235 -5.4829 1.29014 8
-3.23411 -3.23607 0.397212 9
-3.87066 -5.55038 0.825404 9
-2.1893 -2.1905 0.053448 39
-1.5389 -2.19842 0.138821 12
-1.54987 -2.21331 -0.232894 41
-1.19832 -1.19737 -0.321888 8
-1.54694 -2.21153 -0.422447 41
-1.541 -2.20786 -0.612626 42
-3.29751 -4.74123 1.53603 12
-3.88224 -5.56281 1.31063 9
-3.87892 -5.54159 0.8251 9
-2.19666 -2.1902 0.0535353 39
-1.55276 -2.21005 0.139737 12
-1.55659 -2.21468 -0.233329 41
-1.21086 -1.20566 -0.324745 8
-1.55504 -2.2149 -0.423622 41
-1.54903 -2.21116 -0.614311 42
-3.30564 -4.70018 1.52827 12
-3.91273 -5.54442 1.31111 9
-3.90788 -5.5212 0.8251 9
-2.21878 -2.1892 0.053797 39
-1.56287 -2.19985 0.139606 11
-1.5571 -1.53478 -0.263776 15
-1.57142 -2.21029 -0.233764 41
-1.2119 -1.19414 -0.323317 8
-1.56339 -2.207 -0.615434 42
-5.49394 -5.39709 1.76713 12
-3.29436 -4.66676 1.51923 12
-5.49364 -5.39866 1.21165 12
-3.91486 -5.52487 1.30825 8
-5.48798 -5.39497 0.670228 14
-3.91033 -5.50425 0.823578 8
-2.23012 -2.19194 0.0539716 38
-1.5696 -2.20119 0.139868 11
-1.56331 -1.53553 -0.264385 15
-1.21924 -1.19718 -0.324745 4
-1.57569 -2.21619 -0.618803 44
-5.60169 -5.44367 1.7924 11
-3.30274 -4.62527 1.51147 12
-5.606 -5.44974 1.22999 11
-3.94231 -5.5023 1.30777 8
-5.61352 -5.45894 0.681994 12
-3.92848 -5.46689 0.821144 8
-2.24515 -2.18372 0.0540588 38
-1.58294 -2.19469 0.139999 9
-1.17115 -1.62044 -0.034294 11
-1.5716 -1.52705 -0.264385 15
-1.22746 -1.19227 -0.325221 4
-1.59334 -2.21556 -0.621049 45
-5.66274 -5.48571 1.80924 12
-3.29536 -4.59789 1.50436 11
-5.65098 -5.4743 1.23779 12
-3.93043 -5.46551 1.30063 4
-5.53897 -5.36769 0.671753 1
-2.25973 -2.19023 0.0543206 38
-1.59407 -2.20205 0.140653 9
-1.16081 -1.60016 -0.0339013 12
-1.5814 -1.53121 -0.265602 15
-1.22601 -1.18672 -0.324269 8
-1.59578 -2.2108 -0.620488 41
-5.70289 -5.4651 1.81261 12
-3.30098 -4.55514 1.49596 11
-5.68848 -5.45318 1.23974 12
-5.67307 -5.4403 0.684608 14
-2.27658 -2.18356 0.0544515 38
-1.60411 -2.19166 0.140522 8
-1.17507 -1.60213 -0.0340758 12
-1.59119 -1.52462 -0.265906 15
-1.23753 -1.18537 -0.325697 4
-1.61449 -2.21226 -0.623295 44
-5.70266 -5.44772 1.8098 12
-3.29332 -4.52787 1.48886 4
-5.69799 -5.44324 1.23974 12
-5.68976 -5.43727 0.68548 14
-2.28762 -2.18648 0.054626 36
-1.61088 -2.19289 0.140784 4
-1.17491 -1.59605 -0.0339886 12
-1.59744 -1.52527 -0.266514 14
-1.23782 -1.18152 -0.325221 4
-1.61979 -2.21141 -0.623857 44
-5.73913 -5.42348 1.81205 12
-3.30412 -4.49304 1.48304 4
-5.72641 -5.41333 1.23974 12
-5.71453 -5.40398 0.685044 12
-3.29514 -4.45155 0.674805 1
-2.30812 -2.18306 0.0548442 36
-1.62976 -2.19446 0.141438 3
-1.18474 -1.59188 -0.0340322 14
-1.25113 -1.18175 -0.327126 4
-1.15631 -1.5557 -0.30186 12
-1.63713 -2.21074 -0.626103 45
-5.74055 -5.40778 1.8098 11
-3.29477 -4.46394 1.47529 1
-5.74124 -5.40841 1.24091 12
-5.72577 -5.39571 0.685262 12
-3.30291 -4.4458 0.674805 3
-2.3192 -2.18588 0.0550187 36
-1.63657 -2.19562 0.1417 3
-1.18453 -1.5858 -0.0339449 14
-1.25856 -1.18461 -0.328554 4
-1.15461 -1.54773 -0.300685 14
-2.27153 -2.13356 -0.825095 11
-1.64099 -2.20788 -0.626103 42
-5.77507 -5.38162 1.81149 9
-3.31377 -4.44081 1.47335 3
-5.76948 -5.37828 1.24091 9
-5.77034 -5.38094 0.687223 8
-2.34159 -2.18393 0.0552805 36
-1.65404 -2.195 0.142223 3
-1.19432 -1.58157 -0.0339886 14
-1.25935 -1.17299 -0.327126 8
-2.25967 -2.10028 -0.816689 8
-1.65836 -2.20706 -0.628349 44
-5.8523 -5.43451 1.83283 8
-3.28826 -4.39053 1.45848 12
-5.88019 -5.4623 1.26277 11
-5.87825 -5.46239 0.698989 11
-2.34944 -2.18284 0.0553678 36
-1.65937 -2.19411 0.142354 2
-0.714595 -0.665003 -0.0494909 30
-1.19858 -1.58148 -0.0340322 14
-1.2704 -1.17913 -0.329507 8
-2.26724 -2.09921 -0.817982 8
-1.66953 -2.2139 -0.631157 44
-5.93366 -5.45055 1.84911 9
-3.2974 -4.35341 1.45202 14
-5.92057 -5.44042 1.26511 11
-5.91139 -5.43387 0.699425 11
-2.37189 -2.18065 0.0556295 36
-1.67575 -2.19105 0.142746 2
-0.721745 -0.66463 -0.0497535 30
-1.20561 -1.57299 -0.0339886 14
-1.27314 -1.16893 -0.328554 8
-1.17643 -1.53744 -0.301468 15
-2.28176 -2.09057 -0.819275 8
-5.93323 -5.433 1.8463 9
-3.2904 -4.32841 1.44556 14
-5.92911 -5.43112 1.26511 9
-5.92821 -5.43028 0.700296 11
-2.38306 -2.18326 0.0558041 36
-0.71922 -0.659999 -0.0494909 30
-1.20835 -1.57088 -0.0339886 14
-1.27699 -1.16836 -0.329031 9
-1.17761 -1.53342 -0.301077 14
-2.28006 -2.08171 -0.817335 4
-5.9616 -5.40186 1.8463 9
-5.94649 -5.39005 1.26277 9
-5.93901 -5.38515 0.698335 11
-2.40334 -2.17956 0.0560222 36
-0.720701 -0.654674 -0.0493596 32
-1.22699 -1.57859 -0.034294 14
-2.40409 -2.17719 -0.393383 36
-1.28471 -1.16352 -0.329507 9
-1.19015 -1.5331 -0.302251 14
-2.29594 -2.07499 -0.819275 8
-5.97007 -5.39249 1.8463 8
-5.95588 -5.37966 1.26277 9
-5.94101 -5.3681 0.697464 9
-2.41457 -2.18206 0.0561967 35
-0.716283 -0.648396 -0.0489658 33
-1.22668 -1.57249 -0.0342067 14
-2.4171 -2.1813 -0.394904 36
-1.29039 -1.16457 -0.330459 11
-1.19585 -1.53492 -0.303034 14
-2.29776 -2.06937 -0.818629 4
-5.99134 -5.35499 1.26433 4
-2.43341 -2.17605 0.0563713 35
-0.717918 -0.642849 -0.0488345 32
-1.24261 -1.57588 -0.0344249 14
-2.43775 -2.17687 -0.396425 36
-1.29463 -1.15616 -0.329983 11
-1.20692 -1.53253 -0.303817 14
-2.30496 -2.0541 -0.817335 4
-2.44879 -2.18135 0.0566331 35
-0.719039 -0.641595 -0.0488345 33
-1.25 -1.5796 -0.0345558 14
-2.44896 -2.17921 -0.397642 36
-1.30399 -1.16042 -0.331888 11
-1.20501 -1.5246 -0.302643 14
-2.31251 -2.05287 -0.818629 8
-6.549 -5.7715 0.760652 3
-2.46956 -2.17676 0.0568512 35
-0.714893 -0.631222 -0.0483094 32
-1.2632 -1.57868 -0.0346867 14
-2.47003 -2.17412 -0.399163 35
-1.30656 -1.15011 -0.330935 11
-1.21785 -1.52385 -0.303817 14
-2.32868 -2.04552 -0.820569 8
-6.50163 -5.70767 1.98612 3
-6.32273 -5.55065 1.32403 1
-6.5965 -5.79293 0.76501 3
-2.48087 -2.17904 0.0570257 33
-0.719747 -0.633267 -0.048572 33
-1.27219 -1.58428 -0.0348612 14
-2.48129 -2.17635 -0.40038 36
-1.31226 -1.15106 -0.331888 9
-1.22821 -1.53137 -0.305775 14
-2.33042 -2.03986 -0.819922 8
-6.49194 -5.63727 1.97377 3
-6.36289 -5.52718 1.32637 2
-6.58725 -5.72401 0.760434 3
-2.49602 -2.1693 0.057113 33
-0.715512 -0.622943 -0.0480469 32
-1.28361 -1.58149 -0.0349484 14
-2.5039 -2.17308 -0.402206 35
-1.32383 -1.14899 -0.333316 9
-1.23904 -1.52898 -0.306558 14
-2.33925 -2.02605 -0.819275 8
-6.45289 -5.58563 1.95917 3
-6.39957 -5.54142 1.33223 2
-6.601 -5.71576 0.76087 3
-2.51303 -2.17639 0.0574184 33
-0.720374 -0.62496 -0.0483094 32
-1.29424 -1.58896 -0.0351666 14
-2.52045 -2.18051 -0.404335 36
-1.32769 -1.14828 -0.333792 9
-1.25103 -1.53833 -0.308907 14
-2.34278 -2.02196 -0.819275 9
-6.44874 -5.52324 1.94906 2
-6.46976 -5.54318 1.34081 2
-6.63741 -5.68876 0.761741 3
-2.53578 -2.17295 0.0576802 35
-0.712256 -0.611439 -0.0475218 32
-1.30571 -1.58602 -0.0352539 14
-2.54126 -2.17534 -0.405857 35
-1.33742 -1.14451 -0.334745 9
-1.25907 -1.53176 -0.308907 12
-2.35885 -2.01437 -0.821215 8
-6.48802 -5.53728 1.95805 2
-6.49918 -5.54678 1.34471 1
-6.57823 -5.61619 0.753679 2
-2.54566 -2.17295 0.0578111 33
-0.717229 -0.61331 -0.0477843 32
-1.31352 -1.58931 -0.0353848 14
-2.5511 -2.17529 -0.406769 35
-1.33961 -1.14194 -0.334745 9
-1.27297 -1.5427 -0.311648 12
-2.36087 -2.00827 -0.820569 8
-6.57665 -5.54578 1.97489 8
-6.54234 -5.5188 1.34705 1
-6.57049 -5.54449 0.749104 2
-2.5654 -2.16514 0.0579856 35
-0.714916 -0.604468 -0.0473905 32
-1.32877 -1.58963 -0.0355593 14
-2.57118 -2.16695 -0.407986 35
-1.34973 -1.1376 -0.335697 11
-1.28342 -1.53724 -0.312039 12
-2.37205 -1.99506 -0.820569 8
-6.63384 -5.57619 1.98949 11
-6.57843 -5.52962 1.35252 3
-6.60494 -5.55384 0.751936 2
-4.5464 -5.44925 0.865868 12
-2.58448 -2.17352 0.0583347 35
-0.714059 -0.601613 -0.0472592 32
-1.33314 -1.58923 -0.0356029 14
-2.58256 -2.16884 -0.409203 35
-1.36111 -1.14312 -0.338078 11
-1.29084 -1.54069 -0.313214 14
-2.37553 -1.99091 -0.820569 9
-1.17264 -1.40184 -0.413284 4
-6.68827 -5.56046 1.99679 14
-6.50476 -5.40985 1.33145 1
-4.58527 -5.45312 1.37688 11
-6.65882 -5.53989 0.754769 12
-4.64999 -5.51459 0.880167 11
-2.60736 -2.16955 0.0585965 35
-0.711439 -0.593079 -0.0468654 32
-1.35112 -1.59369 -0.0358647 14
-2.60534 -2.1648 -0.411029 35
-1.3633 -1.13285 -0.337125 11
-1.30817 -1.54547 -0.315563 12
-2.38778 -1.97999 -0.821215 9
-1.17369 -1.38822 -0.411038 8
-6.71013 -5.56083 2.00072 15
-6.68627 -5.54301 1.36696 14
-4.66278 -5.5258 1.39737 11
-6.6819 -5.53938 0.756294 14
-4.66345 -5.51296 0.88108 12
-2.61884 -2.17137 0.058771 35
-0.712473 -0.591836 -0.0468654 33
-1.35713 -1.59514 -0.035952 14
-2.62211 -2.17178 -0.413158 35
-1.37095 -1.13516 -0.338554 12
-1.31564 -1.54884 -0.316737 14
-2.39682 -1.98043 -0.823155 8
-1.16645 -1.37521 -0.407669 8
-6.66002 -5.46076 1.97714 12
-6.70183 -5.49697 1.36422 14
-4.70183 -5.51521 1.40071 12
-6.69252 -5.49127 0.754333 14
-4.69547 -5.49224 0.881688 14
-2.6414 -2.1676 0.0590328 33
-0.707736 -0.581892 -0.0463403 33
-1.37331 -1.59775 -0.0361701 14
-2.64113 -2.16431 -0.414375 35
-1.31796 -1.53358 -0.173529 12
-1.37478 -1.12665 -0.338078 11
-1.32667 -1.54591 -0.31752 14
-2.41055 -1.97133 -0.824448 8
-1.17837 -1.37464 -0.409353 8
-6.62709 -5.41638 1.96478 11
-6.63972 -5.42861 1.34979 12
-4.70985 -5.50513 1.40023 11
-6.68474 -5.4654 0.752372 12
-4.69925 -5.47921 0.880776 12
-2.65292 -2.16931 0.0592073 33
-0.706817 -0.579077 -0.046209 33
-1.37935 -1.59914 -0.0362574 14
-2.65991 -2.17271 -0.416809 35
-1.32712 -1.53884 -0.174399 12
-1.37865 -1.1258 -0.338554 12
-1.33258 -1.54735 -0.318303 14
-2.41399 -1.96712 -0.824448 8
-1.17103 -1.36168 -0.405984 9
-6.63262 -5.36323 1.95805 11
-6.63541 -5.36738 1.34315 12
-4.73766 -5.48122 1.40023 11
-6.67359 -5.40017 0.748014 12
-4.72788 -5.45453 0.880776 11
-2.67553 -2.16529 0.0594691 33
-0.705856 -0.572353 -0.0459465 33
-1.39234 -1.59781 -0.0363883 14
-2.67897 -2.16499 -0.418026 36
-1.34468 -1.54339 -0.175703 14
-1.38624 -1.12035 -0.33903 12
-1.35171 -1.55365 -0.321044 14
-2.42203 -1.95336 -0.823802 8
-1.17177 -1.34816 -0.403738 9
-6.62776 -5.3421 1.95412 9
-6.63037 -5.3461 1.34042 14
-4.74561 -5.47109 1.39976 8
-6.65005 -5.36194 0.74431 12
-4.73644 -5.44709 0.880776 11
-2.68903 -2.16846 0.0596872 33
-0.708798 -0.572686 -0.0460777 33
-1.39513 -1.59537 -0.0363883 14
-2.6959 -2.17167 -0.420156 35
-1.35228 -1.54668 -0.176356 14
-1.39393 -1.12254 -0.340459 12
-1.35928 -1.55688 -0.322219 14
-2.42355 -1.94762 -0.823155 8
-1.15952 -1.32975 -0.398684 11
-6.68421 -5.33011 1.96254 9
-6.66599 -5.31747 1.34198 12
-4.77647 -5.45069 1.40071 8
-6.65374 -5.30958 0.741695 12
-4.77472 -5.43341 0.882601 8
-2.70974 -2.16261 0.0599054 33
-0.71364 -0.570648 -0.046209 33
-1.40979 -1.5958 -0.0365628 14
-2.71111 -2.16061 -0.420764 35
-1.40535 -1.12006 -0.341887 12
-1.36714 -1.54998 -0.322219 14
-2.43905 -1.93984 -0.825095 8
-1.16165 -1.31817 -0.397 3
-6.7231 -5.34385 1.97152 9
-6.69754 -5.32543 1.34666 12
-4.7876 -5.44419 1.40119 8
-6.67664 -5.30881 0.743221 12
-4.80784 -5.45384 0.887165 4
-2.72721 -2.16876 0.0602108 35
-0.710725 -0.566296 -0.0459465 33
-1.41753 -1.59896 -0.0366937 14
-2.73005 -2.16869 -0.423198 35
-1.37964 -1.55871 -0.324568 14
-2.44812 -1.94007 -0.827035 4
-1.14603 -1.29621 -0.390823 3
-6.77588 -5.32814 1.97882 8
-3.30103 -3.72638 1.32278 1
-6.75444 -5.31318 1.35252 12
-4.83952 -5.44743 1.40834 4
-6.76019 -5.3196 0.749539 11
-4.88581 -5.48421 0.896292 4
-2.75191 -2.16575 0.0605162 33
-0.705731 -0.55652 -0.0454214 33
-1.42727 -1.59363 -0.0367373 14
-2.75698 -2.16663 -0.425632 32
-1.14147 -1.27745 -0.386892 4
-6.97408 -5.46624 2.03441 9
-3.28509 -3.69532 1.31373 1
-6.92698 -5.42932 1.3853 11
-4.93225 -5.53245 1.43264 8
-4.94661 -5.53305 0.905723 12
-2.76159 -2.16557 0.0606471 33
-0.710632 -0.558366 -0.0456839 33
-1.43672 -1.59859 -0.0369118 14
-2.77249 -2.17099 -0.427458 17
-1.13235 -1.26272 -0.382962 3
-3.29634 -3.66908 1.3105 4
-4.99234 -5.54121 1.4417 11
-5.00543 -5.54024 0.9112 9
-2.78672 -2.1618 0.0609525 33
-0.713546 -0.554637 -0.0456839 35
-1.44674 -1.5929 -0.0369555 14
-1.14547 -1.26402 -0.385208 4
-3.28335 -3.64178 1.30275 4
