# .PCD v0.7 - Point Cloud Data file format
VERSION 0.7
FIELDS x y z intensity
SIZE 4 4 4 4
TYPE F F F F
COUNT 1 1 1 1
WIDTH 1663
HEIGHT 1
VIEWPOINT 0 0 0 1 0 0 0
POINTS 1663
DATA ascii
1.60903 -2.41743 -0.556638 23
1.12322 -1.17743 -0.252529 9
1.58553 -2.38657 -0.757846 11
1.50141 -1.5683 -0.492459 27
3.28906 -4.99315 1.37013 56
3.34301 -3.50411 1.28659 9
3.28971 -4.99225 0.93927 52
3.3534 -3.5272 0.938414 9
1.05218 -1.11687 -0.0261786 11
1.69467 -2.57442 -0.373607 30
1.59728 -2.42815 -0.557114 32
1.11194 -1.17792 -0.251354 11
1.57169 -2.39282 -0.757199 11
3.27053 -4.98202 1.36563 42
3.34854 -3.52218 1.29112 11
3.27509 -4.98709 0.937319 44
3.35738 -3.54373 0.941273 11
1.04851 -1.11689 -0.026135 11
1.68519 -2.56878 -0.37239 21
1.59438 -2.43299 -0.55759 44
1.11158 -1.18165 -0.251746 9
1.57148 -2.40162 -0.759139 11
3.23379 -4.98272 1.36114 39
3.34393 -3.55314 1.29629 9
3.24087 -4.99174 0.934977 42
3.35116 -3.57319 0.94461 9
1.03772 -1.1167 -0.0260041 12
1.66767 -2.57132 -0.371477 23
1.58605 -2.44721 -0.559019 45
1.102 -1.18385 -0.250962 9
1.56061 -2.41158 -0.759786 11
3.21935 -4.97756 1.35833 39
3.34434 -3.56601 1.29887 9
3.22545 -4.98702 0.933026 42
3.36169 -3.59695 0.949376 11
1.03066 -1.11303 -0.0258732 11
1.65779 -2.56588 -0.37026 18
1.57379 -2.4376 -0.556162 35
1.1033 -1.18939 -0.251746 9
1.55901 -2.41836 -0.761079 11
3.18581 -4.98465 1.35553 39
3.33384 -3.59232 1.3021 9
3.18998 -4.98928 0.930295 41
3.35115 -3.6235 0.951759 11
1.02651 -1.12025 -0.0259168 11
1.64434 -2.57453 -0.37026 15
1.56233 -2.44787 -0.556638 39
1.09204 -1.1897 -0.250571 8
1.55022 -2.4326 -0.763019 11
3.17711 -4.9902 1.35553 4
3.33742 -3.60876 1.30598 9
3.1879 -5.00525 0.932246 2
3.35251 -3.63895 0.954141 11
1.02879 -1.12586 0.0781114 12
1.02286 -1.1202 -0.0258732 12
1.63585 -2.57111 -0.369348 23
1.55805 -2.4506 -0.556638 36
1.09497 -1.19706 -0.251746 8
1.54555 -2.43557 -0.763019 11
3.18766 -5.06712 1.37181 1
3.33253 -3.64279 1.3118 9
3.18838 -5.06633 0.94044 2
3.34666 -3.67095 0.957954 9
1.02268 -1.13141 0.0781114 12
1.01679 -1.12571 -0.0258732 11
1.61399 -2.56732 -0.367522 32
1.54607 -2.46107 -0.557114 35
1.09368 -1.20825 -0.25292 8
1.53406 -2.44568 -0.763665 9
3.18488 -5.08038 1.37406 4
3.33757 -3.66108 1.31632 9
3.19222 -5.09016 0.943952 4
3.35346 -3.6913 0.961767 9
3.19952 -5.10182 0.523806 15
1.02426 -1.13672 0.0783731 12
1.02153 -1.1349 -0.0260477 11
1.60996 -2.56985 -0.367522 27
1.55088 -2.47833 -0.560447 32
1.08825 -1.2065 -0.252137 4
1.52851 -2.4463 -0.763019 4
3.18901 -5.14669 1.38753 17
3.33681 -3.69763 1.32343 9
3.18764 -5.14249 0.950586 20
3.34788 -3.72281 0.96558 9
3.19334 -5.1497 0.527074 18
2.21805 -3.57751 0.0728638 42
1.01495 -1.13835 0.0781114 12
1.01744 -1.14191 -0.0260913 11
1.58473 -2.55925 -0.364784 15
1.54477 -2.49659 -0.562828 33
1.08357 -1.21402 -0.252529 4
1.51737 -2.45606 -0.763665 3
3.17235 -5.13981 1.38416 14
3.34005 -3.71421 1.3273 9
3.17606 -5.14384 0.949806 15
3.34728 -3.73654 0.967486 9
3.17911 -5.14679 0.526203 21
2.06813 -3.34988 0.068108 9
1.0113 -1.13826 0.0779806 14
1.01212 -1.13996 -0.0260041 11
1.57766 -2.55779 -0.364176 15
1.08309 -1.21775 -0.25292 4
1.51392 -2.46103 -0.764312 3
1.20019 -1.34586 -0.407669 12
3.13689 -5.14442 1.3808 14
3.33276 -3.74665 1.33247 9
3.14047 -5.1483 0.947464 14
3.34071 -3.76869 0.971299 9
3.14733 -5.15754 0.525549 18
1.00348 -1.14184 0.0778497 14
1.6746 -2.74509 -0.167245 35
1.01256 -1.15291 -0.0261786 11
1.55864 -2.55781 -0.362959 20
1.07998 -1.2271 -0.253703 4
1.50227 -2.47098 -0.764959 4
1.19451 -1.35415 -0.40823 27
3.12375 -5.14101 1.37855 15
3.33424 -3.76149 1.33571 9
3.12341 -5.13845 0.944733 14
3.34714 -3.78922 0.975112 9
3.12539 -5.14174 0.52337 15
1.00168 -1.14342 0.0778497 12
1.65167 -2.71813 -0.165407 35
1.00394 -1.14717 -0.0260041 11
1.55719 -2.5645 -0.363567 29
1.07783 -1.22899 -0.253703 4
1.4942 -2.4674 -0.763019 3
3.08049 -5.13014 1.37125 14
3.32791 -3.79283 1.34087 9
3.09265 -5.14839 0.943562 15
3.34247 -3.82273 0.979401 9
3.09035 -5.14255 0.521845 15
1.00553 -1.15993 0.0786348 9
1.64175 -2.73288 -0.165801 12
0.99976 -1.15412 -0.0260477 9
0.996382 -1.14986 -0.12982 3
1.06813 -1.23089 -0.25292 4
1.47922 -2.47079 -0.761726 3
3.07243 -5.13497 1.37125 14
3.33402 -3.81316 1.34604 9
3.07098 -5.13258 0.93966 15
3.3487 -3.84334 0.983214 9
3.07497 -5.13725 0.520756 14
0.986911 -1.14103 0.180719 14
2.44639 -4.08816 0.0825499 3
1.00023 -1.15792 0.0783731 9
1.63698 -2.73574 -0.165801 12
1.00594 -1.1653 -0.0262659 9
0.996008 -1.15348 -0.130038 4
1.07247 -1.24021 -0.254486 4
1.4749 -2.47337 -0.761726 4
3.03469 -5.13474 1.36676 11
3.32825 -3.84699 1.35186 9
3.03904 -5.14009 0.938099 14
3.33816 -3.87197 0.986073 9
3.04296 -5.1447 0.519884 14
0.987401 -1.1537 0.181936 14
2.43004 -4.10952 0.0827244 3
0.995777 -1.16503 0.0785039 8
1.61834 -2.73811 -0.165407 38
0.996566 -1.16676 -0.0261786 9
0.988129 -1.15697 -0.12982 4
1.06274 -1.24206 -0.253703 4
1.46193 -2.48106 -0.761726 4
3.01831 -5.12743 1.36339 12
3.33416 -3.86742 1.35703 9
3.0238 -5.13474 0.936148 15
3.34673 -3.89697 0.990839 9
3.02514 -5.13498 0.518359 15
0.978921 -1.14789 0.180719 12
2.42595 -4.12065 0.0828553 3
0.995366 -1.16866 0.0786348 8
1.61609 -2.74523 -0.16567 26
0.996154 -1.1704 -0.0262222 8
0.984488 -1.1568 -0.129603 3
1.06217 -1.24579 -0.254095 3
1.45961 -2.48803 -0.763019 4
2.98563 -5.13526 1.36114 14
3.3226 -3.89642 1.36091 9
2.99225 -5.14462 0.934977 15
3.33423 -3.92379 0.993222 9
2.99105 -5.14051 0.517269 15
0.980726 -1.16262 0.18224 11
2.40936 -4.14193 0.0830298 3
0.990643 -1.17594 0.0787656 8
1.59542 -2.74286 -0.165013 32
0.99627 -1.1834 -0.0263968 8
0.976807 -1.16004 -0.129386 3
1.05404 -1.24945 -0.253703 3
1.44414 -2.49145 -0.761726 4
2.96779 -5.12308 1.35665 15
3.32988 -3.91876 1.36672 9
2.97427 -5.13222 0.931855 15
3.34325 -3.94831 0.997988 9
2.97708 -5.1371 0.516398 15
0.975693 -1.16038 0.181631 9
2.39462 -4.13315 0.082768 3
0.985572 -1.17368 0.0785039 8
1.58688 -2.73916 -0.16462 38
0.990978 -1.18132 -0.0263095 8
0.977995 -1.16554 -0.12982 3
1.05505 -1.25506 -0.254486 3
1.4422 -2.49815 -0.763019 4
2.93851 -5.13432 1.35553 15
3.32868 -3.95772 1.37448 9
2.93632 -5.12844 0.928343 14
3.33743 -3.9821 1.00228 9
2.94362 -5.13913 0.51509 15
0.971197 -1.16737 0.181936 8
2.37491 -4.14739 0.0828117 4
0.98742 -1.1884 0.0791581 4
1.57004 -2.7431 -0.164357 45
0.993 -1.19591 -0.0265277 8
0.970282 -1.16874 -0.129603 3
1.05321 -1.26625 -0.255661 3
1.42595 -2.49913 -0.761079 4
1.0923 -1.31024 -0.385208 8
2.92351 -5.12886 1.35272 15
3.32953 -3.97278 1.37771 9
2.92614 -5.13141 0.927953 15
3.3408 -4.00168 1.00561 9
2.92477 -5.12696 0.513347 15
0.972337 -1.17287 0.182544 3
2.37065 -4.15846 0.0829426 4
0.983746 -1.1882 0.0790273 4
1.56402 -2.74366 -0.164226 50
0.987713 -1.1938 -0.0264404 8
0.974615 -1.17809 -0.130473 3
1.05258 -1.26998 -0.256052 4
1.42234 -2.50396 -0.761726 4
1.09313 -1.31588 -0.386331 9
2.88736 -5.12974 1.34879 15
3.32187 -4.00745 1.38352 9
2.89349 -5.13856 0.926392 15
3.33545 -4.03802 1.01038 8
2.89088 -5.13185 0.512258 15
0.969136 -1.18195 0.183153 4
2.3464 -4.16646 0.0828553 4
0.982066 -1.19929 0.0794198 4
1.5484 -2.74964 -0.164095 47
0.984417 -1.20298 -0.0265277 4
0.973183 -1.18894 -0.131125 3
1.05063 -1.28119 -0.257227 4
1.40567 -2.50505 -0.759786 4
2.87215 -5.12152 1.34542 15
3.32565 -4.02627 1.38805 9
2.87334 -5.12156 0.92249 15
3.3362 -4.0533 1.01276 8
2.87948 -5.13255 0.511822 15
0.967278 -1.18347 0.183153 4
2.34156 -4.17491 0.0829426 4
0.978597 -1.1989 0.079289 4
1.54604 -2.75669 -0.164357 45
0.977559 -1.1989 -0.0263968 4
0.969527 -1.18871 -0.130908 3
1.6711 -2.98599 -0.657109 4
1.04996 -1.28493 -0.257618 4
1.40483 -2.51383 -0.761726 4
2.84058 -5.12796 1.34317 15
3.31288 -4.05239 1.39128 8
2.84409 -5.13221 0.92171 15
3.33116 -4.08915 1.01753 8
2.84381 -5.12963 0.510079 15
0.970466 -1.20006 0.184978 3
2.3204 -4.18671 0.0829426 4
0.972306 -1.20401 0.079289 4
1.53207 -2.76448 -0.164357 45
0.980933 -1.21548 -0.0266585 8
2.70059 -4.88117 -0.679673 24
0.965068 -1.19554 -0.131125 4
1.65478 -2.99226 -0.656633 4
1.04634 -1.29424 -0.258401 4
1.38975 -2.51668 -0.760432 4
2.83017 -5.12815 1.34205 15
3.32413 -4.08062 1.39903 8
2.86971 -5.19987 0.933026 12
2.86494 -5.1891 0.515526 12
0.963681 -1.19597 0.184065 3
2.30947 -4.18418 0.0828117 4
0.973345 -1.20958 0.0795507 4
1.52845 -2.76934 -0.164488 41
0.977238 -1.21524 -0.0266149 4
2.69446 -4.89022 -0.680281 12
0.964547 -1.19915 -0.131343 3
1.6389 -2.97579 -0.652347 8
1.39117 -2.52968 -0.763665 4
2.79422 -5.12841 1.33812 15
2.84717 -5.2235 0.934587 14
2.84607 -5.21934 0.517051 12
0.960511 -1.20487 0.184674 3
2.28992 -4.20061 0.0828989 4
0.966999 -1.21466 0.0795507 4
1.51632 -2.78169 -0.164751 42
0.975548 -1.2262 -0.0267458 8
2.68423 -4.9326 -0.684236 12
0.956698 -1.20224 -0.131125 3
1.62096 -2.98002 -0.651395 8
1.37906 -2.53906 -0.764312 4
2.785 -5.13065 1.33756 14
2.85454 -5.25885 0.94005 12
2.85478 -5.25713 0.52032 12
0.959957 -1.20849 0.184978 3
2.27782 -4.19581 0.0827244 4
0.971107 -1.22415 0.080074 3
1.51741 -2.79531 -0.165407 44
0.973406 -1.2279 -0.0267458 4
2.68034 -4.94601 -0.685453 12
0.953045 -1.20197 -0.130908 3
1.60874 -2.96989 -0.648538 8
1.37118 -2.53509 -0.762372 8
2.77905 -5.18645 1.34823 14
2.89898 -5.4059 0.533611 1
0.947459 -1.20571 0.183761 3
2.257 -4.20988 0.082768 4
0.958495 -1.22138 0.0795507 3
1.49686 -2.79221 -0.164751 35
0.970061 -1.2369 -0.0268331 4
2.66143 -4.9731 -0.687279 14
0.951368 -1.2128 -0.13156 3
1.59317 -2.97827 -0.648538 8
1.36016 -2.54649 -0.763665 8
2.7881 -5.22305 1.35665 14
2.8954 -5.42194 0.5347 1
0.953032 -1.21711 0.185282 3
2.24377 -4.20279 0.0825499 4
0.964081 -1.23286 0.0802048 3
1.49081 -2.79261 -0.16462 18
0.966355 -1.23663 -0.0267894 4
2.64575 -4.9646 -0.685453 11
0.94617 -1.21055 -0.131125 3
1.58221 -2.97022 -0.646157 8
1.35345 -2.5446 -0.762372 4
2.77569 -5.26823 1.36451 12
3.06284 -5.81112 1.03253 4
2.92155 -5.54058 0.544941 3
0.948172 -1.22404 0.185587 3
2.21707 -4.20563 0.0823754 4
0.951479 -1.23002 0.0796815 3
1.46802 -2.78492 -0.163701 8
0.962937 -1.24562 -0.0268767 4
2.61856 -4.97619 -0.685149 8
0.945937 -1.22335 -0.131995 3
1.56207 -2.96977 -0.644252 9
1.33899 -2.54951 -0.761726 4
2.78213 -5.30063 1.37181 12
3.0504 -5.81208 1.03175 4
2.95932 -5.63609 0.553875 4
0.949079 -1.22961 0.186195 3
2.22018 -4.22942 0.082768 4
0.952391 -1.23562 0.0799432 3
1.46316 -2.78748 -0.163701 9
0.956167 -1.24137 -0.0267458 4
2.61218 -4.98515 -0.685758 4
0.945327 -1.22696 -0.132212 3
1.55005 -2.95945 -0.641395 8
1.33565 -2.55398 -0.762372 8
2.77133 -5.35022 1.3808 4
3.01198 -5.81262 1.02902 4
2.91029 -5.61391 0.550171 4
0.948676 -1.24243 0.187412 3
2.18535 -4.21657 0.0822881 4
0.951987 -1.24851 0.0804665 3
1.44281 -2.78401 -0.163044 9
0.954217 -1.25231 -0.0268767 4
2.57806 -4.98333 -0.683628 3
0.944952 -1.2398 -0.133082 8
1.5244 -2.9479 -0.63711 9
1.32115 -2.55879 -0.761726 4
1.47476 -1.92437 -0.550858 44
2.7819 -5.39138 1.39034 3
2.89204 -5.60498 0.99117 4
2.89592 -5.61013 0.549299 11
0.938963 -1.23424 0.185891 3
0.949807 -1.25017 0.0804665 4
1.43451 -2.77987 -0.16265 8
0.95203 -1.25397 -0.0268767 4
2.56936 -4.98782 -0.683628 3
0.944299 -1.24343 -0.1333 9
1.50915 -2.93091 -0.632824 11
1.31779 -2.56325 -0.762372 4
1.46991 -1.92501 -0.550297 36
2.76374 -5.42806 1.39596 11
2.86602 -5.62665 0.99234 9
2.88233 -5.65628 0.55235 9
0.938481 -1.24705 0.187108 3
0.947766 -1.2611 0.0808591 4
1.42511 -2.79872 -0.163307 14
0.954494 -1.27091 -0.0271385 4
0.934555 -1.24454 -0.132865 8
1.49267 -2.93658 -0.632348 12
1.30217 -2.5658 -0.761079 4
1.4554 -1.92685 -0.548612 8
2.77738 -5.47851 1.40775 9
2.84726 -5.61402 0.989218 14
2.85443 -5.62577 0.548863 14
0.933313 -1.24472 0.186499 3
1.3716 -2.70402 0.0523136 9
0.947066 -1.26475 0.0809899 4
1.41571 -2.79229 -0.162782 11
0.956785 -1.27856 -0.0272694 4
0.935378 -1.25015 -0.1333 4
1.47315 -2.91071 -0.626158 11
1.30159 -2.57692 -0.763665 4
1.46085 -1.94105 -0.551981 3
0.929533 -1.25373 0.187108 3
1.34848 -2.69328 0.0519645 9
0.947667 -1.27986 0.0816441 3
1.39996 -2.79743 -0.16265 8
0.946868 -1.27971 -0.0271821 4
0.928819 -1.25503 -0.1333 3
1.45738 -2.91864 -0.626158 9
1.287 -2.58154 -0.763019 4
1.44449 -1.94112 -0.549735 3
0.932005 -1.26116 0.18802 3
1.346 -2.7001 0.0520518 8
0.945656 -1.28135 0.0816441 3
1.39062 -2.79093 -0.162125 8
0.952079 -1.2914 -0.0274003 4
0.93108 -1.26265 -0.133952 3
1.44792 -2.91239 -0.624253 9
1.28142 -2.58162 -0.762372 8
1.45308 -1.95902 -0.554227 3
2.96585 -6.02955 1.05634 17
3.30373 -4.48595 1.0752 15
2.97345 -6.04237 0.586122 17
0.926859 -1.26802 0.188325 3
1.33122 -2.70464 0.0520082 8
0.94189 -1.29031 0.0819058 3
1.37318 -2.79121 -0.161732 8
0.94701 -1.29822 -0.0274439 4
0.929099 -1.27337 -0.134604 3
1.43424 -2.92188 -0.62473 11
1.2694 -2.59024 -0.763019 8
1.46737 -1.99994 -0.563773 3
3.15354 -6.43965 1.64471 15
3.29288 -4.47133 1.47658 15
2.95206 -6.02806 1.05517 15
3.30317 -4.5016 1.07758 14
2.95742 -6.03637 0.585033 15
0.931979 -1.27965 0.189846 3
0.942585 -1.29598 0.0821674 3
1.36611 -2.78912 -0.161469 3
0.943267 -1.29785 -0.0274003 4
0.923934 -1.27097 -0.13417 3
1.42698 -2.91997 -0.623777 9
1.26699 -2.59679 -0.764312 4
1.45955 -1.99661 -0.562089 3
3.14513 -6.51147 1.65875 15
3.28651 -4.51192 1.48433 15
2.91617 -6.03454 1.05361 15
3.3012 -4.5486 1.08473 14
2.90844 -6.01589 0.581547 15
0.92381 -1.2825 0.189542 3
1.35208 -2.79872 -0.1616 3
0.937924 -1.3048 -0.0274439 4
0.922883 -1.28402 -0.135039 3
1.41167 -2.9274 -0.623777 9
1.25129 -2.59904 -0.763019 4
3.15486 -6.56086 1.66998 15
3.29141 -4.53523 1.49015 14
2.89921 -6.02627 1.05126 15
3.30973 -4.57879 1.09045 14
2.89901 -6.0232 0.581765 15
0.927382 -1.29216 0.190759 3
1.34179 -2.78982 -0.160944 3
0.941491 -1.31454 -0.0276184 4
1.41717 -2.95199 -0.628539 11
1.24942 -2.60797 -0.764959 4
3.14645 -6.63507 1.68458 24
3.29079 -4.58631 1.50113 14
2.85175 -6.01063 1.0458 14
3.30143 -4.618 1.09569 14
2.86211 -6.0298 0.580893 15
0.920377 -1.29716 0.190759 3
1.32716 -2.79681 -0.160944 9
0.934365 -1.31962 -0.0276184 4
1.40433 -2.96627 -0.629967 11
1.23266 -2.60793 -0.763019 3
3.13498 -6.6378 1.68402 35
3.29684 -4.61168 1.5076 14
2.83809 -6.00617 1.04424 15
3.3062 -4.64173 1.09998 14
1.32335 -2.80138 -0.161075 8
0.937848 -1.3294 -0.027793 4
1.40751 -2.98648 -0.633777 11
1.22913 -2.61226 -0.763665 3
3.09504 -6.64308 1.68121 30
3.293 -4.65589 1.51664 14
3.30672 -4.69249 1.10808 14
1.30915 -2.80804 -0.161075 8
0.93829 -1.34436 -0.0280111 4
1.39031 -2.98911 -0.632824 11
1.21386 -2.61407 -0.762372 3
3.07948 -6.63689 1.67841 30
3.29183 -4.6715 1.51987 14
3.31406 -4.72034 1.11332 14
1.3011 -2.80353 -0.160681 9
0.937375 -1.34804 -0.0280547 4
1.38818 -2.99822 -0.634253 9
1.21132 -2.62056 -0.763665 4
3.03846 -6.64237 1.6756 30
3.29221 -4.72432 1.5315 14
3.30331 -4.75777 1.11809 41
1.27393 -2.78046 0.264518 17
1.28695 -2.8128 -0.160813 8
1.37858 -3.01884 -0.63711 9
1.19758 -2.62687 -0.763665 4
3.30189 -4.75583 1.53991 39
3.31094 -4.78831 1.12381 49
1.26288 -2.76908 0.26321 32
1.2748 -2.79913 -0.159894 9
1.38852 -3.05477 -0.644252 9
1.19453 -2.63357 -0.764959 8
3.298 -4.80546 1.55024 45
3.30246 -4.82988 1.12953 47
1.2489 -2.77814 0.263428 26
1.21507 -2.70405 0.0511355 11
1.26115 -2.80805 -0.160025 14
1.17974 -2.63758 -0.764312 4
1.60536 -2.35582 -0.649126 41
3.30599 -4.83512 1.558 45
2.20792 -4.93706 0.849128 2
3.31478 -4.86604 1.13668 47
1.25523 -2.80533 0.265825 17
1.21035 -2.70617 0.0511355 9
1.25726 -2.81252 -0.160156 26
1.52042 -3.40987 -0.717582 14
1.17612 -2.64184 -0.764959 4
1.60303 -2.36035 -0.649687 36
3.30044 -4.87978 1.56705 47
2.20294 -4.996 0.857323 2
3.30246 -4.90107 1.14097 47
1.23599 -2.80025 0.264736 26
1.19865 -2.71684 0.0512228 8
1.23496 -2.80057 -0.159106 11
1.52486 -3.46696 -0.728058 12
1.64536 -2.45534 -0.463165 23
1.16079 -2.64334 -0.763665 8
1.59337 -2.37275 -0.65081 38
3.30678 -4.90756 1.57415 47
3.31856 -4.94348 1.14955 50
1.2331 -2.80697 0.265171 21
1.18889 -2.70748 0.0510047 9
1.2411 -2.82787 -0.16055 12
1.52274 -3.47861 -0.729962 9
1.64519 -2.46436 -0.464339 26
1.15907 -2.652 -0.765605 8
1.58923 -2.37553 -0.65081 42
3.29713 -4.94891 1.58191 49
3.30757 -4.98327 1.15479 56
1.21542 -2.80653 0.264518 11
1.1737 -2.71137 0.050961 9
1.22726 -2.83663 -0.160681 15
2.16026 -5.00293 -0.663852 30
1.51616 -3.51358 -0.735676 8
1.63363 -2.475 -0.464731 29
1.13944 -2.64472 -0.761726 4
1.57003 -2.37367 -0.648003 33
3.30185 -4.97477 1.58837 55
3.30158 -4.99313 1.15574 50
1.20658 -2.79949 0.263646 11
1.16403 -2.70194 0.0507429 9
1.21442 -2.82042 -0.159631 11
2.14859 -4.99985 -0.662939 39
1.54002 -3.58614 -0.750437 8
1.61571 -2.45724 -0.460816 33
1.13673 -2.65115 -0.763019 4
1.57126 -2.38453 -0.650249 42
3.27356 -4.99054 1.58772 47
2.81437 -6.63633 1.1336 45
3.26108 -4.99038 1.15097 42
1.1885 -2.7991 0.262992 9
1.15329 -2.7174 0.0509174 23
1.18551 -2.79476 -0.157793 4
2.11764 -5.00226 -0.661723 35
1.60913 -2.47629 -0.462773 27
1.12424 -2.66171 -0.764312 8
1.55567 -2.38892 -0.649126 35
2.79557 -6.62409 1.64921 29
3.25427 -4.98008 1.58256 39
2.79511 -6.62303 1.13048 45
3.24298 -4.98168 1.14764 39
1.18361 -2.80117 0.262992 9
1.14661 -2.7148 0.0508301 15
1.16802 -2.76692 -0.156087 8
2.10313 -4.99223 -0.659897 38
1.59136 -2.45839 -0.458858 33
1.11679 -2.65699 -0.762372 4
1.55682 -2.3998 -0.651372 35
2.75782 -6.63462 1.64808 30
3.22421 -4.99097 1.58062 39
2.75944 -6.63529 1.13009 44
3.21066 -4.9909 1.14573 39
1.16606 -2.80043 0.262339 9
1.12902 -2.71404 0.0506992 9
2.07411 -4.9963 -0.658984 39
1.5838 -2.475 -0.460424 33
1.10332 -2.66522 -0.763019 8
1.54777 -2.41433 -0.653056 38
2.74065 -6.62592 1.64471 30
3.21462 -4.99715 1.58062 38
2.74104 -6.62688 1.12775 41
3.19664 -4.98823 1.14383 32
1.16068 -2.80267 0.262339 9
3.20626 -5.01854 0.725917 4
1.12047 -2.70677 0.0505247 9
2.06072 -4.9911 -0.657767 39
1.57905 -2.47803 -0.460424 36
1.0982 -2.66733 -0.763019 8
1.54355 -2.41703 -0.653056 38
2.69877 -6.63256 1.64247 30
3.18407 -5.01095 1.57932 26
2.6984 -6.62837 1.12541 33
3.18187 -5.02674 1.14859 1
1.14783 -2.81602 0.262992 8
3.18481 -5.04685 0.727438 8
1.11664 -2.74077 0.0510483 9
3.18332 -5.05226 0.311137 9
2.03282 -5.00253 -0.657767 42
1.70044 -2.70506 -0.27595 14
1.56386 -2.48473 -0.460033 38
1.08557 -2.67771 -0.764312 8
1.53133 -2.42767 -0.653618 29
2.68262 -6.62597 1.63966 30
3.17273 -5.01242 1.57803 2
2.68312 -6.62391 1.12385 33
3.19842 -5.07434 1.15812 3
1.14385 -2.82033 0.26321 4
3.19451 -5.0818 0.731698 12
1.11043 -2.74059 0.0510047 9
3.19177 -5.08529 0.312838 9
1.69969 -2.71435 -0.276602 41
1.47492 -3.65049 -0.757104 4
1.56084 -2.48954 -0.460424 15
1.07772 -2.67307 -0.762372 4
1.54009 -2.45095 -0.659233 36
2.64223 -6.62908 1.63685 30
3.14685 -5.03156 1.57868 15
2.64084 -6.62227 1.12111 33
3.1939 -5.12641 1.16623 12
1.13042 -2.83111 0.263646 8
3.18663 -5.13061 0.736261 18
1.1007 -2.75798 0.0512228 9
3.16684 -5.10672 0.3131 8
1.68677 -2.72533 -0.27682 52
1.45968 -3.66982 -0.759484 8
1.5543 -2.50816 -0.462382 38
1.06549 -2.68317 -0.763665 4
1.54355 -2.48612 -0.666533 35
2.63181 -6.63322 1.63685 30
3.1355 -5.03295 1.57739 38
2.62862 -6.62182 1.12033 35
3.20179 -5.15907 1.17242 18
1.12088 -2.8215 0.262557 9
3.18379 -5.14405 0.737478 17
1.09865 -2.76686 0.0513537 8
3.15356 -5.1032 0.312576 8
1.16605 -2.94132 -0.383647 9
1.68201 -2.72827 -0.27682 45
1.44966 -3.66323 -0.75758 4
1.55252 -2.51507 -0.463165 39
1.06258 -2.68952 -0.764959 4
1.55635 -2.51545 -0.673833 35
2.59261 -6.63556 1.63404 32
3.09984 -5.03231 1.57222 38
2.49596 -6.38479 1.0778 1
3.16279 -5.1543 1.16766 15
1.10568 -2.82482 0.262339 9
3.15033 -5.15007 0.735957 15
1.09008 -2.78636 0.0516155 8
3.11898 -5.10687 0.311791 8
1.15514 -2.95894 -0.385168 8
1.65779 -2.71975 -0.27508 35
1.43199 -3.67281 -0.758056 4
1.54106 -2.525 -0.463556 39
1.04545 -2.68586 -0.762372 4
1.56737 -2.56301 -0.684502 17
2.57601 -6.62373 1.63011 30
3.086 -5.02949 1.56963 38
2.57543 -6.61885 1.11682 35
3.14482 -5.14516 1.16432 14
1.10436 -2.83603 0.26321 4
3.12672 -5.1296 0.732306 15
1.08884 -2.79758 0.05179 8
1.15139 -2.96307 -0.385472 8
1.65045 -2.71838 -0.274645 45
1.42469 -3.67301 -0.75758 4
1.0425 -2.69218 -0.763665 3
2.53781 -6.62803 1.62787 30
3.05298 -5.03266 1.56575 38
2.53809 -6.62532 1.11565 32
3.11111 -5.14842 1.16146 14
1.09088 -2.84391 0.263428 8
3.09213 -5.13315 0.730481 14
1.07824 -2.81239 0.0519645 9
1.63924 -2.73097 -0.27508 50
1.40783 -3.68476 -0.758532 4
1.02972 -2.69968 -0.764312 3
2.52479 -6.62517 1.62618 32
3.03793 -5.02765 1.56252 36
2.52152 -6.61315 1.11292 33
3.09451 -5.14123 1.1586 14
1.09567 -2.87141 0.265825 8
3.07895 -5.1295 0.729264 14
1.07244 -2.81193 0.0519209 9
2.48367 -4.14608 0.251474 3
1.63062 -2.72742 -0.274428 49
1.4014 -3.68721 -0.758532 4
1.02501 -2.70147 -0.764312 4
1.69918 -2.83065 -0.753008 8
2.48323 -6.62005 1.62169 32
3.00253 -5.02638 1.55735 38
2.48686 -6.62626 1.11292 35
3.06217 -5.14629 1.15622 14
1.08462 -2.88624 0.266697 4
3.04698 -5.13701 0.728047 15
1.07137 -2.85243 0.0525754 9
2.4632 -4.16117 0.251605 4
1.83148 -4.88935 -0.635862 12
1.61426 -2.73135 -0.273993 47
1.3853 -3.70115 -0.759961 4
1.00795 -2.69758 -0.761726 4
1.60585 -2.70762 -0.717632 8
2.47027 -6.6171 1.62001 32
2.99128 -5.02747 1.55606 38
2.47127 -6.61628 1.11058 33
3.04692 -5.14107 1.15383 14
1.09091 -2.91846 0.269529 8
3.03132 -5.12898 0.726222 15
1.06901 -2.86132 0.0527063 9
2.45285 -4.15859 0.251213 4
1.81601 -4.87129 -0.633124 12
1.60569 -2.72773 -0.273341 49
1.37798 -3.70127 -0.759484 4
1.00744 -2.71065 -0.764959 4
1.60283 -2.71223 -0.718193 8
2.43223 -6.6208 1.61776 33
2.95598 -5.0259 1.55089 39
2.43319 -6.61986 1.10902 33
3.0134 -5.14373 1.15097 14
2.99565 -5.12979 0.724092 14
1.07347 -2.91831 0.0536661 14
2.42222 -4.15628 0.250297 4
1.78023 -4.85278 -0.629473 12
1.58558 -2.72507 -0.272253 42
1.35838 -3.70589 -0.759008 4
2.31991 -3.978 -0.724698 8
0.99122 -2.70891 -0.763019 4
1.57876 -2.70378 -0.713701 9
2.41849 -6.61545 1.61551 33
2.94109 -5.02063 1.54766 39
2.41824 -6.61482 1.10746 33
2.99328 -5.12991 1.14669 14
2.9792 -5.12215 0.722266 14
1.08639 -2.96949 0.0545824 11
2.41999 -4.16914 0.25082 4
1.57081 -2.71061 -0.270514 15
1.34688 -3.69442 -0.756151 4
2.30799 -3.97351 -0.723132 8
0.990615 -2.72199 -0.766252 4
1.57895 -2.71494 -0.715947 12
2.37936 -6.61927 1.61327 32
2.90628 -5.02134 1.54314 38
2.38107 -6.62042 1.10629 33
2.96024 -5.13489 1.1443 14
2.3831 -6.62247 0.612705 36
2.94614 -5.12692 0.720745 14
1.08858 -3.02453 0.0554986 8
2.40061 -4.18608 0.251082 4
1.65751 -4.6175 -0.597224 4
1.55411 -2.71448 -0.270079 15
1.32917 -3.70604 -0.757104 4
2.29208 -3.9941 -0.724698 8
0.973911 -2.72031 -0.764312 4
1.5854 -2.75905 -0.725493 3
2.36568 -6.61383 1.61102 32
2.89148 -5.01595 1.53991 39
2.36535 -6.61294 1.10433 33
2.94638 -5.13154 1.1424 14
2.36734 -6.6149 0.611615 36
2.93472 -5.12775 0.720137 15
1.04292 -2.91345 0.0534044 3
2.3871 -4.17943 0.250428 4
1.57702 -4.41004 -0.244435 3
1.69104 -2.96593 -0.0589891 32
1.64278 -4.60168 -0.59479 9
1.53576 -2.69341 -0.267687 12
1.3227 -3.70835 -0.757104 4
2.28756 -4.00238 -0.725481 4
0.972397 -2.73111 -0.766899 4
1.63761 -2.8611 -0.751885 8
2.32906 -6.62423 1.61046 33
2.86039 -5.02263 1.53732 39
2.3266 -6.61358 1.10238 35
2.9134 -5.13623 1.14001 15
2.9005 -5.13009 0.718311 15
1.01521 -2.8835 0.0527499 4
2.3701 -4.20056 0.250951 4
1.54398 -4.38997 -0.24286 4
1.67549 -2.97474 -0.0589891 26
1.62441 -4.62661 -0.596919 4
1.5339 -2.7231 -0.269861 26
1.30408 -3.71755 -0.75758 8
2.26779 -4.01645 -0.725873 8
0.955693 -2.72933 -0.764959 4
1.62982 -2.88235 -0.755254 9
2.31383 -6.61408 1.60709 33
2.84446 -5.01502 1.53344 39
2.31016 -6.60365 1.10004 35
2.8996 -5.13276 1.13811 15
2.23887 -6.39618 0.589826 17
2.88544 -5.12434 0.71679 15
1.0044 -2.86875 0.0524445 8
2.35909 -4.19817 0.250558 4
1.54125 -4.4068 -0.243648 3
1.66907 -2.97549 -0.0589455 23
1.61797 -4.63413 -0.597528 3
1.52792 -2.7236 -0.269644 47
1.2992 -3.72445 -0.758532 4
2.25956 -4.01826 -0.725481 8
0.953306 -2.73783 -0.766899 4
1.63197 -2.89791 -0.758623 9
2.27563 -6.61959 1.60541 32
2.81343 -5.02142 1.53086 39
2.27395 -6.61098 1.09926 35
2.86909 -5.14145 1.13668 15
2.19968 -6.39133 0.588301 17
2.85253 -5.12854 0.715269 15
0.986118 -2.86451 0.05227 4
2.34072 -4.21701 0.250951 4
1.51005 -4.3912 -0.242335 4
1.64618 -2.97108 -0.0586837 24
1.67821 -4.88899 -0.629473 27
1.51727 -2.73809 -0.270296 49
1.27889 -3.72888 -0.758056 8
2.23799 -4.02748 -0.72509 8
0.937396 -2.73822 -0.765605 4
1.61678 -2.90642 -0.758623 8
2.2605 -6.60933 1.60204 32
2.79759 -5.01367 1.52698 39
2.26117 -6.60753 1.09809 36
2.85414 -5.13572 1.13429 14
2.18772 -6.3928 0.588083 17
2.8529 -5.1482 0.717399 12
0.981925 -2.86859 0.0523136 3
2.3353 -4.22286 0.251082 4
1.49835 -4.38202 -0.241678 8
1.63615 -2.9652 -0.0585092 26
1.68495 -4.9339 -0.634949 17
1.51128 -2.73856 -0.270079 49
1.27238 -3.73111 -0.758056 4
2.23336 -4.0357 -0.725873 8
0.933393 -2.74214 -0.766252 4
1.61221 -2.90895 -0.758623 8
2.22354 -6.61415 1.60035 32
2.76867 -5.02143 1.52504 39
2.22418 -6.61226 1.09692 35
2.84586 -5.18236 1.14144 12
2.15136 -6.39199 0.586994 17
2.85574 -5.21746 0.725005 14
0.975358 -2.89722 0.0527499 2
2.30836 -4.22627 0.250558 4
1.47853 -4.39664 -0.242072 8
1.62232 -2.97563 -0.0585528 26
1.66225 -4.95206 -0.636166 17
1.4986 -2.74836 -0.270296 49
1.2527 -3.73517 -0.75758 4
2.21101 -4.04517 -0.725481 8
0.917971 -2.74224 -0.764959 4
1.59813 -2.91949 -0.759185 8
2.21006 -6.60839 1.59811 33
2.75525 -5.01779 1.52246 39
2.21029 -6.60911 1.09575 35
2.85096 -5.21314 1.14716 12
2.13625 -6.38393 0.585904 15
2.30218 -4.23249 0.250689 4
1.46928 -4.39448 -0.24181 4
1.61592 -2.97626 -0.0585092 18
1.65753 -4.96672 -0.637688 20
1.49261 -2.74878 -0.270079 50
1.24695 -3.73968 -0.758056 4
2.20158 -4.04469 -0.724698 8
0.915468 -2.75072 -0.766899 4
1.59303 -2.92228 -0.759185 8
2.1678 -6.60442 1.59418 33
2.7223 -5.02201 1.51923 39
2.17064 -6.60924 1.0938 36
2.83556 -5.25224 1.1524 11
2.10013 -6.39066 0.585469 15
2.27688 -4.24049 0.250428 4
1.44548 -4.40237 -0.24181 3
1.60572 -2.99597 -0.0587273 14
1.62986 -4.97326 -0.637383 24
1.47889 -2.75901 -0.270296 52
1.22594 -3.74404 -0.75758 4
2.18154 -4.05834 -0.72509 8
0.900571 -2.75563 -0.766899 4
1.57604 -2.92871 -0.758623 4
2.15591 -6.60319 1.59305 33
2.70548 -5.01188 1.5147 39
2.15796 -6.6056 1.09263 35
2.83453 -5.2723 1.15574 11
2.08279 -6.37537 0.583726 15
2.27847 -4.25946 0.251343 4
1.44321 -4.4215 -0.242729 3
1.61347 -3.02301 -0.0592073 12
1.6159 -4.95694 -0.634949 30
1.47525 -2.76378 -0.270514 53
1.2194 -3.74617 -0.75758 3
0.89576 -2.7572 -0.766899 4
1.57144 -2.93118 -0.758623 4
2.11908 -6.60743 1.59137 33
2.67439 -5.01486 1.51147 41
2.12184 -6.6121 1.09185 36
2.81588 -5.30175 1.15908 8
2.04745 -6.37635 0.582854 15
3.21745 -6.0767 0.83879 3
2.25731 -4.27354 0.251474 3
1.4231 -4.43588 -0.243122 3
1.59068 -4.9677 -0.635254 36
1.46124 -2.77121 -0.270514 53
1.20416 -3.76399 -0.759961 8
2.04563 -3.87057 -0.688679 9
0.879593 -2.75479 -0.764959 4
1.55721 -2.94152 -0.759185 4
2.10426 -6.59682 1.588 35
2.66337 -5.01526 1.51018 41
2.10654 -6.60403 1.0899 36
2.81352 -5.31966 1.16194 8
2.03329 -6.37042 0.581982 15
3.208 -6.0845 0.839095 4
1.41611 -4.44073 -0.243254 3
1.58125 -4.9681 -0.634949 39
1.4506 -2.76274 -0.269426 53
1.1961 -3.7614 -0.759008 8
2.0262 -3.85011 -0.684372 11
0.876243 -2.76093 -0.766252 4
1.55435 -2.94854 -0.760308 4
2.06708 -6.60346 1.58688 35
2.62584 -5.00776 1.50372 39
2.06972 -6.6079 1.08873 36
2.79473 -5.35172 1.16575 8
1.99842 -6.37623 0.581547 17
1.55809 -4.97331 0.0903598 45
1.40249 -4.48169 -0.245092 3
1.38202 -2.66745 -0.0518336 9
1.55744 -4.98342 -0.635862 44
1.43218 -2.76392 -0.268774 49
1.17639 -3.76762 -0.759008 8
2.01172 -3.87161 -0.686329 8
0.861775 -2.76548 -0.766252 4
1.53551 -2.95016 -0.758623 4
2.05483 -6.60473 1.58631 36
2.61261 -5.00377 1.50113 39
2.05819 -6.61151 1.08873 36
2.79012 -5.36796 1.16813 4
1.98211 -6.36306 0.580021 17
1.54631 -4.96913 0.0902289 45
2.59907 -5.02452 0.294651 3
1.40578 -4.51989 -0.247061 3
1.37046 -2.65654 -0.0515719 9
1.5458 -4.97665 -0.634645 45
1.42736 -2.76642 -0.268774 32
1.16763 -3.76263 -0.75758 8
0.85789 -2.77174 -0.767545 4
1.53036 -2.95284 -0.758623 4
2.01551 -6.6041 1.58351 35
2.58329 -5.01354 1.49984 39
2.01734 -6.60601 1.08599 36
2.78105 -5.4196 1.17623 8
1.94401 -6.36178 0.578932 17
2.8721 -5.61586 0.769119 9
1.51881 -4.97238 0.0901417 45
2.57299 -5.04073 0.294782 4
1.39083 -4.55585 -0.248636 3
1.35607 -2.66391 -0.0515719 9
1.5174 -4.98019 -0.634037 45
1.41058 -2.76942 -0.268339 14
1.14654 -3.76655 -0.757104 8
2.11521 -4.1405 -0.731746 11
0.844066 -2.77851 -0.768192 4
1.51658 -2.96541 -0.759746 4
2.00231 -6.59794 1.58126 33
2.5668 -5.00301 1.49532 39
2.00481 -6.60208 1.08482 35
2.78613 -5.45284 1.18243 9
1.93146 -6.3604 0.578496 17
2.91629 -5.72424 0.783419 11
1.50868 -4.97024 0.0900544 45
2.5696 -5.05366 0.295306 4
1.39012 -4.58216 -0.249949 3
1.34802 -2.65959 -0.051441 11
1.50814 -4.97782 -0.633428 47
1.40575 -2.77188 -0.268339 14
1.14139 -3.77324 -0.758056 8
0.840609 -2.7846 -0.769485 4
1.50971 -2.96345 -0.758623 4
1.96704 -6.60599 1.5807 32
2.54035 -5.01379 1.49467 39
1.96669 -6.60066 1.08287 36
2.77067 -5.49096 1.18767 8
1.89498 -6.35577 0.577189 17
2.86159 -5.68796 0.776421 14
1.4835 -4.97781 0.0900544 45
2.5274 -5.03582 0.293474 4
1.37617 -4.62025 -0.251655 3
1.33229 -2.66191 -0.0513537 9
1.4808 -4.97825 -0.632515 45
1.39282 -2.78118 -0.268557 15
1.12293 -3.77877 -0.758056 8
0.825819 -2.7865 -0.768838 4
1.95389 -6.59973 1.57845 32
2.52484 -5.00268 1.49015 39
1.95352 -6.59427 1.08131 36
2.78522 -5.54134 1.19768 9
1.88358 -6.35396 0.576753 18
2.99079 -5.97017 0.814451 15
1.47143 -4.96575 0.0897926 45
1.38378 -4.67268 -0.254412 3
1.32699 -2.66177 -0.0513101 9
1.46947 -4.96867 -0.630994 47
1.38845 -2.78337 -0.268557 49
1.11634 -3.78073 -0.758056 8
1.46378 -2.92875 -0.51367 8
0.824167 -2.79706 -0.771425 4
1.92094 -6.60686 1.57789 33
2.49821 -5.01064 1.48886 38
1.91989 -6.59899 1.08053 36
2.77669 -5.59224 1.20578 9
1.84972 -6.35353 0.575882 20
2.9759 -6.01362 0.818406 17
1.44574 -4.96808 0.0897054 47
1.31397 -2.66822 -0.0513101 9
1.44292 -4.97128 -0.630386 45
1.37324 -2.78813 -0.268339 33
1.09785 -3.78614 -0.758056 4
1.44236 -2.92285 -0.511321 11
0.807137 -2.78946 -0.768192 4
1.9067 -6.60084 1.57565 35
2.483 -5.00202 1.48498 36
1.90631 -6.59522 1.07936 38
2.86831 -5.8043 1.25058 12
1.85038 -6.39742 0.579586 11
2.95552 -5.99878 0.815668 14
1.43482 -4.96605 0.0896181 47
1.34617 -2.74299 0.158316 15
1.43359 -4.96504 -0.269903 41
1.3071 -2.66603 -0.0512228 9
1.43286 -4.96902 -0.629777 45
1.37057 -2.79499 -0.268774 11
1.08785 -3.77625 -0.755675 4
1.43835 -2.92758 -0.511713 9
0.80178 -2.791 -0.768192 4
1.86897 -6.60403 1.57396 35
2.44846 -5.00021 1.48045 35
1.86724 -6.59355 1.07741 36
1.84288 -6.50319 0.588301 11
2.91976 -6.00799 0.814755 14
1.40675 -4.96628 0.0894872 47
1.32694 -2.74125 0.157793 17
1.40621 -4.96767 -0.26964 53
1.29484 -2.67756 -0.0513101 12
1.40394 -4.96954 -0.628865 45
1.35809 -2.8066 -0.269209 9
1.0674 -3.78208 -0.755675 4
1.42573 -2.94198 -0.512887 8
0.787156 -2.79516 -0.768192 4
1.85662 -6.59992 1.57228 33
2.43867 -5.0023 1.47981 33
1.85573 -6.5968 1.07741 38
1.85648 -6.5951 0.596363 35
2.90602 -6.00638 0.813843 14
1.39606 -4.9615 0.0893563 45
1.31889 -2.73682 0.1574 26
1.39687 -4.96772 -0.269509 45
1.28799 -2.67531 -0.0512228 23
1.39258 -4.96242 -0.627648 45
1.35319 -2.80897 -0.269209 14
1.06344 -3.7934 -0.75758 4
0.781627 -2.79421 -0.767545 4
1.817 -6.59578 1.56891 32
2.4072 -5.00413 1.47658 32
1.81788 -6.59452 1.07546 36
3.11683 -6.50487 1.39404 23
1.82192 -6.60473 0.596363 39
2.86597 -6.0036 0.811409 15
1.36807 -4.96152 0.0892254 45
1.3067 -2.74819 0.157662 29
1.36819 -4.96533 -0.268984 45
1.27289 -2.67976 -0.0511792 9
1.36461 -4.96247 -0.626735 45
1.33632 -2.81152 -0.268774 15
1.04032 -3.78708 -0.755199 4
1.806 -6.59627 1.56835 33
2.39323 -4.99743 1.47335 27
1.80311 -6.58578 1.07351 36
3.16684 -6.63873 1.42168 32
1.80776 -6.59829 0.595492 38
2.85549 -6.00859 0.811409 15
1.3594 -4.9639 0.0892254 45
1.30083 -2.74821 0.157531 24
1.36018 -4.97012 -0.269115 45
1.26285 -2.67069 -0.050961 9
1.35529 -4.96245 -0.626431 45
1.33889 -2.8296 -0.270296 9
1.03629 -3.79836 -0.757104 4
1.76965 -6.60359 1.56778 35
2.36393 -5.00335 1.47141 24
1.76733 -6.59036 1.07273 38
3.13308 -6.65744 1.42216 35
1.77061 -6.59805 0.59462 38
1.33081 -4.96129 0.0890509 45
1.2896 -2.76177 0.157924 14
1.33197 -4.97259 -0.268852 45
1.24779 -2.675 -0.0509174 9
1.32865 -4.96708 -0.626126 45
1.32145 -2.83229 -0.269861 11
1.01702 -3.8061 -0.75758 4
1.75562 -6.59726 1.56554 35
2.35211 -5.00091 1.46947 20
1.75455 -6.58866 1.07195 33
3.113 -6.64789 1.41882 30
1.75461 -6.58428 0.593095 38
1.32064 -4.96142 0.0890073 45
1.32009 -4.96284 -0.268196 45
1.24417 -2.67944 -0.050961 9
1.31871 -4.9646 -0.625518 45
1.32387 -2.85039 -0.271383 14
1.00975 -3.8055 -0.757104 8
1.71683 -6.59487 1.56273 33
2.31585 -4.99386 1.46365 15
1.71639 -6.5885 1.07039 36
3.07094 -6.64851 1.41548 29
1.29149 -4.95617 0.0887891 47
1.2922 -4.96243 -0.267802 45
1.22861 -2.68386 -0.0509174 9
1.28809 -4.95725 -0.623693 39
1.31622 -2.87312 -0.272906 14
1.34882 -2.94003 -0.507406 3
2.30206 -4.98693 1.46042 15
3.05111 -6.63602 1.41167 27
1.28284 -4.95842 0.0887891 36
1.28042 -4.9526 -0.267146 8
1.22497 -2.68827 -0.050961 14
1.26209 -4.8922 -0.615174 2
1.30705 -2.86636 -0.272036 11
2.27091 -4.98793 1.45719 14
1.24889 -4.92993 0.44188 2
1.24583 -4.92145 0.0880038 2
1.24285 -4.91324 -0.264652 2
1.20985 -2.69237 -0.0509174 23
1.24556 -4.93484 -0.619737 3
1.28998 -2.86862 -0.271601 9
1.23692 -4.92225 1.1618 1
2.25321 -4.9721 1.45138 12
1.23442 -4.91231 0.794887 2
1.23483 -4.91036 0.439919 2
1.23176 -4.90179 0.0876111 2
1.20412 -2.6922 -0.0508738 11
1.23273 -4.92015 -0.617608 2
1.29212 -2.88677 -0.273123 9
1.20737 -4.91704 1.15899 2
2.22221 -4.97281 1.44814 12
1.20868 -4.9187 0.794887 2
2.2083 -4.96481 1.04851 1
1.24262 -2.80936 0.37239 4
1.26337 -2.86142 0.162111 12
1.18798 -2.6939 -0.0507865 9
1.27698 -2.8935 -0.273123 9
1.89655 -4.28564 -0.737618 9
2.20763 -4.96344 1.44427 2
2.19266 -4.95296 1.04517 2
1.24173 -2.82061 0.373607 9
1.25233 -2.84991 0.161326 14
1.18328 -2.69597 -0.0507865 9
1.26087 -2.87066 -0.270731 9
1.88208 -4.27313 -0.734878 9
2.1788 -4.97089 1.44297 2
1.22546 -2.82501 0.373303 9
1.2339 -2.84978 0.160933 14
1.16768 -2.70004 -0.0507429 9
1.25426 -2.89799 -0.272688 8
1.86189 -4.29004 -0.736052 8
2.16334 -4.9592 1.43845 3
1.21361 -2.81121 0.371173 4
1.22595 -2.84506 0.160541 12
1.16396 -2.70437 -0.0507865 9
1.22152 -2.83617 -0.266599 4
1.84949 -4.28196 -0.734095 8
1.32065 -3.0524 -0.758623 8
2.13352 -4.96159 1.43587 3
1.20083 -2.82209 0.371782 11
1.21104 -2.85144 0.160541 12
1.15076 -2.71272 -0.0508301 11
1.18809 -2.799 -0.262468 3
1.83092 -4.30067 -0.735661 8
1.30465 -3.05927 -0.758623 8
2.11819 -4.94977 1.43134 2
1.19105 -2.81276 0.37026 9
1.20021 -2.83976 0.159755 12
1.1509 -2.72623 -0.0510483 15
1.18709 -2.81024 -0.263338 3
1.83017 -4.31976 -0.738401 4
1.29835 -3.0593 -0.758062 8
2.08567 -4.94522 1.42682 2
2.78446 -6.62997 1.38975 38
1.1763 -2.81896 0.37026 9
1.18532 -2.846 0.159755 11
1.13661 -2.73222 -0.0510483 15
1.16515 -2.80054 -0.261815 3
1.80753 -4.32929 -0.738401 4
1.28326 -3.0683 -0.758623 8
2.07328 -4.93995 1.42423 2
2.77267 -6.63757 1.39023 33
1.16947 -2.81643 0.369652 9
1.17939 -2.84576 0.159625 12
1.1328 -2.73651 -0.0510919 9
0.502269 -2.27041 -0.280814 8
1.16217 -2.80717 -0.26225 3
1.79902 -4.33016 -0.73801 4
1.27884 -3.07278 -0.759185 4
2.04005 -4.93548 1.41971 2
2.73133 -6.63612 1.38689 39
1.15704 -2.8296 0.370565 8
1.16777 -2.86134 0.160148 15
1.11893 -2.74491 -0.0511355 9
0.489456 -2.27067 -0.28051 8
1.14746 -2.81321 -0.26225 2
0.488045 -2.26793 -0.44331 3
1.78101 -4.35094 -0.739967 4
1.2622 -3.07966 -0.759185 8
2.03144 -4.93903 1.41971 2
0.483602 -2.25297 0.358616 8
2.71695 -6.63406 1.38546 32
0.481921 -2.24518 0.197844 8
1.14884 -2.82222 0.369348 8
0.481173 -2.24359 0.0394424 9
1.16327 -2.86317 0.160148 29
1.11885 -2.75843 -0.0513537 9
0.483818 -2.26173 -0.279293 11
0.482554 -2.26157 -0.441882 9
1.77342 -4.35404 -0.739967 4
1.25274 -3.07037 -0.756377 4
2.0055 -4.94701 1.41907 2
0.473312 -2.26273 0.359787 8
2.68058 -6.6409 1.38403 32
0.47106 -2.25002 0.198061 8
1.13312 -2.8259 0.369043 8
0.470831 -2.25089 0.0395297 11
1.15013 -2.87386 0.16041 30
1.10767 -2.77102 -0.0514846 9
0.471969 -2.26423 -0.279293 8
0.472098 -2.26879 -0.442834 4
1.75705 -4.3793 -0.742708 4
1.23574 -3.07462 -0.755816 4
1.99415 -4.94379 1.41713 2
0.468862 -2.26113 0.359397 9
2.66141 -6.6301 1.38069 30
0.465114 -2.24109 0.19719 9
1.12911 -2.83018 0.369348 8
0.466509 -2.25179 0.0395297 8
1.14418 -2.87354 0.160279 24
1.10469 -2.77759 -0.0515719 9
0.467015 -2.26019 -0.278684 9
0.465171 -2.25519 -0.439977 4
1.74848 -4.38007 -0.742316 8
1.22674 -3.06773 -0.75357 8
1.96827 -4.95675 1.41777 3
0.454674 -2.25395 0.357836 8
2.62124 -6.63025 1.37783 32
0.452982 -2.24357 0.19719 9
1.11651 -2.84317 0.37026 8
0.453727 -2.2493 0.0394424 9
1.13045 -2.88434 0.160541 23
0.454755 -2.25645 -0.119198 8
1.08964 -2.78353 -0.0515719 8
0.45673 -2.27241 -0.279901 4
0.452963 -2.25767 -0.439977 3
1.72553 -4.38916 -0.742316 8
1.20923 -3.07206 -0.753008 11
1.95339 -4.94446 1.41325 2
0.451133 -2.25466 0.357836 8
2.60786 -6.63025 1.37688 32
0.446629 -2.23215 0.1961 9
1.1193 -2.8634 0.372694 8
0.448335 -2.24274 0.0393115 9
1.12683 -2.88843 0.160671 20
0.451303 -2.25969 -0.11933 8
1.09025 -2.79939 -0.0518336 8
0.452192 -2.26826 -0.279293 4
0.449976 -2.26328 -0.44093 3
1.71786 -4.39217 -0.742316 8
1.19994 -3.06262 -0.7502 9
1.93097 -4.96103 1.41519 2
0.438381 -2.25215 0.357055 4
2.56805 -6.62735 1.37354 32
0.43675 -2.24171 0.196754 8
1.10429 -2.86922 0.372694 8
0.437454 -2.24743 0.0393552 4
1.11348 -2.89895 0.160933 15
0.43796 -2.25214 -0.118804 4
1.07696 -2.80721 -0.0518773 11
0.44031 -2.2706 -0.279293 4
0.43805 -2.26311 -0.440453 3
1.69484 -4.4011 -0.742316 8
1.18477 -3.07113 -0.750762 11
1.91794 -4.95314 1.41196 2
0.433517 -2.24806 0.356275 4
2.55294 -6.62267 1.37164 32
0.433308 -2.24492 0.196972 4
0.432587 -2.24328 0.0392679 8
1.11379 -2.91487 0.161718 14
0.432616 -2.24555 -0.118411 4
1.06938 -2.80208 -0.0517464 14
0.434479 -2.26161 -0.278076 4
0.433178 -2.25905 -0.439501 4
1.68716 -4.40405 -0.742316 9
1.1724 -3.05501 -0.74627 9
1.88939 -4.95634 1.41002 3
0.421287 -2.24787 0.355884 4
2.51649 -6.63136 1.37068 32
0.420632 -2.24226 0.196536 8
0.419458 -2.23814 0.039137 9
0.421375 -2.25277 -0.118673 4
1.05646 -2.81232 -0.0518336 12
0.422688 -2.26853 -0.44093 4
1.66058 -4.40359 -0.74075 9
0.420694 -2.26872 -0.608475 4
1.16243 -3.07705 -0.7502 3
1.87301 -4.9419 1.40485 2
0.417363 -2.2486 0.355884 3
2.49941 -6.6247 1.3683 32
0.416326 -2.24306 0.196536 8
2.48571 -6.61276 0.861913 32
0.416523 -2.24632 0.0392679 12
0.416536 -2.24859 -0.118411 4
1.05018 -2.812 -0.05179 11
1.86541 -4.98175 -0.461439 55
0.416558 -2.25968 -0.439025 4
1.62246 -4.3256 -0.727047 3
0.417169 -2.27183 -0.609122 3
1.16082 -3.09068 -0.753008 4
1.84709 -4.95423 1.4055 2
0.405234 -2.25333 0.356275 3
2.46011 -6.62892 1.3664 32
0.403744 -2.24283 0.196318 11
2.44357 -6.61257 0.860087 33
0.404363 -2.24854 0.0392679 14
0.404364 -2.25081 -0.118411 8
1.04014 -2.83171 -0.0520518 11
1.83671 -4.98709 -0.461004 45
0.405187 -2.26674 -0.439977 4
1.60513 -4.35312 -0.730179 9
0.405715 -2.27881 -0.610415 3
1.14663 -3.10376 -0.754693 4
1.83423 -4.94612 1.40226 2
0.400006 -2.24674 0.355104 4
2.44684 -6.6286 1.36544 32
0.398523 -2.23618 0.195665 11
2.43117 -6.6145 0.859783 35
0.399129 -2.24186 0.039137 12
0.398257 -2.23922 -0.117754 11
1.03778 -2.84056 -0.0521827 3
1.82457 -4.98094 -0.460134 45
0.400804 -2.26502 -0.439501 4
1.59582 -4.35128 -0.729396 11
0.401737 -2.27951 -0.610415 3
1.14627 -3.11947 -0.758062 4
1.8083 -4.95566 1.40226 2
0.388237 -2.2488 0.355104 8
2.4079 -6.62979 1.36306 32
0.386809 -2.23823 0.195665 11
2.39312 -6.61781 0.858566 35
0.389927 -2.2587 0.0393988 11
0.387795 -2.24865 -0.118148 11
1.03054 -2.86712 -0.0525754 2
0.389766 -2.27193 -0.440453 8
1.59648 -4.42198 -0.739967 12
0.391011 -2.28873 -0.612355 4
1.13075 -3.12772 -0.758623 8
1.798 -4.95427 1.40097 2
0.383874 -2.24454 0.354324 9
2.39215 -6.62245 1.36068 32
0.384157 -2.24627 0.196318 11
2.37767 -6.60755 0.856741 35
0.385565 -2.25691 0.0393552 14
0.383452 -2.24687 -0.118017 11
1.02807 -2.87597 -0.0527063 2
0.386618 -2.27744 -0.441406 8
1.5896 -4.42708 -0.740359 12
0.387417 -2.29179 -0.613002 4
1.12584 -3.12949 -0.758623 8
1.7729 -4.96331 1.40097 2
0.374931 -2.26357 0.357055 4
2.35613 -6.62753 1.35925 32
0.373594 -2.2531 0.196754 4
2.33889 -6.60822 0.855219 33
0.374951 -2.26377 0.0394424 3
1.75627 -4.97665 0.274764 4
0.374511 -2.26356 -0.118804 11
1.01516 -2.88585 -0.0527935 2
1.69801 -4.81471 -0.442738 12
0.376278 -2.28664 -0.442834 4
1.57625 -4.46067 -0.744666 12
0.377369 -2.30325 -0.615588 4
1.11107 -3.13994 -0.759746 4
1.7618 -4.95957 1.39903 3
0.370579 -2.25929 0.356275 4
2.3421 -6.6247 1.35782 33
0.370063 -2.25621 0.196972 4
2.32438 -6.60018 0.853698 33
0.370194 -2.25948 0.0393552 11
1.75011 -4.98411 0.275025 8
0.370559 -2.26421 -0.118804 9
1.02256 -2.92299 -0.053448 3
1.74663 -4.97978 -0.457742 45
0.372679 -2.28971 -0.44331 4
1.5742 -4.47972 -0.747406 9
0.372578 -2.29914 -0.614295 4
1.10451 -3.13708 -0.758623 4
1.73268 -4.95703 1.3958 3
0.361057 -2.27583 0.358616 8
2.30288 -6.62024 1.35448 32
0.360195 -2.26789 0.197844 9
2.28979 -6.61226 0.853698 33
0.359533 -2.26627 0.0394424 9
1.72072 -4.98377 0.274502 9
0.360651 -2.27592 -0.11933 8
1.02001 -2.96356 -0.0541025 3
1.71733 -4.97679 -0.456655 45
0.360704 -2.28915 -0.442834 4
1.5483 -4.4809 -0.746232 8
0.360937 -2.301 -0.614295 4
1.09047 -3.14973 -0.760308 4
1.72642 -4.96689 1.39774 3
0.355941 -2.26914 0.357445 4
2.2873 -6.61266 1.3521 33
0.355467 -2.26359 0.197408 9
2.2742 -6.60452 0.852177 33
0.356735 -2.2743 0.0395733 8
1.7104 -4.98205 0.27424 9
0.357064 -2.27901 -0.119461 4
1.70783 -4.97742 -0.456437 45
0.357461 -2.29462 -0.443787 4
1.53887 -4.47893 -0.745449 8
0.356183 -2.29685 -0.613002 4
1.08258 -3.14472 -0.758623 4
1.69569 -4.96215 1.39386 4
0.345897 -2.28318 0.359397 4
2.25027 -6.61758 1.35067 33
0.344726 -2.27281 0.198061 8
2.23879 -6.61399 0.851873 33
0.342957 -2.26378 0.0393552 9
1.68189 -4.98384 0.273848 9
0.344754 -2.27838 -0.11933 8
1.67935 -4.97922 -0.455785 45
0.344351 -2.28918 -0.442358 8
1.5154 -4.48692 -0.745449 8
0.34344 -2.29391 -0.611708 8
1.06924 -3.15957 -0.760869 4
1.68391 -4.95596 1.39128 4
0.340455 -2.27401 0.357836 3
2.23636 -6.61452 1.34924 33
0.340759 -2.27341 0.198061 8
2.22248 -6.60378 0.850047 33
0.339743 -2.26932 0.0394424 9
1.67159 -4.98204 0.273586 9
0.340777 -2.27898 -0.11933 8
0.34012 -2.28273 -0.278684 3
1.66748 -4.9727 -0.454915 45
0.340714 -2.29221 -0.442834 8
1.50914 -4.49424 -0.746232 9
0.338732 -2.28972 -0.610415 8
1.06294 -3.15912 -0.760308 4
1.661 -4.97387 1.39386 4
0.327489 -2.26843 0.356665 4
2.19859 -6.61683 1.34733 33
0.327076 -2.26284 0.196972 4
2.18475 -6.6059 0.84883 33
0.326434 -2.26117 0.0392679 9
1.64627 -4.99309 0.273717 9
0.327775 -2.27332 -0.118936 9
1.63634 -4.96886 -0.0907089 45
0.328163 -2.28448 -0.278684 4
1.63829 -4.97191 -0.454045 45
0.327668 -2.28667 -0.441406 8
1.48481 -4.49974 -0.74584 8
0.326399 -2.28907 -0.609768 4
1.04792 -3.16927 -0.761431 8
1.64698 -4.96072 1.38934 4
2.18395 -6.61133 1.34543 33
0.323477 -2.26587 0.19719 4
2.17167 -6.60499 0.848222 33
0.322838 -2.26421 0.0393115 9
1.63443 -4.98647 0.273194 9
0.324157 -2.27636 -0.119067 9
1.62532 -4.96458 -0.090578 45
0.323481 -2.28014 -0.278076 4
1.6265 -4.96529 -0.453176 45
0.324019 -2.28967 -0.441882 8
1.47541 -4.49763 -0.745057 8
0.323744 -2.29921 -0.612355 4
1.04315 -3.17341 -0.761993 8
1.63225 -5.0037 1.39903 8
2.14627 -6.61334 1.34352 35
0.310596 -2.26013 0.196536 8
2.13476 -6.60919 0.847309 33
0.310301 -2.26092 0.0392243 9
1.60677 -4.99021 0.272932 9
0.310488 -2.26819 -0.118542 9
1.59777 -4.96827 -0.0904907 44
0.311204 -2.27934 -0.277771 4
1.59809 -4.96928 -0.452741 45
0.310377 -2.27917 -0.439501 4
1.45032 -4.50059 -0.744274 8
0.312024 -2.30326 -0.613002 4
1.02502 -3.17419 -0.760869 4
2.13131 -6.61045 1.34209 33
0.307317 -2.2656 0.196972 8
2.12018 -6.60346 0.846092 33
0.306627 -2.26646 0.0393115 8
1.595 -4.9835 0.272409 9
0.30786 -2.27862 -0.119067 8
1.58681 -4.96391 -0.0903598 45
0.307885 -2.2848 -0.27838 4
1.58789 -4.96732 -0.452306 45
0.307375 -2.28701 -0.44093 9
1.44549 -4.51252 -0.74584 8
0.307601 -2.30386 -0.613002 8
1.01948 -3.17597 -0.760869 4
2.09518 -6.61684 1.34114 33
0.294735 -2.26476 0.196754 8
2.07994 -6.60064 0.844267 33
0.294756 -2.26804 0.0393115 9
1.56576 -4.98491 0.272016 8
0.294646 -2.2703 -0.118542 9
1.55693 -4.96288 -0.0901853 44
0.296468 -2.29382 -0.279293 3
1.55961 -4.96844 -0.451653 45
0.294684 -2.28621 -0.440453 3
1.4211 -4.51767 -0.745449 4
0.29584 -2.30783 -0.613648 8
1.00081 -3.1768 -0.759746 4
2.09836 -6.62704 1.85073 1
2.08141 -6.61346 1.33971 35
0.290782 -2.26528 0.196754 11
2.06734 -6.59679 0.843354 35
0.292062 -2.27847 0.0394861 9
1.55868 -4.98975 0.272147 9
0.291945 -2.28072 -0.119067 9
1.54602 -4.95844 -0.0900544 45
0.292865 -2.29428 -0.279293 3
1.54871 -4.96402 -0.451001 45
0.291618 -2.29402 -0.441882 9
1.41912 -4.53899 -0.748581 4
0.291208 -2.30355 -0.612355 71
0.995818 -3.17837 -0.759746 4
2.05185 -6.59607 1.8391 1
2.04428 -6.61219 1.33732 33
0.278706 -2.26177 0.196318 8
2.02984 -6.59804 0.842137 35
0.279919 -2.27495 0.0393988 9
1.52959 -4.98829 0.271624 9
0.280302 -2.28469 -0.119198 3
1.51577 -4.94947 -0.089749 44
0.281448 -2.30071 -0.279901 52
1.52123 -4.9673 -0.450566 47
0.280299 -2.2979 -0.442358 56
1.39098 -4.5322 -0.746232 4
0.279545 -2.305 -0.612355 58
0.980602 -3.18819 -0.760869 4
2.02604 -6.55351 1.82617 1
2.02942 -6.60907 1.33589 35
0.275655 -2.26968 0.196972 8
2.01541 -6.59208 0.84092 36
0.277046 -2.28789 0.039617 47
1.51943 -4.98618 0.271362 9
0.278103 -2.30005 -0.119986 53
1.50859 -4.95689 -0.0898363 45
0.276841 -2.29627 -0.279293 50
1.51038 -4.9628 -0.449914 45
0.276288 -2.29839 -0.442358 50
1.3874 -4.54879 -0.748581 8
0.27512 -2.30553 -0.612355 59
0.972889 -3.18291 -0.759185 4
1.9779 -6.52278 1.81454 1
1.99336 -6.6149 1.33494 33
0.263085 -2.26866 0.196754 8
1.97829 -6.59814 0.840312 36
0.265063 -2.28931 0.039617 53
1.49386 -4.99911 0.271624 11
0.265486 -2.29651 -0.119723 52
1.47673 -4.94822 -0.0895308 45
0.264413 -2.29773 -0.279293 52
1.48223 -4.96349 -0.449261 47
0.26357 -2.29741 -0.441882 50
1.36427 -4.55836 -0.748972 8
0.262772 -2.30454 -0.611708 59
0.958465 -3.19746 -0.761431 8
1.98398 -6.58402 1.8307 1
1.97829 -6.60662 1.33256 33
0.258001 -2.25922 0.195883 8
1.96508 -6.59173 0.839095 36
0.261348 -2.29226 0.0396606 53
1.4803 -4.98231 0.270577 9
0.262039 -2.30193 -0.119986 53
1.47094 -4.96037 -0.0897054 42
0.260247 -2.29321 -0.278684 52
1.47143 -4.9589 -0.448609 47
0.259012 -2.29299 -0.44093 52
1.35844 -4.56783 -0.750147 4
0.258482 -2.3026 -0.611062 59
0.952043 -3.19429 -0.760308 4
1.95406 -6.60556 1.83393 1
1.94205 -6.60713 1.33065 33
0.246831 -2.26297 0.1961 9
1.92844 -6.59478 0.838182 35
0.249205 -2.28858 0.0395733 55
1.44859 -4.97082 0.26953 9
0.249714 -2.30079 -0.119855 55
1.4367 -4.93656 -0.0891382 8
0.248236 -2.29454 -0.278684 52
1.44545 -4.96654 -0.448609 47
0.247926 -2.29915 -0.441882 50
1.33658 -4.58199 -0.751321 4
0.246056 -2.29667 -0.609122 59
0.935305 -3.19924 -0.760308 4
1.94048 -6.60201 1.83199 1
1.92522 -6.59672 1.32779 35
0.242089 -2.25597 0.195447 9
1.91554 -6.59337 0.837573 35
0.245339 -2.29402 0.0396606 56
1.43573 -4.95896 0.268745 8
0.244908 -2.29378 -0.119461 55
1.43157 -4.95106 -0.0893563 24
0.244492 -2.29744 -0.278988 52
1.43539 -4.96427 -0.448174 47
0.243656 -2.29714 -0.441406 52
1.32927 -4.58669 -0.751713 4
0.2424 -2.30434 -0.611062 58
0.932452 -3.21022 -0.762554 4
0.570179 -5.63851 1.29825 11
1.90138 -6.60081 1.82876 1
0.570932 -5.63624 0.889711 12
1.8893 -6.60199 1.32684 33
0.228876 -2.24733 0.194575 9
1.87712 -6.5941 0.836356 36
0.232319 -2.28533 0.0394861 53
1.40888 -4.96666 0.268745 4
0.233395 -2.3 -0.119723 55
1.40134 -4.94672 -0.0891382 45
0.232058 -2.29873 -0.278988 52
1.40801 -4.96693 -0.447739 47
0.231223 -2.29843 -0.441406 50
1.30592 -4.59596 -0.752104 4
0.229854 -2.30078 -0.609768 59
0.912388 -3.20585 -0.760308 4
0.561562 -5.64182 1.29881 11
1.88853 -6.59948 1.82747 1
0.565011 -5.66662 0.894394 12
1.87509 -6.59584 1.32493 33
0.2252 -2.25021 0.194793 9
1.86608 -6.59465 0.836052 35
