# .PCD v0.7 - Point Cloud Data file format
VERSION 0.7
FIELDS x y z intensity
SIZE 4 4 4 4
TYPE F F F F
COUNT 1 1 1 1
WIDTH 1605
HEIGHT 1
VIEWPOINT 0 0 0 1 0 0 0
POINTS 1605
DATA ascii
-2.82597 0.441424 0.756059 47
-2.70025 0.934623 0.446026 47
-2.8389 0.448441 0.551419 50
-2.83513 0.451873 0.347747 49
-0.634941 0.218774 -0.0334753 58
-0.685214 0.11361 -0.0115186 4
-0.643502 0.106885 -0.0539288 90
-0.782208 0.128489 -0.120196 55
-0.769905 0.125761 -0.171827 52
-2.67082 0.940622 0.644633 49
-2.82362 0.456214 0.756059 47
-2.69765 0.94957 0.446416 45
-2.83167 0.462517 0.550466 50
-2.82783 0.465913 0.347138 49
-2.84457 0.470664 0.149288 70
-0.62904 0.220544 -0.0332127 56
-0.689543 0.118006 -0.0116058 4
-0.637999 0.109559 -0.0534938 90
-0.779088 0.132185 -0.119804 55
-0.764427 0.12901 -0.170704 52
-2.67147 0.946097 0.645195 50
-2.82043 0.460756 0.755413 49
-2.68901 0.951801 0.445246 45
-2.83077 0.467952 0.550466 50
-2.82946 0.471251 0.347442 53
-2.8536 0.477259 0.149812 90
-0.628654 0.221642 -0.0332127 58
-0.681938 0.117982 -0.011475 4
-0.63535 0.110264 -0.0532764 90
-0.783728 0.134349 -0.120587 55
-0.766604 0.130738 -0.171266 52
-2.66402 0.95971 0.644633 50
-2.81552 0.475611 0.754767 49
-2.67685 0.963823 0.444075 45
-2.82587 0.482359 0.54999 50
-2.82931 0.48697 0.347747 55
-1.44419 0.519322 0.0261786 4
-2.84851 0.49227 0.149681 90
-0.625136 0.224083 -0.0330815 58
-0.686217 0.122514 -0.0115622 4
-1.42656 0.514082 -0.181631 4
-0.642128 0.114851 -0.0539288 89
-0.780556 0.138172 -0.120196 55
-0.768288 0.135292 -0.171827 52
-2.6648 0.964724 0.645195 49
-2.8123 0.480122 0.754121 49
-2.67516 0.968494 0.444075 47
-2.82502 0.48729 0.54999 52
-2.82601 0.491486 0.347442 59
-1.44563 0.522694 0.0262222 4
-2.84519 0.496815 0.14955 90
-0.62005 0.223471 -0.0328189 56
-0.686002 0.123712 -0.0115622 8
-1.43032 0.518266 -0.18224 4
-0.637019 0.115122 -0.0534938 89
-0.77788 0.139115 -0.119804 55
-0.76805 0.136632 -0.171827 52
-2.65269 0.9766 0.64351 49
-2.80975 0.494841 0.754121 49
-2.66774 0.981634 0.443685 49
-2.82243 0.502075 0.54999 52
-2.8234 0.506276 0.347442 59
-1.44287 0.530256 0.0262222 4
-2.84255 0.511706 0.14955 90
-0.621214 0.227578 -0.0329502 56
-0.690266 0.128181 -0.0116495 9
-1.42061 0.523169 -0.181327 4
-0.638859 0.118894 -0.0537113 86
-1.29243 0.476339 -0.260463 4
-0.777166 0.14305 -0.119804 55
-0.769723 0.141076 -0.172389 52
-2.65572 0.982458 0.644633 49
-2.80888 0.499744 0.754121 49
-2.66156 0.984108 0.442904 49
-2.82155 0.507 0.54999 52
-2.8226 0.51071 0.347442 56
-1.4396 0.531905 0.0261786 8
-2.83437 0.514844 0.149157 59
-0.623157 0.22953 -0.0330815 56
-0.685122 0.128498 -0.0115622 8
-1.42444 0.527127 -0.181936 4
-0.63865 0.120008 -0.0537113 85
-1.3031 0.482869 -0.262844 4
-0.779345 0.144843 -0.120196 55
-1.00409 0.372504 -0.277403 4
-0.771899 0.142713 -0.17295 52
-2.65054 0.99635 0.644633 50
-2.80394 0.513524 0.753475 50
-2.65869 0.9989 0.443295 50
-2.81412 0.520391 0.549036 50
-2.81501 0.524581 0.346834 53
-1.44157 0.540945 0.0262659 4
-2.82673 0.528768 0.148896 56
-0.61961 0.23191 -0.0329502 56
-0.684462 0.131964 -0.0115622 8
-1.41933 0.533702 -0.181631 4
-0.640462 0.123805 -0.0539288 80
-1.29146 0.485992 -0.260939 3
-0.778576 0.148921 -0.120196 55
-1.00445 0.378435 -0.278049 4
-0.771141 0.146753 -0.17295 50
-2.6488 1.00097 0.644633 50
-2.80542 0.518852 0.754121 49
-2.65463 1.00266 0.442904 52
-2.81311 0.525792 0.549036 52
-2.81165 0.529039 0.34653 50
-1.44521 0.545481 0.0263531 4
-2.8258 0.533701 0.148896 55
-0.623874 0.234759 -0.0332127 56
-0.684231 0.133158 -0.0115622 8
-1.42768 0.539697 -0.182848 4
-0.642693 0.125382 -0.0541462 79
-1.30208 0.492599 -0.26332 4
-0.771034 0.14892 -0.119021 53
-1.00372 0.380363 -0.278049 4
-0.773279 0.148543 -0.173512 52
-2.64561 1.01617 0.645195 50
-2.80494 0.534471 0.754767 50
-2.64686 1.01613 0.442514 52
-2.81514 0.541433 0.54999 50
-1.47447 0.565104 0.135091 4
-2.80875 0.544244 0.34653 49
-1.44 0.552144 0.0263095 4
-2.82287 0.548982 0.148896 55
-0.622636 0.238022 -0.0332127 55
-0.688409 0.137806 -0.0116495 8
-1.42937 0.549198 -0.183457 4
-0.639582 0.128274 -0.0539288 79
-1.29253 0.496987 -0.261891 4
-0.775066 0.154022 -0.119804 53
-0.994955 0.383002 -0.276109 4
-0.770071 0.152267 -0.17295 52
-2.63947 1.01856 0.644072 50
-2.79926 0.538461 0.753475 49
-2.64048 1.01896 0.441734 53
-2.8142 0.546346 0.54999 50
-1.47116 0.566779 0.134874 4
-2.81023 0.549617 0.346834 49
-1.43903 0.554656 0.0263095 4
-2.82191 0.553908 0.148896 58
-0.629206 0.24181 -0.0336066 58
-0.690621 0.139486 -0.0116931 8
-1.42378 0.549899 -0.182848 4
-0.636912 0.128914 -0.0537113 79
-1.29852 0.501904 -0.26332 3
-0.774796 0.155375 -0.119804 53
-0.996536 0.385612 -0.276756 3
-0.769804 0.153611 -0.17295 50
-2.63637 1.03326 0.644633 50
-2.7965 0.552623 0.753475 49
-2.63758 1.03322 0.442124 53
-2.81139 0.560583 0.54999 50
-1.47755 0.577854 0.135745 4
-2.80498 0.563349 0.34653 49
-1.44551 0.565584 0.026484 4
-2.82152 0.568673 0.149027 61
-0.630255 0.246013 -0.0337378 58
-0.689906 0.14298 -0.0116931 8
-1.4256 0.558914 -0.183457 4
-0.643555 0.133713 -0.0543637 76
-1.3051 0.512064 -0.265224 3
-0.771578 0.158811 -0.119413 52
-0.990078 0.388879 -0.275463 4
-0.769017 0.157505 -0.17295 50
-2.6323 1.03697 0.644072 50
-2.79316 0.557034 0.752828 49
-2.63807 1.03873 0.442514 52
-2.80791 0.565499 0.549513 50
-1.46959 0.577693 0.135091 4
-2.80642 0.568733 0.346834 52
-1.4421 0.567441 0.0264404 4
-2.82541 0.574583 0.149288 90
-0.62518 0.24528 -0.0334753 58
-0.689656 0.144184 -0.0116931 3
-1.42001 0.559578 -0.182848 4
-0.638438 0.13385 -0.0539288 74
-1.29508 0.510731 -0.26332 4
-0.773721 0.160645 -0.119804 53
-0.98933 0.390779 -0.275463 4
-0.771129 0.159326 -0.173512 50
-2.63117 1.053 0.645195 50
-2.78537 0.571177 0.751536 49
-2.63471 1.0539 0.442904 50
-2.8025 0.5797 0.549036 50
-1.46875 0.586561 0.135309 4
-2.8033 0.583909 0.346834 55
-1.43911 0.574984 0.0264404 4
-2.81737 0.588848 0.149027 101
-0.628522 0.250407 -0.0337378 58
-0.69376 0.148929 -0.0117804 3
-1.42617 0.57095 -0.184065 4
-0.637729 0.137191 -0.0539288 74
-1.30596 0.52322 -0.266177 3
-0.775287 0.165194 -0.120196 53
-0.98503 0.395052 -0.274816 4
-0.770256 0.163495 -0.173512 52
-2.62725 1.05623 0.644633 49
-2.78674 0.576522 0.752182 49
-2.62847 1.0562 0.442124 50
-2.79428 0.583099 0.547607 49
-1.47235 0.590983 0.135745 4
-2.79995 0.587806 0.34653 55
-1.44042 0.578428 0.026484 4
-2.814 0.592763 0.148896 117
-0.625768 0.250571 -0.0336066 58
-0.683713 0.14809 -0.0116058 3
-1.42987 0.575045 -0.184674 4
-0.637488 0.138304 -0.0539288 71
-1.29594 0.521823 -0.264272 3
-0.77258 0.166043 -0.119804 53
-0.986577 0.397677 -0.275463 4
-0.765228 0.163715 -0.172389 52
-2.62169 1.06997 0.644633 49
-2.78378 0.59062 0.752182 50
-2.62747 1.07181 0.442904 50
-2.79369 0.597744 0.548083 50
-1.47164 0.599369 0.135963 4
-2.79441 0.60194 0.346225 56
-1.43053 0.582876 0.0263531 4
-2.8133 0.608012 0.149027 138
-0.619826 0.251954 -0.033344 58
-0.682955 0.151549 -0.0116058 4
-1.42914 0.583464 -0.184978 4
-0.636755 0.14164 -0.0539288 70
-1.29782 0.530236 -0.265224 4
-0.769286 0.169569 -0.119413 53
-0.986786 0.403582 -0.276109 4
-0.769125 0.168735 -0.173512 52
-2.62207 1.07547 0.645195 49
-2.78039 0.594976 0.751536 50
-2.62331 1.07546 0.442514 49
-2.79494 0.60362 0.54856 50
-1.46829 0.600991 0.135745 4
-2.79821 0.607861 0.346834 56
-1.43404 0.587521 0.0264404 4
-2.81468 0.613449 0.149157 97
-0.624004 0.254934 -0.0336066 58
-0.680246 0.152211 -0.0115622 4
-1.42123 0.583126 -0.184065 4
-0.638941 0.143278 -0.0541462 67
-1.29009 0.529697 -0.263796 4
-0.771402 0.171432 -0.119804 53
-0.981545 0.403633 -0.274816 3
-0.766448 0.169565 -0.17295 52
-2.61846 1.09058 0.645756 49
-2.77948 0.610525 0.752182 49
-2.62429 1.09249 0.443685 50
-2.78934 0.61772 0.548083 49
-1.46042 0.607011 0.135309 4
-2.79003 0.62192 0.346225 53
-1.42863 0.594059 0.0263968 4
-2.80888 0.628128 0.149027 79
-0.62266 0.258197 -0.0336066 58
-0.674533 0.154805 -0.011475 3
-1.42722 0.594632 -0.185282 4
-0.640614 0.147162 -0.0543637 67
-1.29173 0.538563 -0.264748 3
-0.770494 0.175469 -0.119804 52
-0.981645 0.4097 -0.275463 4
-0.767898 0.174234 -0.173512 52
-2.61899 1.09563 0.646318 49
-2.7737 0.614339 0.75089 47
-2.6203 1.09565 0.443295 50
-2.79065 0.623118 0.54856 50
-1.46855 0.613407 0.136181 4
-2.78421 0.625223 0.345617 49
-1.42759 0.596552 0.0263968 4
-2.80789 0.632539 0.149027 70
-0.67914 0.157075 -0.0115622 3
-1.41484 0.592073 -0.183761 3
-0.637925 0.147735 -0.0541462 65
-1.29305 0.541767 -0.265224 3
-0.767777 0.176276 -0.119413 52
-0.976477 0.409539 -0.274169 3
-0.762867 0.174384 -0.172389 52
-2.61322 1.10933 0.646318 49
-2.77055 0.62837 0.75089 49
-2.6168 1.11032 0.443685 50
-2.78507 0.636692 0.548083 50
-1.45855 0.617911 0.135527 4
-2.7809 0.639793 0.345617 50
-1.42916 0.605725 0.026484 8
-2.80697 0.64779 0.149157 90
-0.6759 0.159952 -0.0115186 3
-1.41401 0.600445 -0.184065 4
-0.639597 0.151519 -0.0543637 67
-1.29932 0.552154 -0.267129 3
-0.771657 0.181394 -0.120196 52
-0.981055 0.417321 -0.276109 4
-0.764319 0.178916 -0.17295 50
-2.61147 1.11343 0.646318 49
-2.76945 0.633204 0.75089 49
-2.61258 1.11392 0.443295 50
-2.78635 0.642098 0.54856 50
-1.45976 0.621433 0.135745 4
-2.78219 0.645202 0.345921 56
-1.4327 0.610181 0.0265713 8
-2.8034 0.652126 0.149027 101
-0.615838 0.261552 -0.033344 58
-0.682926 0.162821 -0.0116495 3
-1.40611 0.599985 -0.183153 4
-0.636905 0.152074 -0.0541462 64
-1.29836 0.55442 -0.267129 3
-0.768933 0.182186 -0.119804 50
-0.975886 0.417128 -0.274816 3
-0.76638 0.180795 -0.173512 50
-2.76845 0.648243 0.751536 49
-2.71321 1.17371 0.461635 32
-2.77817 0.65556 0.547607 50
-1.45648 0.629068 0.135745 4
-2.78602 0.661468 0.346834 59
-1.43636 0.620655 0.0267022 4
-2.79752 0.666221 0.148896 175
-0.614413 0.26488 -0.033344 58
-0.686928 0.167546 -0.0117367 3
-1.41661 0.613266 -0.184978 4
-0.64092 0.156665 -0.0545811 64
-1.29769 0.562189 -0.267605 3
-0.770372 0.186777 -0.120196 52
-0.975903 0.423196 -0.275463 3
-0.767795 0.185362 -0.174073 50
-2.87593 1.25074 0.714824 27
-2.76496 0.652523 0.75089 50
-2.69305 1.17056 0.458513 32
-2.77213 0.659764 0.546653 49
-1.46452 0.635583 0.136617 4
-2.78486 0.666329 0.346834 58
-1.43288 0.622413 0.0266585 4
-2.7915 0.669946 0.148634 108
-0.627683 0.271934 -0.0341317 58
-1.40871 0.612762 -0.184065 4
-0.638223 0.157206 -0.0543637 64
-1.29896 0.565435 -0.268081 3
-0.765241 0.186978 -0.119413 50
-0.970664 0.423133 -0.274169 3
-0.76747 0.186702 -0.174073 50
-2.84461 1.25545 0.708647 27
-2.76139 0.667473 0.75089 45
-2.72056 1.20008 0.464367 15
-2.77818 0.676576 0.54856 52
-1.46333 0.644503 0.136835 4
-2.78122 0.681387 0.346834 58
-1.42731 0.628897 0.0266149 4
-2.79753 0.687406 0.149157 99
-0.626251 0.275217 -0.0341317 58
-1.40538 0.620375 -0.184065 4
-0.634972 0.159955 -0.0541462 62
-1.28915 0.569473 -0.266653 4
-0.769049 0.19215 -0.120196 50
-0.970643 0.429189 -0.274816 3
-0.764081 0.190277 -0.173512 52
-2.82482 1.25202 0.704155 29
-2.76022 0.672292 0.75089 33
-2.71867 1.20435 0.464367 11
-2.77461 0.680843 0.548083 50
-1.45765 0.645037 0.136399 4
-2.77532 0.684574 0.346225 53
-1.4285 0.632402 0.0266585 4
-2.79645 0.6918 0.149157 90
-0.625769 0.27631 -0.0341317 58
-1.40667 0.623589 -0.18437 4
-0.639528 0.162252 -0.0545811 61
-1.28366 0.569726 -0.265701 3
-0.766315 0.192904 -0.119804 50
-0.967686 0.429899 -0.274169 4
-0.763781 0.191477 -0.173512 49
-2.76047 1.2408 0.689556 24
-2.75913 0.686833 0.751536 49
-2.72359 1.22364 0.466318 12
-2.77589 0.696064 0.549036 50
-1.45891 0.654449 0.136835 4
-2.77892 0.700905 0.347138 58
-1.43212 0.6427 0.0267894 4
-2.79037 0.705824 0.149027 101
-0.622038 0.278557 -0.0340004 58
-1.41017 0.634005 -0.185282 4
-0.636255 0.164991 -0.0543637 59
-1.283 0.577225 -0.266177 4
-0.770084 0.198115 -0.120587 50
-0.967699 0.435786 -0.274816 3
-0.765132 0.196064 -0.174073 49
-2.74276 1.23859 0.685625 55
-2.75793 0.691648 0.751536 49
-2.72595 1.23042 0.467098 18
-2.76979 0.700197 0.548083 52
-1.45777 0.656994 0.136835 4
-2.77769 0.705754 0.347138 59
-1.42177 0.641329 0.0266149 8
-2.78671 0.710081 0.148896 116
-0.62155 0.279643 -0.0340004 58
-1.40228 0.633394 -0.18437 4
-0.63838 0.166713 -0.0545811 59
-1.27529 0.576424 -0.264748 4
-0.764949 0.198249 -0.119804 50
-0.973457 0.440639 -0.276756 3
-0.762426 0.196805 -0.173512 50
-2.73823 1.25442 0.686186 47
-2.7518 0.705963 0.75089 45
-2.72149 1.24618 0.467489 52
-2.76846 0.7153 0.54856 52
-1.4474 0.661759 0.136181 4
-2.77143 0.720152 0.346834 59
-1.42521 0.65189 0.0267458 4
-2.78525 0.725773 0.149027 150
-0.624616 0.284975 -0.0342629 58
-1.41011 0.646151 -0.185891 4
-0.637498 0.170053 -0.0545811 59
-1.27215 0.583316 -0.264748 4
-0.766292 0.202869 -0.120196 50
-0.966749 0.443709 -0.275463 4
-0.76135 0.200927 -0.173512 50
-2.70086 1.24242 0.677202 29
-2.75291 0.711365 0.751536 44
-2.69262 1.23807 0.462806 32
-2.76721 0.72013 0.54856 52
-1.45303 0.667409 0.136835 4
-2.7703 0.724505 0.346834 59
-1.4218 0.653331 0.0267022 4
-2.7841 0.730147 0.149027 137
-0.624118 0.286065 -0.0342629 58
-1.40233 0.645247 -0.184978 4
-0.637201 0.171166 -0.0545811 58
-1.27781 0.588622 -0.266177 4
-0.765936 0.204206 -0.120196 50
-0.972548 0.448438 -0.277403 4
-0.761033 0.202123 -0.173512 49
-2.67224 1.24623 0.671587 29
-2.75161 0.725902 0.752182 47
-2.67938 1.24901 0.461635 29
-2.76116 0.733501 0.548083 50
-1.44286 0.671596 0.136181 4
-2.76407 0.738364 0.34653 55
-1.41394 0.658404 0.0266149 4
-2.773 0.742789 0.148634 119
-0.62035 0.288272 -0.0341317 58
-1.40343 0.654683 -0.185587 4
-0.638702 0.175141 -0.0547986 56
-1.27037 0.593002 -0.265224 4
-0.764857 0.208214 -0.120196 50
-0.963706 0.450279 -0.275463 4
-2.65021 1.24158 0.666533 52
-2.74567 0.729471 0.75089 49
-2.65708 1.24425 0.458123 32
-2.75974 0.738801 0.548083 50
-1.4462 0.676227 0.136617 4
-2.75558 0.741265 0.345617 50
-1.42173 0.665364 0.0267894 8
-2.78376 0.750859 0.149288 96
-0.619845 0.289354 -0.0341317 58
-1.40677 0.659241 -0.186195 4
-0.63599 0.17561 -0.0545811 56
-1.27378 0.597306 -0.266177 4
-0.965025 0.453158 -0.276109 4
-2.65885 1.26323 0.670464 59
-2.74168 0.744316 0.75089 42
-2.64808 1.25755 0.457733 58
-2.7582 0.753884 0.54856 52
-1.44927 0.687249 0.13727 4
-2.75393 0.756817 0.345921 50
-1.41822 0.672799 0.0267894 8
-2.77484 0.764591 0.149027 73
-0.618322 0.292596 -0.0341317 58
-1.39647 0.663642 -0.185282 4
-0.635062 0.178938 -0.0545811 56
-1.27053 0.604189 -0.266177 4
-0.96046 0.457164 -0.275463 4
-0.770223 0.214737 -0.17632 50
-2.65906 1.26846 0.671025 59
-2.74038 0.7491 0.75089 49
-2.64588 1.26217 0.457733 58
-2.75688 0.758696 0.54856 50
-1.45031 0.69085 0.137488 4
-2.75739 0.762938 0.34653 55
-1.42156 0.677427 0.0268767 4
-2.7735 0.769433 0.149027 67
-0.624568 0.296904 -0.0345255 56
-1.40202 0.669291 -0.186195 4
-0.63715 0.180708 -0.0547986 56
-1.2584 0.601106 -0.263796 3
-0.957483 0.457795 -0.274816 4
-0.765148 0.214793 -0.175197 49
-2.65436 1.28389 0.671587 61
-2.73176 0.762148 0.749597 49
-2.6459 1.27923 0.458904 59
-2.75287 0.773121 0.54856 50
-1.45116 0.700604 0.137924 4
-2.75813 0.778705 0.347138 59
-1.41349 0.682683 0.0267894 4
-2.76943 0.783944 0.149027 61
-0.618511 0.297993 -0.0342629 58
-1.3918 0.673375 -0.185282 4
-0.636195 0.184042 -0.0547986 55
-1.25745 0.608758 -0.264272 3
-0.957245 0.463858 -0.275463 4
-0.764013 0.218796 -0.175197 45
-2.65672 1.29018 0.67271 62
-2.73275 0.767564 0.750244 49
-2.65033 1.28709 0.460074 61
-2.75152 0.777925 0.54856 50
-1.44769 0.702047 0.137706 4
-2.75677 0.783518 0.347138 61
-1.4123 0.685149 0.0267894 4
-2.77046 0.789456 0.149157 68
-0.61799 0.299072 -0.0342629 58
-1.39955 0.680149 -0.186499 4
-0.635872 0.185152 -0.0547986 56
-1.25638 0.610952 -0.264272 3
-0.956434 0.465528 -0.275463 4
-2.6543 1.30623 0.673833 71
-2.72419 0.780064 0.748951 49
-2.65042 1.30376 0.461245 68
-2.74755 0.791841 0.54856 50
-1.43742 0.706066 0.137052 4
-2.75038 0.796775 0.346834 55
-1.40209 0.688976 0.0266585 4
-2.77123 0.804854 0.149419 93
-0.618655 0.303408 -0.0343942 58
-1.39386 0.686126 -0.186195 4
-0.632502 0.187787 -0.0545811 55
-1.25547 0.61839 -0.264748 3
-0.954065 0.470363 -0.275463 4
-2.65638 1.31302 0.674956 82
-2.72747 0.786147 0.750244 49
-2.65478 1.31167 0.462416 77
-2.74131 0.795754 0.547607 50
-1.43619 0.708573 0.137052 4
-2.74184 0.799502 0.345921 50
-1.40524 0.693883 0.0267458 4
-2.76503 0.808296 0.149157 121
-0.620362 0.305595 -0.0345255 58
-1.39266 0.688558 -0.186195 4
-0.636956 0.190282 -0.055016 55
-1.25659 0.62167 -0.265224 3
-0.955323 0.473269 -0.276109 4
-2.64924 1.32738 0.674956 86
-2.72317 0.800892 0.750244 45
-2.65206 1.32823 0.463196 88
-2.73946 0.810789 0.548083 52
-1.43233 0.716333 0.137052 4
-2.73509 0.813621 0.345617 49
-1.39935 0.700111 0.0267022 4
-2.75822 0.822535 0.149027 100
-0.620985 0.309958 -0.0346568 58
-1.39335 0.69831 -0.186804 4
-0.633563 0.192906 -0.0547986 55
-1.24225 0.622948 -0.262844 4
-0.950675 0.477178 -0.275463 4
-2.62539 1.32058 0.669341 38
-2.72409 0.806325 0.75089 47
-2.63012 1.3224 0.459684 45
-2.73568 0.814873 0.547607 50
-1.43775 0.722192 0.137706 4
-2.73619 0.818624 0.345921 50
-1.4026 0.704801 0.0267894 4
-2.75692 0.826866 0.149027 65
-0.618213 0.309918 -0.0345255 58
-1.39668 0.702733 -0.187412 4
-0.630839 0.1933 -0.0545811 55
-1.24554 0.627328 -0.263796 3
-0.956306 0.482107 -0.277403 4
-2.60108 1.32545 0.664848 33
-2.7246 0.821489 0.752182 47
-2.60336 1.32606 0.456172 35
-2.72917 0.828 0.54713 47
-1.4363 0.73059 0.137924 4
-2.73662 0.834379 0.34653 59
-1.40124 0.713027 0.0268331 4
-0.621029 0.315421 -0.034788 58
-1.38856 0.707778 -0.186804 4
-0.632201 0.197325 -0.0547986 55
-1.23798 0.63139 -0.262844 3
-0.958152 0.489142 -0.278696 4
-2.57274 1.31666 0.65811 32
-2.72778 0.827638 0.753475 49
-2.58126 1.32047 0.45266 33
-2.73228 0.834664 0.548083 49
-1.42615 0.728556 0.137052 4
-2.7399 0.840601 0.347138 62
-1.39319 0.712296 0.0267022 8
-0.620478 0.316504 -0.034788 58
-1.39174 0.712466 -0.187412 4
-0.631855 0.198428 -0.0547986 53
-1.23687 0.633549 -0.262844 3
-0.950769 0.487666 -0.276756 4
-2.54829 1.32158 0.653618 33
-2.72327 0.842384 0.753475 49
-2.55436 1.32418 0.449148 33
-2.73021 0.849684 0.54856 47
-1.42882 0.739703 0.137706 4
-2.7211 0.850993 0.345313 47
-1.3961 0.723036 0.0268331 4
-0.621028 0.320899 -0.0349193 58
-1.38566 0.718841 -0.187108 4
-0.630808 0.201733 -0.0547986 53
-1.22907 0.637966 -0.261891 3
-0.950344 0.493754 -0.277403 4
-2.5246 1.31432 0.648003 33
-2.71948 0.846422 0.752828 49
-2.53037 1.31678 0.445246 32
-2.73341 0.855907 0.549513 47
-1.43415 0.745647 0.13836 4
-2.72686 0.857488 0.346225 47
-1.38819 0.722005 0.0267022 4
-0.618253 0.320828 -0.034788 56
-1.38013 0.718721 -0.186499 4
-0.632831 0.20358 -0.055016 53
-1.23666 0.644657 -0.263796 3
-1.98274 0.625644 -0.324176 14
-0.9559 0.498771 -0.279342 4
-2.4983 1.31728 0.642949 33
-2.71286 0.859451 0.752182 50
-2.50597 1.32079 0.442124 32
-2.73139 0.870472 0.54999 47
-2.7247 0.872506 0.34653 47
-1.39115 0.732522 0.0268331 4
-0.616621 0.323954 -0.034788 56
-1.38074 0.728256 -0.187108 4
-0.631793 0.20678 -0.055016 50
-1.23989 0.654351 -0.265224 3
-1.98179 0.636767 -0.324568 12
-0.949095 0.501342 -0.278049 4
-2.48116 1.31322 0.639018 35
-2.71366 0.864914 0.752828 49
-2.48185 1.3136 0.438222 33
-2.73454 0.876729 0.550943 50
-2.7279 0.878774 0.347138 45
-1.38766 0.733778 0.0267894 4
-0.618261 0.326199 -0.0349193 58
-1.37508 0.728338 -0.186499 4
-0.629059 0.207121 -0.0547986 45
-1.22791 0.650757 -0.262844 4
-1.97127 0.637209 -0.323002 14
-0.948219 0.502997 -0.278049 4
-2.45685 1.31741 0.634526 35
-2.7068 0.878369 0.752182 45
-2.45753 1.31723 0.4351 33
-2.72991 0.891035 0.550943 52
-2.72562 0.893815 0.347442 47
-1.386 0.742216 0.0268331 8
-0.616544 0.329431 -0.0349193 56
-1.37781 0.739053 -0.187412 4
-1.22664 0.65834 -0.26332 3
-1.96556 0.646756 -0.32261 14
-0.95195 0.511392 -0.279989 4
-2.43333 1.30971 0.628911 35
-2.70066 0.881601 0.75089 45
-2.43783 1.31215 0.431978 33
-2.72602 0.895036 0.550466 50
-2.72641 0.899344 0.347747 47
-1.3759 0.73989 0.0266585 4
-0.620363 0.332876 -0.0351819 56
-1.36996 0.73792 -0.186499 4
-1.22117 0.658147 -0.262367 3
-1.95739 0.647874 -0.321436 14
-0.951056 0.513053 -0.279989 4
-2.41338 1.31585 0.625541 36
-2.68913 0.893457 0.748951 44
-2.41576 1.31661 0.429247 35
-2.71897 0.908524 0.54999 49
-2.72167 0.913607 0.347747 49
-1.37639 0.749479 0.0267458 4
-0.61423 0.333728 -0.0349193 56
-1.37044 0.747464 -0.187108 4
-0.621759 0.213209 -0.0543637 29
-1.21771 0.664532 -0.262367 3
-1.95163 0.657331 -0.321044 14
-0.950474 0.519186 -0.280636 4
-2.39422 1.31027 0.621049 36
-2.68528 0.897387 0.748305 45
-2.39396 1.31015 0.425735 35
-2.71505 0.91249 0.549513 45
-2.72477 0.919935 0.348355 82
-1.37289 0.750679 0.0267022 4
-0.622403 0.339599 -0.0354444 56
-1.3626 0.746273 -0.186195 4
-0.626106 0.215884 -0.0547986 23
-1.21225 0.664293 -0.261415 3
-1.95048 0.660737 -0.321044 14
-0.938988 0.515024 -0.277403 4
-2.37005 1.31375 0.616557 36
-2.68283 0.912209 0.748951 49
-2.37196 1.31428 0.423003 35
-2.70326 0.924323 0.548083 45
-2.71522 0.932585 0.347747 50
-1.37331 0.760282 0.0267894 4
-0.618374 0.34175 -0.0353131 56
-1.36085 0.754602 -0.186499 4
-0.622573 0.218461 -0.0545811 29
-1.20661 0.669438 -0.260939 3
-1.93064 0.665347 -0.318303 12
-0.936278 0.519933 -0.277403 4
-2.35286 1.30958 0.612626 36
-2.67895 0.916112 0.748305 49
-2.35456 1.31001 0.420271 35
-2.69916 0.928717 0.547607 44
-2.71594 0.938129 0.348051 47
-1.3653 0.759267 0.0266585 4
-0.615596 0.341613 -0.0351819 55
-1.43255 0.49888 -0.0258732 4
-1.35519 0.754558 -0.185891 4
-0.624546 0.220358 -0.0547986 38
-1.20972 0.673936 -0.261891 3
-1.92481 0.66711 -0.31752 12
-0.945815 0.527626 -0.280636 4
-2.32877 1.31272 0.608134 36
-2.67395 0.930593 0.748305 47
-2.33023 1.31302 0.41715 35
-2.69194 0.94203 0.54713 44
-2.70848 0.951991 0.347747 45
-1.36784 0.77009 0.0267894 8
-0.613799 0.344832 -0.0351819 53
-1.43219 0.507451 -0.0259168 4
-1.35325 0.7631 -0.186195 4
-0.623383 0.223625 -0.0547986 47
-1.19751 0.675639 -0.259987 3
-1.92362 0.677994 -0.317912 12
-0.936736 0.529 -0.278696 4
-2.30974 1.30677 0.603642 38
-2.67004 0.934465 0.747659 47
-2.31312 1.30816 0.414418 35
-2.68566 0.945105 0.546177 45
-2.69996 0.953777 0.346834 44
-0.613196 0.345902 -0.0351819 56
-1.43602 0.511613 -0.0260041 4
-1.34774 0.762776 -0.185587 4
-0.622992 0.224713 -0.0547986 50
-1.19206 0.675304 -0.259034 3
-1.9201 0.680531 -0.31752 12
-0.942109 0.534216 -0.280636 4
-2.28808 1.31036 0.599711 36
-2.66528 0.947967 0.747659 47
-2.28696 1.3092 0.410906 35
-2.68084 0.958687 0.546177 47
-2.68792 0.965396 0.345921 42
-0.611376 0.349108 -0.0351819 53
-1.424 0.515501 -0.0258296 4
-1.35233 0.774764 -0.186804 4
-0.621807 0.227972 -0.0547986 50
-1.19076 0.682552 -0.25951 3
-1.90721 0.687249 -0.315954 12
-0.939393 0.538977 -0.280636 4
-1.0636 0.384312 -0.252687 4
-2.27101 1.30584 0.59578 36
-2.66589 0.953427 0.748305 47
-2.27397 1.30703 0.408955 36
-2.67207 0.961351 0.544747 49
-2.67922 0.967569 0.345008 41
-1.46621 0.532952 0.0799432 4
-0.617256 0.353913 -0.0355757 55
-1.4325 0.521376 -0.0260041 4
-0.623751 0.229901 -0.055016 50
-1.18106 0.679724 -0.257606 3
-1.90833 0.691413 -0.316346 12
-0.936266 0.539571 -0.279989 4
-1.05146 0.382058 -0.24988 4
-2.24707 1.3083 0.591288 36
-2.65843 0.967015 0.747659 47
-2.2498 1.30937 0.405833 36
-2.67161 0.977007 0.5457 50
-2.67162 0.981199 0.344704 41
-1.46799 0.542593 0.0802048 4
-1.42262 0.526538 -0.0258732 4
-0.6202 0.232307 -0.0547986 49
-1.17949 0.687342 -0.258082 3
-1.90237 0.700547 -0.315954 12
-0.929259 0.542027 -0.278696 4
-1.05854 0.391079 -0.252126 3
-2.2324 1.30444 0.587919 36
-2.659 0.972479 0.748305 47
-2.23708 1.30667 0.403882 35
-2.6676 0.980825 0.545224 50
-2.20651 1.28881 0.220504 35
-2.66541 0.983684 0.344096 38
-1.46479 0.544037 0.080074 4
-1.43108 0.532477 -0.0260477 4
-0.624468 0.235111 -0.0552335 49
-1.1677 0.683191 -0.255701 3
-1.90114 0.703866 -0.315954 12
-0.93664 0.548541 -0.281282 4
-1.06021 0.393579 -0.252687 3
-2.21086 1.30743 0.583988 36
-2.65405 0.985925 0.748305 47
-2.21321 1.30831 0.40076 35
-2.6649 0.995169 0.5457 50
-2.19352 1.29615 0.21985 35
-2.65325 0.995024 0.343183 36
-1.4666 0.553447 0.0803357 4
-1.43539 0.542343 -0.0261786 4
-0.618604 0.236524 -0.0547986 47
-1.16845 0.691598 -0.256653 3
-1.89049 0.711219 -0.31478 12
-0.933852 0.553275 -0.281282 4
-1.05357 0.397425 -0.251564 4
-2.19205 1.30094 0.579496 35
-2.65232 0.990555 0.748305 47
-2.19606 1.30334 0.398029 36
-2.66086 0.99896 0.545224 50
-2.19554 1.30252 0.220286 36
-2.63989 0.995296 0.341662 33
-1.45629 0.552493 0.0798123 4
-1.42508 0.541326 -0.0260041 4
-0.622853 0.239356 -0.0552335 45
-1.16302 0.691124 -0.255701 3
-1.88694 0.71365 -0.314388 12
-0.932885 0.554904 -0.281282 4
-1.06428 0.403533 -0.254372 3
-2.17014 1.30437 0.575566 35
-2.64692 1.00489 0.748305 47
-2.16993 1.30374 0.394517 36
-2.65312 1.01247 0.544747 49
-2.16925 1.30283 0.218325 38
-2.62056 1.00426 0.339836 30
-1.45794 0.562146 0.080074 4
-0.625322 0.374709 -0.0364946 41
-1.42914 0.551707 -0.026135 4
-0.623875 0.243612 -0.0554509 45
-1.15086 0.692337 -0.253796 3
-1.88317 0.72352 -0.314388 12
-0.931936 0.561191 -0.281929 4
-1.06208 0.409285 -0.254372 4
-2.15558 1.30022 0.572196 36
-2.64517 1.00951 0.748305 47
-2.15731 1.30077 0.392566 36
-2.65593 1.01885 0.5457 50
-2.15631 1.30018 0.217236 38
-2.60971 1.00483 0.338619 29
-1.45473 0.563541 0.0799432 4
-0.624667 0.375799 -0.0364946 38
-1.42584 0.553304 -0.0260913 4
-0.618799 0.242914 -0.055016 45
-1.14965 0.694345 -0.253796 3
-1.88191 0.726806 -0.314388 12
-0.93302 0.564069 -0.282576 4
-1.06599 0.412693 -0.255495 3
-2.13835 1.30514 0.569389 36
-2.64453 1.02462 0.749597 47
-2.13572 1.30304 0.389834 36
-2.65074 1.03228 0.5457 50
-2.13483 1.30199 0.21571 38
-2.59516 1.01488 0.337402 29
-1.45641 0.572964 0.0802048 4
-1.41603 0.557787 -0.0259605 4
-0.622203 0.247853 -0.0554509 44
-1.13356 0.692465 -0.250939 3
-1.87808 0.736649 -0.314388 12
-0.928095 0.567522 -0.281929 4
-1.05246 0.41386 -0.252687 3
-2.11761 1.29703 0.564335 36
-2.64049 1.02836 0.748951 47
-2.1166 1.29643 0.386712 36
-2.64665 1.03601 0.545224 50
-2.12194 1.29921 0.214621 39
-2.58183 1.01489 0.335881 29
-1.45308 0.574594 0.080074 4
-1.41971 0.562083 -0.0260477 4
-0.617132 0.24712 -0.055016 42
-1.13026 0.693157 -0.250463 3
-1.87219 0.738126 -0.313605 12
-0.931216 0.571673 -0.283222 4
-1.054 0.416582 -0.253249 3
-2.09814 1.30076 0.560966 38
-2.63507 1.04218 0.748951 47
-2.10139 1.30229 0.385151 38
-2.64347 1.05076 0.5457 50
-2.09817 1.2998 0.212878 39
-2.56956 1.02564 0.334969 27
-1.71684 1.06369 0.034643 12
-1.45701 0.584963 0.0804665 4
-1.42372 0.572284 -0.0261786 4
-0.620457 0.252191 -0.0554509 38
-1.13287 0.702954 -0.251892 3
-1.87518 0.750655 -0.31478 12
-0.934359 0.580371 -0.285162 4
-1.04501 0.419402 -0.251564 3
-2.08369 1.29633 0.557597 38
-2.63549 1.04766 0.749597 47
-2.08235 1.29551 0.38203 38
-2.63935 1.05447 0.545224 47
-2.08322 1.29556 0.211571 38
-2.56777 1.03013 0.334969 27
-1.7065 1.0614 0.0344685 12
-1.44903 0.584724 0.080074 4
-1.4204 0.573839 -0.026135 4
-0.626953 0.256049 -0.0561033 36
-1.12956 0.703631 -0.251416 3
-0.933344 0.582001 -0.285162 3
-1.05333 0.424832 -0.25381 3
-2.06222 1.29849 0.553666 38
-2.62997 1.06145 0.749597 45
-2.06509 1.29981 0.380078 38
-2.63607 1.06919 0.5457 50
-2.06376 1.29849 0.210263 38
-2.56694 1.04542 0.335577 24
-1.68823 1.06232 0.0342067 12
-1.44826 0.593242 0.0802048 4
-1.42663 0.585033 -0.0263095 4
-0.623251 0.2585 -0.0558859 35
-1.12586 0.709535 -0.251416 3
-0.932325 0.588171 -0.285809 3
-1.04658 0.428514 -0.252687 3
-2.04554 1.29297 0.549735 38
-2.63035 1.06694 0.750244 47
-2.05447 1.29813 0.378518 38
-2.63629 1.07517 0.546177 50
-2.04676 1.29277 0.208738 39
-2.57201 1.05271 0.33649 23
-1.66929 1.05487 0.0338577 11
-1.45185 0.597656 0.0804665 4
-1.4233 0.586577 -0.0262659 4
-0.62741 0.261471 -0.0563208 33
-1.1184 0.707556 -0.249987 3
-0.931194 0.58996 -0.285809 3
-1.05485 0.434009 -0.254933 4
-2.02826 1.29745 0.546928 36
-2.62007 1.07932 0.748951 45
-2.0287 1.29725 0.375005 38
-2.63062 1.08896 0.546177 49
-2.02715 1.29577 0.207431 39
-1.65953 1.0609 0.0337704 11
-1.44629 0.604546 0.0803357 4
-1.41318 0.591396 -0.026135 4
-0.632934 0.267614 -0.0569731 32
-1.10836 0.70962 -0.248559 3
-0.934187 0.598745 -0.287749 3
-1.05249 0.43971 -0.254933 3
-2.01802 1.29536 0.544681 36
-2.62265 1.08573 0.750244 47
-2.01397 1.29278 0.372664 39
-2.62872 1.09355 0.546177 49
-2.0165 1.29392 0.206559 41
-1.65137 1.05974 0.0336395 12
-1.45445 0.610909 0.0808591 4
-1.41676 0.595785 -0.0262222 4
-1.10506 0.710225 -0.248082 3
-0.929082 0.597756 -0.286455 4
-1.05847 0.444347 -0.256618 4
-1.99056 1.29298 0.539066 38
-2.61915 1.10038 0.75089 47
-2.00096 1.29926 0.371493 39
-2.62296 1.1073 0.546177 49
-1.99508 1.29496 0.205034 41
-1.6479 1.06973 0.0336831 12
-1.44893 0.617544 0.0807282 4
-1.41362 0.603195 -0.0262222 4
-1.09515 0.711981 -0.246654 3
-1.48597 0.632319 -0.250571 9
-0.934029 0.607892 -0.289042 3
-1.05389 0.448938 -0.256056 4
-1.9824 1.29211 0.537382 38
-2.61946 1.10589 0.751536 47
-1.98651 1.29431 0.369152 39
-2.62554 1.11378 0.54713 49
-1.9803 1.29027 0.203727 41
-1.64812 1.07397 0.0337268 12
-1.44566 0.618844 0.0805974 4
-1.40336 0.60175 -0.0260477 4
-1.09802 0.716578 -0.247606 3
-1.48487 0.634912 -0.250571 8
-0.930947 0.608198 -0.288395 3
-1.04869 0.448695 -0.254933 3
-1.96545 1.29576 0.534574 39
-2.61383 1.11913 0.751536 47
-1.9694 1.29789 0.367201 39
-2.63115 1.13189 0.549513 42
-1.96335 1.29342 0.202637 41
-1.64475 1.08368 0.0337704 12
-1.45157 0.630355 0.0811207 4
-1.40948 0.612803 -0.0262222 4
-1.09438 0.722127 -0.247606 3
-1.47925 0.641702 -0.250179 8
-0.933896 0.616903 -0.290335 3
-1.05081 0.456101 -0.256056 3
-1.95303 1.29246 0.531766 38
-2.64295 1.137 0.760583 38
-1.95067 1.29042 0.364079 39
-2.89722 1.25241 0.606228 26
-1.95486 1.29272 0.201983 42
-2.78403 1.20768 0.367826 14
-1.64683 1.08959 0.0338577 12
-1.44818 0.631896 0.0809899 4
-1.40382 0.613275 -0.026135 4
-1.08085 0.715891 -0.244749 3
-1.4736 0.642323 -0.249396 4
-0.928688 0.61602 -0.289042 3
-1.04777 0.45697 -0.255495 3
-1.93184 1.29351 0.527836 39
-2.87818 1.25621 0.831019 26
-1.9334 1.29408 0.362128 39
-2.87038 1.25872 0.601938 26
-1.93749 1.29635 0.200894 41
-2.79791 1.23169 0.370565 14
-1.44245 0.638718 0.0808591 4
-1.40506 0.622873 -0.0262222 4
-1.93354 1.29614 -0.281118 41
-1.08307 0.725834 -0.246178 3
-1.47248 0.651022 -0.249788 4
-0.933465 0.626266 -0.291628 3
-1.04528 0.462632 -0.255495 3
-1.92172 1.29111 0.52559 39
-2.85164 1.2506 0.823911 26
-1.92317 1.2916 0.360567 41
-2.83896 1.25091 0.595743 26
-1.92283 1.29139 0.199587 41
-2.76645 1.22309 0.36661 27
-1.44373 0.641991 0.0809899 4
-1.41083 0.628354 -0.0263531 4
-1.92327 1.29363 -0.279901 42
-1.07977 0.726351 -0.245702 4
-1.46456 0.650604 -0.248613 4
-0.924365 0.622488 -0.289042 3
-1.04009 0.462314 -0.254372 3
-1.90285 1.29293 0.52222 39
-2.81657 1.25231 0.81551 26
-1.90208 1.29194 0.357836 41
-2.80345 1.2523 0.589547 24
-1.90391 1.29271 0.198279 41
-2.75774 1.23655 0.366305 23
-1.43807 0.648522 0.0808591 4
-1.40307 0.633444 -0.0262659 4
-1.06594 0.724895 -0.243321 4
-1.46564 0.660278 -0.249396 4
-0.929181 0.632605 -0.291628 3
-1.03988 0.468745 -0.254933 3
-1.88651 1.28663 0.51829 39
-2.77025 1.23759 0.802586 24
-1.89167 1.28968 0.356275 41
-2.74503 1.23263 0.577632 26
-1.88931 1.2876 0.196972 41
-2.72162 1.22612 0.361742 15
-1.88329 1.28446 0.0391806 36
-1.44377 0.654101 0.0812516 4
-1.40652 0.637943 -0.0263531 4
-1.07075 0.730912 -0.244749 4
-1.46674 0.663846 -0.249788 4
-0.925973 0.633022 -0.290982 3
-1.03684 0.469563 -0.254372 3
-1.87351 1.29266 0.516605 39
-2.7459 1.24461 0.797417 56
-1.87247 1.29148 0.353933 39
-2.74524 1.25003 0.579062 53
-1.87617 1.29356 0.196318 42
-2.68332 1.22644 0.357482 14
-1.8786 1.29573 0.0392243 42
-1.43794 0.660867 0.0811207 4
-1.40077 0.644506 -0.0263095 4
-1.06072 0.732504 -0.243321 4
-0.92463 0.639238 -0.291628 3
-1.0365 0.476174 -0.254933 3
-1.86146 1.28867 0.513797 39
-2.74152 1.2484 0.79677 42
-1.85826 1.28598 0.351592 39
-2.72072 1.24465 0.574296 32
-1.85753 1.28549 0.194575 41
-2.65657 1.21931 0.354136 14
-1.86401 1.29046 0.0389625 41
-1.43463 0.662086 0.0809899 4
-1.40873 0.651117 -0.026484 4
-1.05743 0.732954 -0.242845 4
-0.919549 0.638092 -0.290335 3
-1.03354 0.47679 -0.254372 3
-1.84073 1.28861 0.509867 39
-2.70006 1.24613 0.786431 24
-1.84544 1.29144 0.350421 39
-2.68765 1.24606 0.568577 26
-1.8408 1.28773 0.193486 42
-2.62988 1.22381 0.351398 14
-1.84926 1.29414 0.038788 41
-1.43341 0.67064 0.0811207 4
-1.39409 0.652972 -0.0262659 4
-1.20952 0.847102 -0.176764 9
-1.05169 0.736887 -0.242368 4
-0.922233 0.646906 -0.292275 3
-1.03324 0.483218 -0.254933 4
-1.82675 1.28309 0.506498 39
-2.67595 1.24072 0.779969 26
-1.83106 1.28614 0.34808 41
-2.66098 1.23939 0.563334 30
-1.8304 1.28521 0.192614 42
-2.603 1.21688 0.348051 15
-1.83678 1.29017 0.0385698 41
-1.42771 0.67103 0.0808591 4
-1.39747 0.657519 -0.0263531 4
-1.20601 0.847783 -0.176459 11
-1.05241 0.740135 -0.242845 4
-0.919129 0.647122 -0.291628 3
-1.03239 0.485021 -0.254933 3
-1.81184 1.2873 0.504251 41
-2.66067 1.25062 0.777384 50
-1.81625 1.28998 0.346519 41
-2.65667 1.25435 0.563811 58
-1.8135 1.28756 0.191525 42
-2.54498 1.20614 0.341053 26
-1.81574 1.28963 0.0382644 42
-1.42192 0.677429 0.0807282 4
-1.39627 0.665896 -0.0263968 4
-1.04652 0.744211 -0.242368 4
-0.917694 0.653329 -0.292275 3
-1.02984 0.49042 -0.254933 4
-1.80188 1.28449 0.502005 41
-2.66285 1.25732 0.778677 56
-1.80395 1.28598 0.344568 42
-2.66114 1.26213 0.565241 58
-1.80314 1.28494 0.190653 42
-2.55408 1.21589 0.342575 24
-1.80535 1.28699 0.0380899 41
-1.43201 0.685264 0.0813824 4
-1.40414 0.672624 -0.0265713 4
-1.05321 0.751748 -0.244273 4
-0.918516 0.656336 -0.292922 3
-1.02458 0.490133 -0.25381 3
-1.7848 1.2874 0.499198 41
-2.65601 1.2717 0.778677 56
-1.78696 1.28849 0.342617 42
-2.66091 1.27969 0.56667 59
-1.78606 1.28739 0.189564 44
-2.56535 1.2383 0.345008 27
-1.79025 1.29089 0.0379153 41
-1.42828 0.693002 0.0813824 4
-1.38922 0.674785 -0.0263531 4
-1.04117 0.75168 -0.242368 4
-1.01972 0.494615 -0.253249 4
-1.77686 1.28591 0.497513 41
-2.66032 1.27947 0.780615 58
-1.77693 1.2855 0.341056 42
-2.65867 1.28433 0.56667 59
-1.77574 1.28466 0.188692 44
-2.56341 1.24232 0.345008 26
-1.77585 1.28521 0.0376536 42
-1.42719 0.695245 0.0813824 4
-1.39479 0.680476 -0.026484 4
-1.04383 0.756381 -0.243321 4
-1.01235 0.493045 -0.251564 4
-1.76028 1.288 0.494706 41
-2.65599 1.29397 0.781261 59
-1.75623 1.28458 0.338324 42
-2.65876 1.301 0.5681 62
-1.75917 1.28627 0.187603 44
-2.55909 1.25682 0.345313 27
-1.76529 1.29123 0.0375663 44
-1.41456 0.698315 0.0808591 4
-1.38684 0.685326 -0.0263968 4
-1.75976 1.28906 -0.263168 42
-1.01414 0.500476 -0.252687 4
-1.74625 1.28241 0.491336 42
-2.66241 1.30284 0.783846 65
-1.75001 1.28471 0.337544 42
-2.66066 1.30826 0.569053 70
-1.74488 1.28049 0.186295 42
-2.56135 1.26347 0.345921 27
-1.75274 1.28721 0.0373481 42
-1.42006 0.704089 0.0812516 4
-1.39012 0.689954 -0.026484 4
-1.75151 1.28771 -0.262255 44
-1.01326 0.502245 -0.252687 4
-1.73343 1.28748 0.489652 42
-2.65749 1.31829 0.784492 74
-1.73312 1.2868 0.335593 42
-2.65378 1.32217 0.569053 79
-1.73393 1.28694 0.18586 42
-2.54559 1.27289 0.344704 32
-1.73394 1.28742 0.0370864 44
-1.41623 0.711762 0.0812516 4
-1.38413 0.696349 -0.0264404 4
-1.73457 1.28976 -0.260734 44
-1.00835 0.506636 -0.252126 3
-1.72164 1.28291 0.486844 42
-2.64869 1.31971 0.782554 59
-1.72318 1.28361 0.334032 42
-2.65366 1.32789 0.56953 53
-1.7217 1.28252 0.18477 44
-2.57245 1.29131 0.348659 21
-1.72167 1.28297 0.0368682 42
-1.41065 0.71175 0.0809899 4
-1.38515 0.699884 -0.026484 4
-1.7226 1.28506 -0.259213 45
-1.00973 0.509307 -0.252687 3
-1.70323 1.28311 0.483475 42
-2.62256 1.32334 0.776738 33
-1.70658 1.28518 0.332081 42
-2.61623 1.32583 0.562858 32
-1.70723 1.28522 0.183899 42
-2.55015 1.29691 0.34653 15
-1.70917 1.28715 0.0367373 42
-1.40913 0.720256 0.0811207 4
-1.38382 0.708018 -0.0265277 4
-1.70793 1.28808 -0.257996 45
-1.96461 1.00125 -0.344144 12
-1.00053 0.511289 -0.251003 3
-1.69538 1.28137 0.48179 42
-2.59868 1.31703 0.770276 32
-1.69842 1.28369 0.33091 42
-2.59202 1.3193 0.558092 30
-1.69704 1.28219 0.183027 44
-2.52798 1.29123 0.343792 14
-1.69696 1.28259 0.0365192 44
-1.40787 0.722714 0.0811207 4
-1.69269 1.27983 -0.109746 23
-1.38036 0.709296 -0.026484 4
-1.69974 1.28656 -0.257083 45
-1.97826 1.01251 -0.346884 12
-1.00615 0.516344 -0.252687 3
-1.68262 1.28608 0.480106 42
-2.5724 1.32072 0.76446 30
-1.67991 1.28356 0.328569 42
-2.56325 1.32164 0.553326 30
-1.67844 1.28198 0.18172 44
-2.51457 1.30104 0.342879 15
-1.68029 1.28386 0.036301 45
-1.40629 0.731221 0.0812516 4
-1.68574 1.28897 -0.109746 27
-1.37884 0.717661 -0.0265277 4
-1.97513 1.02399 -0.347276 14
-0.999099 0.519376 -0.251564 3
-1.66878 1.28011 0.476737 42
-2.55075 1.31528 0.758644 30
-1.67375 1.28348 0.327788 41
-2.54326 1.31756 0.549513 32
-1.66829 1.27884 0.180848 45
-2.48805 1.29289 0.339532 15
-1.67188 1.28252 0.0361701 44
-1.40501 0.733675 0.0812516 4
-1.67359 1.2843 -0.10909 30
-1.37537 0.718915 -0.026484 4
-1.96676 1.02403 -0.346101 14
-0.998191 0.521119 -0.251564 4
-1.65029 1.28016 0.473367 42
-2.52646 1.32015 0.753475 30
-1.65703 1.28495 0.325837 44
-2.51458 1.31949 0.544747 30
-1.65348 1.28174 0.179977 44
-2.47882 1.30518 0.339228 21
-1.65724 1.28512 0.0359956 45
-1.39881 0.740105 0.0811207 4
-1.65896 1.28692 -0.108565 35
-1.36482 0.722857 -0.0263531 4
-1.9437 1.02548 -0.342969 14
-0.991041 0.524252 -0.250441 3
-1.63867 1.27526 0.47056 42
-2.50489 1.31449 0.747659 30
-1.647 1.28177 0.324276 42
-2.49488 1.31475 0.540934 30
-1.64142 1.27697 0.178887 44
-2.46776 1.30488 0.338011 26
-1.64908 1.28341 0.0358647 45
-1.40193 0.744874 0.0813824 4
-1.64884 1.28368 -0.10804 38
-1.37019 0.728739 -0.026484 4
-1.92443 1.01966 -0.339837 14
-0.99228 0.527115 -0.251003 4
-1.63175 1.28411 0.47056 42
-2.4809 1.31855 0.742489 32
-1.62862 1.2812 0.321935 44
-2.47063 1.31858 0.537122 32
-1.6308 1.28247 0.178451 45
-2.44337 1.30844 0.335577 32
-1.63056 1.28274 0.0356029 47
-1.40021 0.753381 0.0815132 4
-1.62837 1.28148 -0.107121 39
-1.36195 0.733546 -0.0263968 4
-1.91053 1.02474 -0.338271 14
-0.985206 0.530014 -0.24988 4
-1.62017 1.27912 0.467752 44
-2.46153 1.31381 0.737319 32
-1.61886 1.27764 0.320374 44
-2.45533 1.31596 0.534262 32
-1.61488 1.2745 0.176926 45
-2.43475 1.30876 0.334664 32
-1.62243 1.28093 0.035472 45
-1.40343 0.757939 0.0817749 4
-1.62613 1.28432 -0.107121 42
-1.36507 0.738287 -0.026484 4
-1.61911 1.28105 -0.393789 47
-1.90004 1.0234 -0.336705 14
-0.982224 0.530412 -0.249318 4
-1.60394 1.27998 0.464945 44
-2.43358 1.31481 0.730857 32
-1.6025 1.27839 0.318423 42
-2.43137 1.31904 0.530449 32
-1.60257 1.278 0.176272 45
-2.40823 1.31085 0.331926 32
-1.60616 1.28133 0.0352539 44
-1.6118 1.2863 -0.106596 44
-1.35912 0.743993 -0.0264404 4
-1.60686 1.28462 -0.392361 52
-1.88163 1.02627 -0.334356 14
-0.985861 0.539026 -0.251003 3
-1.59432 1.2764 0.462698 44
-2.42066 1.31331 0.727626 33
-1.59449 1.27655 0.317252 42
-2.40965 1.31275 0.52616 32
-1.59645 1.27768 0.175837 47
-2.39068 1.30675 0.329796 33
-1.60002 1.281 0.0351666 45
-1.60566 1.28598 -0.106333 44
-1.3644 0.749956 -0.0265713 4
-1.59696 1.28128 -0.390456 52
-1.86899 1.02365 -0.332398 14
-0.984918 0.540746 -0.251003 3
-1.5855 1.28347 0.462137 44
-2.39892 1.31786 0.723103 32
-1.58011 1.27866 0.315691 44
-2.38553 1.31589 0.522347 33
-1.582 1.27975 0.174965 47
-2.36425 1.30847 0.327058 33
-1.58747 1.28464 0.0350357 45
-1.58533 1.28337 -0.105414 45
-1.35389 0.753463 -0.0264404 4
-1.58642 1.28653 -0.389504 52
-1.84847 1.02508 -0.329657 14
-1.58119 1.28409 -0.536053 58
-0.984208 0.54707 -0.251564 3
-1.57214 1.27674 0.458768 44
-2.37756 1.31158 0.717287 33
-1.57021 1.27518 0.314131 44
-2.36819 1.31176 0.519011 33
-1.57203 1.27622 0.174094 47
-2.34894 1.30538 0.325233 33
-1.57747 1.2811 0.0348612 45
-1.57534 1.27983 -0.104889 45
-1.35039 0.754613 -0.0263968 4
-1.56895 1.27689 -0.385694 52
-1.83588 1.02232 -0.3277 14
-1.56585 1.27616 -0.531527 59
-0.978987 0.546431 -0.250441 3
-1.5558 1.27749 0.45596 44
-2.34956 1.31227 0.710825 33
-1.56161 1.28182 0.31374 44
-2.34201 1.31337 0.514722 35
-1.55763 1.27811 0.173222 47
-2.32475 1.30796 0.322799 35
-1.56108 1.28141 0.034643 45
-1.56283 1.2833 -0.104495 47
-1.35296 0.765345 -0.0265277 4
-1.55467 1.27885 -0.38379 52
-1.81758 1.02467 -0.325351 14
-1.54984 1.27666 -0.528294 59
-0.984617 0.556306 -0.252687 4
-1.54628 1.27373 0.453714 45
-2.33461 1.3093 0.706948 33
-1.54794 1.27512 0.311399 44
-2.32687 1.31025 0.511862 36
-1.54771 1.27449 0.17235 45
-2.31165 1.30593 0.321278 35
-1.55306 1.27936 0.0345121 44
-1.55482 1.28126 -0.104102 47
-1.34509 0.764022 -0.0263968 4
-1.54865 1.27843 -0.382837 52
-1.78997 1.01331 -0.320653 14
-1.54389 1.27628 -0.527 59
-0.973024 0.552059 -0.24988 3
-1.53375 1.2774 0.452029 45
-2.3088 1.31081 0.701132 35
-1.53745 1.28004 0.310618 44
-2.30503 1.31394 0.508526 36
-1.53145 1.27461 0.171261 45
-2.28753 1.30819 0.318844 35
-1.53866 1.28107 0.0343376 45
-1.54019 1.28326 -0.103576 47
-1.34758 0.774772 -0.0265277 4
-1.53252 1.27865 -0.380456 53
-1.77177 1.01533 -0.318303 14
-1.53348 1.28125 -0.525707 59
-0.974356 0.559554 -0.251003 3
-1.52218 1.27225 0.449222 45
-2.29181 1.3065 0.696609 36
-1.52953 1.27797 0.309448 44
-2.28758 1.30985 0.50519 35
-1.5254 1.27408 0.170825 47
-2.26801 1.30233 0.31641 33
-1.52661 1.276 0.0341195 45
-1.52647 1.27633 -0.102789 49
-1.5284 1.27975 -0.37998 53
-1.74642 1.00493 -0.313997 14
-1.52177 1.27643 -0.522474 59
-0.971262 0.560046 -0.250441 3
-1.51341 1.2789 0.44866 45
-2.27215 1.31166 0.692731 35
-1.51316 1.27825 0.307497 44
-2.26156 1.31077 0.5009 35
-1.50898 1.27427 0.169736 47
-2.2459 1.30588 0.31428 33
-1.5161 1.28075 0.0340322 45
-1.51786 1.28269 -0.102658 47
-1.50437 1.27262 -0.237307 47
-1.5121 1.28006 -0.377599 53
-1.726 1.0057 -0.311256 14
-1.5077 1.27812 -0.519887 59
-0.974545 0.568951 -0.252126 3
-1.4984 1.27024 0.44473 45
-2.2573 1.30838 0.688854 35
-1.50528 1.2761 0.306326 44
-2.24653 1.30734 0.498041 35
-1.50295 1.27368 0.1693 49
-2.2286 1.30107 0.312151 35
-1.50814 1.27854 0.0339013 45
-1.5042 1.27564 -0.10187 47
-1.50215 1.27525 -0.237307 50
-1.50425 1.27793 -0.376171 53
-1.7029 0.996292 -0.307341 14
-1.49444 1.27136 -0.516008 59
-0.973551 0.570651 -0.252126 4
-1.48803 1.27489 0.443607 45
-2.23397 1.31004 0.683685 35
-1.48943 1.27566 0.304375 44
-2.22718 1.31124 0.495181 36
-1.48893 1.27479 0.168428 49
-2.20487 1.30227 0.309717 35
-1.49406 1.27965 0.0337268 47
-1.49182 1.27862 -0.101476 47
-1.48626 1.27475 -0.235786 50
-1.49032 1.27913 -0.374266 55
-1.68082 0.994879 -0.304209 14
-1.48981 1.28048 -0.516654 61
-0.979053 0.580505 -0.254372 4
-1.47842 1.27113 0.44136 45
-2.21709 1.30539 0.679161 35
-1.48159 1.27342 0.303204 45
-2.20563 1.30431 0.490892 35
-1.47915 1.27089 0.167557 49
-2.18764 1.29728 0.307587 35
-1.48403 1.27599 0.0335523 47
-1.48769 1.27959 -0.101345 47
-1.47652 1.27086 -0.234569 50
-1.48437 1.27852 -0.373314 55
-1.65782 0.985249 -0.300294 14
-1.47456 1.27229 -0.512128 61
-0.97594 0.580976 -0.25381 4
-1.46417 1.27271 0.439114 45
-2.19131 1.30627 0.673345 35
-1.47095 1.27818 0.302424 47
-2.18401 1.30705 0.487556 36
-1.47037 1.27724 0.167339 49
-2.16568 1.30019 0.305457 33
-1.47355 1.28046 0.033465 47
-1.47155 1.27917 -0.100688 47
-1.46214 1.27231 -0.233352 52
-1.46818 1.27847 -0.370933 55
-1.6484 0.991382 -0.299511 14
-1.46606 1.2784 -0.511481 59
-0.976966 0.588744 -0.254933 3
-1.45483 1.2686 0.436868 47
-2.1745 1.30144 0.668822 38
-1.45964 1.27237 0.300473 45
-2.16909 1.3033 0.484696 36
-1.45501 1.26834 0.165814 47
-2.15512 1.29848 0.30424 35
-1.4619 1.27481 0.0332468 47
-1.46368 1.27681 -0.100295 47
-1.4564 1.27134 -0.232744 50
-1.45671 1.27295 -0.368552 55
-1.63608 0.987902 -0.297553 15
-1.45656 1.27459 -0.508895 64
-0.96977 0.586523 -0.253249 4
-1.44817 1.2762 0.436868 47
-2.15548 1.30495 0.664945 36
-1.44741 1.27509 0.299302 45
-2.15197 1.30791 0.482313 36
-1.44296 1.27074 0.16516 49
-2.13557 1.30202 0.302415 35
-1.44981 1.27723 0.0331159 47
-1.44949 1.27785 -0.0997695 47
-1.44229 1.27238 -0.231527 52
-1.44841 1.27868 -0.368076 56
-1.62245 0.991327 -0.295987 15
-1.44467 1.27714 -0.506955 61
-0.970852 0.594118 -0.254372 3
-1.43682 1.27065 0.434061 47
-2.13667 1.29871 0.659775 38
-1.43408 1.2678 0.296961 45
-2.13687 1.30439 0.479454 36
-1.43515 1.26831 0.164506 49
-2.11634 1.29542 0.299981 36
-1.43987 1.27338 0.0329414 47
-2.11542 1.29686 0.128223 36
-1.44165 1.27541 -0.0993756 49
-1.43449 1.26995 -0.230614 52
-1.437 1.27306 -0.365695 55
-1.6165 0.991586 -0.295204 15
-1.42958 1.26869 -0.502428 59
-0.963571 0.592013 -0.252687 4
-1.42811 1.27678 0.433499 47
-2.11725 1.30268 0.655898 38
-1.42536 1.27389 0.29657 45
-2.11538 1.30656 0.476118 38
-1.42084 1.26941 0.163635 49
-2.09663 1.29903 0.298155 35
-1.42573 1.27423 0.0327669 47
-2.0935 1.2991 0.127307 35
-1.42937 1.27794 -0.0989818 49
-1.42021 1.27107 -0.229397 53
-1.42461 1.2759 -0.364267 56
-1.60918 0.998739 -0.294812 15
-1.41932 1.27293 -0.501135 59
-0.966576 0.60105 -0.254372 4
-1.41885 1.27251 0.431253 47
-2.1088 1.30258 0.653959 39
-1.41601 1.26953 0.29501 45
-2.09848 1.30122 0.472781 36
-1.41121 1.26524 0.162763 49
-2.07982 1.29318 0.296026 36
-1.41607 1.27004 0.0325924 49
-2.07873 1.2945 0.126522 35
-1.42342 1.2771 -0.0987193 49
-1.41268 1.26832 -0.228484 53
-1.41508 1.27182 -0.362362 55
-1.60744 1.00155 -0.294812 15
-1.40993 1.26893 -0.498549 59
-0.961486 0.600006 -0.253249 3
-1.40315 1.27174 0.428445 47
-2.08578 1.30303 0.648789 38
-1.40386 1.27195 0.293839 47
-2.07937 1.30403 0.469922 38
-1.40663 1.27404 0.162981 50
-2.0604 1.29615 0.2942 36
-1.40592 1.27383 0.0325051 49
-2.05923 1.2974 0.125737 35
-1.41117 1.2795 -0.0983254 49
-1.40051 1.2707 -0.227572 53
-1.405 1.27566 -0.36141 56
-1.61263 1.01651 -0.29677 15
-1.39634 1.26955 -0.495962 59
-0.962462 0.607615 -0.254372 4
-1.39193 1.26598 0.425638 49
-2.07121 1.299 0.644912 39
-1.39798 1.27107 0.293058 47
-2.06231 1.29889 0.466586 38
-1.39704 1.26978 0.16211 50
-2.04763 1.29314 0.292679 38
-1.39608 1.2698 0.0323306 49
-2.04218 1.29168 0.124821 36
-1.39971 1.27355 -0.0976691 50
-1.39645 1.27147 -0.227267 53
-1.39552 1.2715 -0.359505 56
-1.38855 1.26734 -0.494022 61
-0.969654 0.614475 -0.256618 4
-1.38147 1.27019 0.424515 49
-2.04578 1.29857 0.639096 39
-1.382 1.27025 0.291107 47
-2.04305 1.30179 0.463726 38
-1.38465 1.27226 0.161456 49
-2.02595 1.29487 0.290549 36
-1.38573 1.2737 0.0322433 49
-2.02674 1.29734 0.124298 39
-1.38568 1.2741 -0.097144 49
-1.61567 1.03615 -0.0328978 15
-1.38408 1.27396 -0.226355 53
-1.3796 1.27071 -0.357124 56
-1.3819 1.27459 -0.494022 59
-0.95809 0.614487 -0.254372 4
-1.37411 1.2674 0.42283 49
-2.03331 1.29567 0.635865 39
-1.37638 1.26907 0.290327 47
-2.02835 1.29744 0.460867 38
-1.37877 1.2713 0.16102 49
-2.01137 1.29004 0.288724 39
-1.378 1.27103 0.0321124 49
-2.01628 1.29515 0.123775 39
-1.37978 1.27313 -0.0968814 49
-1.61807 1.04166 -0.032985 15
-1.37297 1.26771 -0.224834 53
-1.37197 1.26811 -0.355696 56
-1.37082 1.26879 -0.490789 61
-0.967394 0.622539 -0.257179 4
-1.36033 1.26793 0.420584 49
-2.01453 1.29812 0.631988 38
-1.3661 1.27289 0.289546 47
-2.01144 1.30105 0.458484 39
-1.35957 1.26637 0.159495 49
-2.00042 1.29786 0.288116 39
-1.36972 1.27628 0.0320688 49
-1.99899 1.2989 0.12312 38
-1.3658 1.27352 -0.0963563 50
-1.61277 1.04984 -0.032985 14
-1.36268 1.27149 -0.224225 55
-1.36016 1.27001 -0.354267 58
-1.35909 1.27076 -0.488849 59
-0.95798 0.623635 -0.255495 4
-1.35456 1.26697 0.419461 49
-1.99805 1.29249 0.627465 39
-1.35847 1.27021 0.288376 47
-1.99452 1.29558 0.455147 39
-1.35372 1.26534 0.159059 49
-1.98149 1.29055 0.285682 39
-1.35815 1.27037 0.0318506 47
-1.98416 1.29423 0.122335 38
-1.35629 1.26907 -0.0958312 50
-1.35684 1.27047 -0.223617 55
-1.34899 1.26399 -0.351887 58
-1.35489 1.27172 -0.488203 61
-0.963025 0.629278 -0.257179 4
-1.34238 1.26926 0.417776 49
-1.98293 1.298 0.62488 39
-1.3462 1.27245 0.287205 49
-1.98154 1.30197 0.453718 39
-1.34324 1.26922 0.158623 49
-1.96203 1.29309 0.283856 38
-1.34603 1.27231 0.0317197 49
-1.9667 1.29809 0.121681 38
-1.346 1.27272 -0.0955686 50
-1.34275 1.27097 -0.2224 55
-1.33679 1.2662 -0.350458 58
-1.96645 1.29699 -0.368026 39
-1.33771 1.26881 -0.484323 61
-0.961643 0.635814 -0.257741 4
-1.33861 1.26969 0.417215 50
