# .PCD v0.7 - Point Cloud Data file format
VERSION 0.7
FIELDS x y z intensity
SIZE 4 4 4 4
TYPE F F F F
COUNT 1 1 1 1
WIDTH 1528
HEIGHT 1
VIEWPOINT 0 0 0 1 0 0 0
POINTS 1528
DATA ascii
-0.625486 -0.457325 0.0129148 27
-0.711615 -0.519872 -0.0445024 36
-1.52825 -1.58508 -0.0378281 14
-0.870281 -0.634713 -0.127781 41
-0.863248 -0.629145 -0.200466 41
-0.869828 -0.633021 -0.278696 42
-1.15405 -1.19935 -0.375662 14
-0.575088 -0.41617 0.059048 38
-0.631928 -0.456966 0.013002 27
-0.710275 -0.513221 -0.0442399 36
-1.54001 -1.58065 -0.0379153 14
-0.867549 -0.625801 -0.126868 41
-0.860552 -0.620319 -0.199037 41
-0.865283 -0.622825 -0.276109 42
-1.15693 -1.18979 -0.374539 14
-0.573791 -0.413713 0.0588301 38
-0.632725 -0.455862 0.013002 27
-0.709141 -0.510525 -0.0441086 36
-1.54626 -1.58154 -0.0380026 14
-0.860465 -0.618654 -0.125651 42
-0.857643 -0.615958 -0.198085 41
-0.870297 -0.624123 -0.277403 42
-1.1571 -1.18622 -0.373977 14
-0.581968 -0.41513 0.0594838 39
-0.630948 -0.449759 0.0129148 27
-0.707733 -0.503915 -0.0438461 36
-1.55775 -1.57726 -0.0380899 14
-0.859644 -0.611269 -0.125043 42
-1.51901 -1.53785 -0.185706 15
-0.864755 -0.614447 -0.199037 41
-0.865559 -0.614131 -0.274816 41
-1.15307 -1.1697 -0.370608 14
-3.09866 -2.19326 0.866998 2
-3.21677 -3.28015 1.22003 2
-3.09179 -2.1892 0.593141 3
-3.20254 -3.25316 0.879793 1
-0.580659 -0.412675 0.0592659 39
-3.21395 -3.25685 0.55676 9
-0.629769 -0.447104 0.0128711 27
-0.704534 -0.499797 -0.0435835 36
-1.56225 -1.57631 -0.0381335 14
-0.860709 -0.609768 -0.125043 42
-1.52694 -1.54051 -0.186359 15
-0.859811 -0.60869 -0.197609 42
-1.53036 -1.54609 -0.339445 14
-0.862789 -0.609686 -0.273523 42
-1.15681 -1.16943 -0.37117 14
-3.10049 -2.16949 0.864191 8
-3.21578 -3.24382 1.21293 1
-3.09954 -2.16961 0.59236 9
-3.17457 -3.19106 0.867401 1
-0.578802 -0.406672 0.0588301 39
-3.24378 -3.25172 0.558889 8
-0.709188 -0.497532 -0.0437148 36
-1.57429 -1.57138 -0.0382208 14
-0.859927 -0.60226 -0.124434 42
-1.53674 -1.53426 -0.186576 15
-0.861079 -0.602625 -0.197133 42
-1.54366 -1.54331 -0.34062 14
-0.863988 -0.60378 -0.272876 42
-1.16141 -1.16142 -0.370608 14
-3.08591 -2.15208 0.859137 9
-3.23335 -3.2502 1.21745 4
-3.09079 -2.15627 0.590019 9
-0.575425 -0.402812 0.0583943 39
-0.710055 -0.496293 -0.0437148 39
-1.58234 -1.57393 -0.0383517 14
-0.856799 -0.598074 -0.123826 42
-1.5447 -1.53685 -0.187228 15
-0.860114 -0.59972 -0.196656 41
-1.54635 -1.54061 -0.34062 14
-0.86504 -0.602271 -0.272876 42
-1.16323 -1.1596 -0.370608 14
-3.10115 -2.13866 0.86026 8
-3.09798 -2.13725 0.589239 8
-0.577456 -0.399895 0.0583943 39
-0.626876 -0.433813 0.0126966 29
-0.708446 -0.48986 -0.0434522 36
-1.59206 -1.56766 -0.0383953 14
-0.866051 -0.5978 -0.124739 42
-1.55777 -1.53427 -0.187881 15
-0.861117 -0.593968 -0.19618 42
-1.55966 -1.53771 -0.341794 14
-0.870068 -0.599252 -0.273523 42
-1.16756 -1.15177 -0.370046 14
-3.11454 -2.14068 0.863067 2
-3.11595 -2.14163 0.59197 2
-0.582259 -0.401707 0.0588301 39
-5.48202 -5.40681 0.939798 12
-0.625572 -0.431303 0.012653 27
-0.707242 -0.487209 -0.043321 39
-0.85686 -0.589271 -0.123217 42
-1.56045 -1.53155 -0.187881 15
-0.858103 -0.58969 -0.195228 42
-1.56761 -1.54018 -0.342969 14
-0.861147 -0.590914 -0.27029 42
-1.1661 -1.14631 -0.368923 14
-3.13011 -2.12653 0.864191 2
-5.50044 -5.40218 2.05364 11
-3.12303 -2.12251 0.59119 2
-0.580234 -0.395854 0.0583943 39
-5.54398 -5.41099 0.945579 12
-0.627821 -0.428021 0.012653 27
-0.705652 -0.480695 -0.0430584 39
-0.85788 -0.583384 -0.122913 41
-1.5738 -1.52858 -0.188533 15
-0.857115 -0.582435 -0.194276 42
-1.57389 -1.53023 -0.342577 12
-0.86423 -0.586397 -0.27029 42
-1.17383 -1.14189 -0.369485 15
-3.14556 -2.1298 0.86756 2
-5.52884 -5.41117 2.06075 11
-3.14105 -2.12674 0.593921 2
-0.576799 -0.392049 0.0579586 39
-5.63341 -5.47921 0.95927 12
-0.628567 -0.426925 0.012653 29
-0.710626 -0.48226 -0.043321 39
-0.850672 -0.576329 -0.121696 41
-1.57825 -1.52756 -0.188751 15
-0.854062 -0.578192 -0.193323 42
-1.56948 -1.52059 -0.341011 12
-0.857242 -0.579489 -0.267703 41
-1.17233 -1.13644 -0.368362 15
-3.16716 -2.11952 0.870367 3
-5.65592 -5.47798 2.09758 8
-3.1583 -2.11438 0.595092 4
-5.67202 -5.47451 1.52415 12
-0.580914 -0.390408 0.0581765 41
-5.67096 -5.45824 0.960791 12
-0.632872 -0.425018 0.0126966 29
-0.70484 -0.472982 -0.0427959 39
-0.857805 -0.574624 -0.122305 42
-1.58981 -1.52273 -0.189186 15
-0.857078 -0.573713 -0.193323 41
-1.57564 -1.51064 -0.34062 11
-0.862274 -0.576332 -0.26835 42
-1.18002 -1.13198 -0.368923 15
-3.17656 -2.1186 0.872052 3
-5.70541 -5.5067 2.11244 9
-3.1661 -2.11161 0.595872 3
-5.69394 -5.47651 1.52748 12
-0.57745 -0.386631 0.0577407 41
-5.67868 -5.44662 0.960487 12
-0.627372 -0.419754 0.0125657 29
-0.705664 -0.471751 -0.0427959 39
-0.850543 -0.567627 -0.121088 41
-1.59606 -1.5234 -0.18962 15
-0.860121 -0.573575 -0.193799 42
-1.56224 -1.4925 -0.337096 11
-0.86529 -0.576162 -0.268996 44
-1.18375 -1.1316 -0.369485 15
-3.19205 -2.10406 0.873175 3
-5.73591 -5.47842 2.11309 11
-3.19361 -2.10587 0.598994 3
-5.72431 -5.44832 1.52796 12
-0.583625 -0.386343 0.0581765 41
-5.71072 -5.42023 0.961095 14
-0.627474 -0.415088 0.0125221 29
-0.6977 -0.461183 -0.0421395 39
-2.30651 -2.18069 -0.0548006 36
-0.851431 -0.561802 -0.120783 41
-1.61125 -1.52188 -0.19049 15
-0.848757 -0.559626 -0.190466 41
-1.56466 -1.4792 -0.335922 11
-0.858201 -0.564998 -0.265763 44
-1.18966 -1.12539 -0.369485 15
-5.75246 -5.47506 2.11567 11
-5.72848 -5.43325 1.52653 12
-0.582217 -0.383957 0.0579586 41
-5.7526 -5.44097 0.966571 12
-0.626108 -0.412621 0.0124785 29
-0.702679 -0.462704 -0.042402 39
-2.31758 -2.18352 -0.0549751 36
-0.85241 -0.560315 -0.120783 41
-1.61571 -1.52078 -0.190708 15
-0.851786 -0.559489 -0.190942 42
-1.56366 -1.47307 -0.335139 11
-0.861207 -0.56482 -0.26641 42
-1.19515 -1.12666 -0.370608 14
-5.7951 -5.45812 2.12084 11
-5.75506 -5.4015 1.52605 11
-0.58213 -0.379547 0.0577407 41
-5.75023 -5.38193 0.961399 9
-0.632454 -0.412058 0.0125657 29
-0.705172 -0.458896 -0.042402 39
-2.33811 -2.1799 -0.0551932 36
-0.853249 -0.554495 -0.120479 41
-1.63301 -1.52052 -0.191795 14
-0.856764 -0.556355 -0.191419 42
-1.56774 -1.46149 -0.334356 11
-0.85604 -0.555059 -0.263823 42
-1.19926 -1.11872 -0.370046 15
-5.79758 -5.44139 2.11826 9
-5.78154 -5.40554 1.53034 9
-5.82491 -5.43285 0.972352 8
-0.629045 -0.40813 0.0124785 30
-0.596453 -0.549661 0.0406912 21
-0.705972 -0.457664 -0.042402 39
-2.34923 -2.18263 -0.0553678 36
-0.847961 -0.548968 -0.119566 41
-1.64477 -1.52615 -0.192882 14
-0.855671 -0.553528 -0.190942 42
-1.56849 -1.45707 -0.333964 11
-0.859134 -0.554722 -0.26447 44
-1.19943 -1.11497 -0.369485 15
-5.87469 -5.45433 2.13571 8
-5.90158 -5.46025 1.55465 11
-5.90525 -5.4484 0.980871 11
-0.629067 -0.403485 0.0124348 29
-0.595748 -0.54304 0.0404295 23
-0.708358 -0.453961 -0.042402 39
-2.37019 -2.17836 -0.0555859 36
-0.848827 -0.543038 -0.119262 41
-1.65274 -1.51752 -0.192882 14
-0.852445 -0.544934 -0.189514 42
-1.57428 -1.44716 -0.333573 11
-0.862027 -0.550216 -0.26447 44
-1.20902 -1.11177 -0.370608 15
-5.94444 -5.49987 2.15768 12
-5.91651 -5.45493 1.55608 9
-5.91015 -5.43576 0.980262 11
-0.623443 -0.398361 0.0123039 29
-0.594763 -0.540414 0.0402987 24
-0.704936 -0.450045 -0.0421395 39
-2.3832 -2.18267 -0.0558041 36
-0.847585 -0.540373 -0.118958 41
-1.65905 -1.518 -0.193317 4
-0.853394 -0.543445 -0.189514 42
-1.5768 -1.44441 -0.333573 11
-0.858907 -0.546125 -0.263177 44
-1.20898 -1.10822 -0.370046 14
-6.0167 -5.51052 2.17383 12
-5.94224 -5.42326 1.5556 9
-5.9367 -5.40307 0.979958 11
-0.627567 -0.396531 0.0123476 30
-0.595738 -0.535612 0.0401678 23
-0.709397 -0.447676 -0.0422708 41
-2.40346 -2.17899 -0.0560222 36
-0.856706 -0.539888 -0.119871 42
-0.856134 -0.539119 -0.189514 42
-1.58252 -1.43447 -0.333181 11
-0.849383 -0.534075 -0.259297 42
-1.21836 -1.10516 -0.37117 14
-6.04592 -5.51793 2.18094 12
-5.94901 -5.40854 1.55465 9
-5.94061 -5.38769 0.979045 11
-0.626209 -0.393999 0.0123039 30
-0.598521 -0.536248 0.0402987 24
-0.708061 -0.445112 -0.0421395 39
-2.41467 -2.18151 -0.0561967 35
-0.851337 -0.534443 -0.118958 41
-0.852912 -0.535021 -0.188562 42
-1.58136 -1.42839 -0.332398 11
-0.852455 -0.533722 -0.259944 42
-1.22209 -1.10467 -0.371731 14
-6.08465 -5.49324 2.18417 11
-7.31589 -4.53239 1.35447 44
-5.9736 -5.37403 1.5537 9
-0.628264 -0.390714 0.0123039 30
-0.593979 -0.526334 0.0397753 24
-0.706137 -0.438771 -0.0418769 39
-2.43574 -2.17675 -0.0564149 35
-0.852105 -0.528524 -0.118654 41
-0.855794 -0.530399 -0.188562 42
-1.59642 -1.42641 -0.333964 11
-0.853183 -0.527983 -0.259297 42
-1.22986 -1.09967 -0.372293 14
-7.31475 -4.51405 1.97321 36
-6.11038 -5.49715 2.18999 9
-7.30067 -4.50535 1.35018 45
-7.3833 -4.55809 0.756076 21
-0.62469 -0.386992 0.0122167 30
-0.59862 -0.528624 0.040037 24
-0.700526 -0.433606 -0.0414831 39
-2.44886 -2.18082 -0.0566331 36
-0.850913 -0.525734 -0.118349 41
-0.854628 -0.527618 -0.188085 42
-1.60258 -1.42691 -0.334747 11
-0.856161 -0.527758 -0.259944 42
-1.23722 -1.1024 -0.373977 14
-7.31333 -4.46047 1.96647 33
-6.16877 -5.49348 2.20097 11
-7.32127 -4.46706 1.34979 39
-7.39352 -4.51288 0.754769 27
-6.54647 -5.79356 1.06758 2
-0.62664 -0.383826 0.0122167 30
-0.597548 -0.522279 0.0397753 24
-0.707051 -0.432531 -0.0417456 41
-2.4711 -2.17833 -0.0568948 36
-0.845086 -0.516258 -0.117132 41
-0.853095 -0.520734 -0.187133 41
-1.60794 -1.41715 -0.334356 12
-0.854693 -0.52091 -0.25865 42
-1.24096 -1.0945 -0.373416 14
-7.30028 -4.43506 1.96085 30
-6.20181 -5.50356 2.20937 11
-7.2974 -4.43504 1.34393 36
-7.395 -4.49609 0.754115 30
-6.54169 -5.76899 1.06515 2
-0.627376 -0.382622 0.0122167 32
-0.594714 -0.517933 0.0395136 23
-0.70567 -0.430001 -0.0416144 39
-2.4824 -2.18063 -0.0570694 33
-0.848107 -0.516069 -0.117437 41
-0.849805 -0.5167 -0.186181 41
-1.59745 -1.4029 -0.331615 12
-0.855692 -0.519268 -0.25865 42
-1.24835 -1.09718 -0.3751 14
-7.30537 -4.38421 1.9558 35
-6.26415 -5.49862 2.22101 11
-7.30647 -4.3866 1.3412 33
-6.54654 -5.72665 1.68238 3
-7.41281 -4.45216 0.753461 32
-6.60458 -5.76126 1.07032 2
-0.627228 -0.378045 0.0121731 32
-0.599389 -0.516349 0.0396445 23
-0.705771 -0.425016 -0.0414831 42
-2.50547 -2.17702 -0.0573311 33
-0.855144 -0.514024 -0.118045 41
-0.854694 -0.513355 -0.186657 41
-1.60291 -1.3929 -0.331223 12
-0.858399 -0.514781 -0.25865 42
-1.25793 -1.09361 -0.376223 14
-7.29134 -4.36023 1.95018 32
-6.29191 -5.50359 2.22747 9
-7.30064 -4.36751 1.33886 38
-6.55653 -5.71522 1.68238 3
-7.39492 -4.42388 0.750847 30
-6.61175 -5.74925 1.07001 3
-0.627887 -0.37695 0.0121731 32
-0.596431 -0.512131 0.0393828 23
-0.708655 -0.425064 -0.0416144 41
-2.51682 -2.1792 -0.0575057 33
-0.843167 -0.505048 -0.11622 41
-2.48671 -2.1538 -0.284213 24
-0.849265 -0.508092 -0.185228 41
-1.60161 -1.38686 -0.33044 12
-0.846846 -0.505869 -0.254771 41
-1.26148 -1.09324 -0.376785 14
-7.29099 -4.30837 1.94401 29
-6.34341 -5.49223 2.23587 9
-7.30002 -4.3154 1.33457 32
-6.59651 -5.69158 1.68524 4
-7.40007 -4.37626 0.749104 32
-6.6286 -5.70322 1.06788 3
-0.625483 -0.371224 0.0120858 32
-0.597211 -0.507373 0.039252 24
-0.708721 -0.420078 -0.0414831 42
-2.5354 -2.17295 -0.0576802 30
-0.8458 -0.500626 -0.11622 41
-2.53006 -2.16835 -0.28791 30
-0.847597 -0.501294 -0.184276 41
-1.5995 -1.3704 -0.328483 12
-0.851477 -0.502801 -0.255417 41
-1.27088 -1.0898 -0.377908 14
-7.2838 -4.28699 1.94008 29
-6.37309 -5.49852 2.24298 9
-7.29477 -4.29514 1.33223 32
-6.59999 -5.67251 1.68333 4
-7.39053 -4.35322 0.74736 32
-6.63855 -5.69164 1.06788 2
-0.630503 -0.372558 0.0121731 32
-0.594305 -0.50308 0.0389903 23
-0.705149 -0.416309 -0.0412205 42
-2.54868 -2.17665 -0.0578984 29
-0.844533 -0.497892 -0.115916 41
-2.55276 -2.18013 -0.290085 32
-0.850587 -0.501056 -0.184752 41
-1.59814 -1.36439 -0.3277 12
-0.850357 -0.499944 -0.254771 42
-1.27832 -1.09234 -0.379592 14
-7.28583 -4.23528 1.93446 29
-6.42845 -5.48592 2.25202 9
-7.29656 -4.2432 1.32832 33
-6.62025 -5.62991 1.68095 3
-7.40321 -4.30691 0.746271 33
-6.5652 -5.56731 1.05115 1
-0.597018 -0.499858 0.0389903 23
-0.705161 -0.411357 -0.0410893 44
-2.56995 -2.17091 -0.0581165 26
-0.842923 -0.490824 -0.115307 41
-2.57554 -2.17639 -0.291389 29
-0.853286 -0.496447 -0.184752 41
-1.60338 -1.3544 -0.327308 12
-0.857143 -0.497905 -0.256064 42
-1.29164 -1.09172 -0.381839 14
-7.28615 -4.22017 1.93278 29
-6.45824 -5.49191 2.25913 9
-7.29039 -4.22431 1.32598 32
-6.57767 -5.5739 1.6676 2
-7.38916 -4.2815 0.744092 32
-6.60804 -5.58584 1.05663 2
-0.597802 -0.498919 0.0389903 24
-0.703717 -0.408875 -0.040958 42
-2.58329 -2.17448 -0.0583347 23
-0.841544 -0.488257 -0.115003 41
-2.58504 -2.17672 -0.292042 24
-0.8499 -0.492502 -0.1838 41
-1.60385 -1.35001 -0.326917 12
-0.853827 -0.493996 -0.254771 42
-1.29521 -1.09127 -0.3824 14
-7.28488 -4.16865 1.9266 29
-6.5155 -5.48405 2.26947 9
-7.29098 -4.17381 1.32208 30
-6.56633 -5.50739 1.65759 2
-7.39993 -4.23786 0.743003 33
-6.65051 -5.56232 1.05876 3
-0.621927 -0.357489 0.0119113 33
-0.602322 -0.497384 0.0391211 23
-0.703611 -0.404069 -0.0408267 44
-2.60577 -2.17099 -0.0585965 18
-0.846244 -0.485075 -0.115307 41
-2.60558 -2.17159 -0.293129 27
-0.843857 -0.483327 -0.181895 41
-1.60333 -1.33525 -0.325351 12
-0.85212 -0.487276 -0.253477 42
-1.30464 -1.0876 -0.383523 14
-7.28084 -4.15117 1.92379 27
-6.54911 -5.49286 2.27787 8
-7.28538 -4.15375 1.31974 32
-6.66439 -5.56994 1.67999 9
-7.39434 -4.21754 0.741695 33
-6.69069 -5.57614 1.06362 9
-0.626893 -0.358878 0.0119985 32
-0.597435 -0.491538 0.0387286 23
-0.708653 -0.405312 -0.0410893 44
-2.61532 -2.17124 -0.0587273 15
-0.838462 -0.478689 -0.11409 39
-2.61702 -2.17341 -0.293999 27
-0.842565 -0.480641 -0.181419 41
-1.60186 -1.32929 -0.324568 12
-0.850869 -0.484596 -0.252831 44
-1.31401 -1.09157 -0.385769 14
-7.27347 -4.09499 1.91593 23
-6.60936 -5.48473 2.28886 9
-7.28551 -4.10343 1.31584 33
-6.71804 -5.55532 1.68619 14
-7.39245 -4.16532 0.739299 32
-6.7064 -5.52997 1.06149 8
-0.624407 -0.353138 0.0119113 32
-0.603853 -0.491579 0.0389903 24
-0.704308 -0.397799 -0.0406954 44
-2.6498 -2.17659 -0.0592509 14
-0.836631 -0.47186 -0.113482 39
-2.64797 -2.17506 -0.296173 35
-0.84507 -0.476222 -0.181419 41
-1.59927 -1.31303 -0.32261 12
-0.857607 -0.482497 -0.254124 44
-1.31971 -1.08468 -0.385769 12
-7.26998 -4.07634 1.91312 23
-6.64125 -5.49167 2.29661 9
-7.27974 -4.08346 1.31349 33
-6.68325 -5.50494 1.67475 14
-7.39102 -4.14754 0.738427 33
-6.67388 -5.48358 1.0548 3
-0.627264 -0.353161 0.0119549 32
-0.602781 -0.488939 0.0388594 24
-0.705001 -0.396569 -0.0406954 44
-2.6536 -2.17196 -0.0592509 14
-0.839619 -0.471611 -0.113786 39
-2.65753 -2.17517 -0.296826 33
-0.848042 -0.475945 -0.181895 41
-1.59584 -1.30553 -0.321436 12
-0.856423 -0.479672 -0.253477 45
-1.32912 -1.08857 -0.388015 12
-7.26849 -4.02397 1.90695 18
-6.70263 -5.48167 2.3076 9
-7.28876 -4.03684 1.31115 33
-6.68726 -5.4497 1.66856 11
-7.38721 -4.09301 0.735812 33
-0.626918 -0.348661 0.0119113 32
-0.599604 -0.480948 0.0384669 24
-0.698331 -0.388037 -0.0401703 44
-2.69442 -2.1812 -0.0599054 12
-0.846501 -0.469462 -0.114394 42
-2.68242 -2.17222 -0.298348 33
-0.846308 -0.468977 -0.180943 42
-1.60074 -1.2956 -0.321044 12
-0.850464 -0.470517 -0.250891 44
-1.34633 -1.09059 -0.391385 12
-7.25346 -4.00078 1.90133 17
-6.73651 -5.48981 2.316 8
-7.28212 -4.01823 1.30881 33
-6.63202 -5.38538 1.65235 12
-7.38562 -4.0753 0.734941 33
-0.627526 -0.347566 0.0119113 32
-0.600359 -0.480006 0.0384669 24
-0.701193 -0.388023 -0.0403016 44
-0.847238 -0.468132 -0.114394 42
-2.69202 -2.17223 -0.299 33
-0.847125 -0.467499 -0.180943 42
-1.59341 -1.28503 -0.319086 12
-0.855517 -0.471357 -0.252184 44
-1.34615 -1.08694 -0.390823 12
-7.24222 -3.94527 1.89291 15
-6.79427 -5.47992 2.32634 8
-7.28354 -3.96941 1.3053 33
-6.65346 -5.34713 1.65092 11
-7.38209 -4.02475 0.732544 32
-0.627082 -0.34319 0.0118676 33
-0.597019 -0.472173 0.0380744 24
-0.703215 -0.384346 -0.0403016 44
-0.843138 -0.460133 -0.113482 42
-2.71696 -2.169 -0.300522 32
-0.843011 -0.45969 -0.179515 42
-1.60011 -1.27667 -0.319086 12
-0.851524 -0.463566 -0.250244 44
-7.22125 -3.91753 1.88561 14
-6.82829 -5.48773 2.33474 8
-7.28178 -3.95198 1.30374 33
-6.68094 -5.34816 1.65521 9
-7.38473 -4.00949 0.732108 33
-0.599793 -0.472688 0.0382052 23
-0.703885 -0.383118 -0.0403016 44
-0.843939 -0.458661 -0.113482 42
-2.72853 -2.17047 -0.301392 21
-0.848129 -0.460554 -0.180467 44
-0.854537 -0.463078 -0.250891 44
-7.22087 -3.86691 1.87999 14
-6.89001 -5.47627 2.34572 8
-7.28782 -3.90437 1.30101 35
-6.73962 -5.3375 1.66284 9
-7.38436 -3.95771 0.729929 32
-0.598423 -0.466342 0.0379436 23
-0.697077 -0.374715 -0.0397765 44
-0.837655 -0.449408 -0.112265 42
-2.7555 -2.1685 -0.303132 14
-0.844115 -0.452489 -0.179038 42
-0.850558 -0.455188 -0.248951 44
-7.18824 -3.83492 1.86989 14
-6.91469 -5.47624 2.35089 8
-7.28305 -3.8871 1.29906 35
-6.77204 -5.34399 1.66856 11
-7.38247 -3.94013 0.729058 33
-0.623495 -0.334066 0.0117367 26
-0.599155 -0.465401 0.0379436 23
-0.699933 -0.374672 -0.0399078 45
-0.842741 -0.450425 -0.112873 44
-2.74753 -2.15445 -0.301827 11
-0.84707 -0.452168 -0.179515 44
-0.851351 -0.453703 -0.248951 44
-7.17804 -3.78134 1.86202 14
-6.98032 -5.47099 2.36382 9
-7.27927 -3.83626 1.29476 33
-7.37808 -3.88994 0.726661 32
-0.627389 -0.332071 0.0117804 15
-0.599613 -0.460724 0.0378127 23
-0.838499 -0.442541 -0.11196 42
-0.84283 -0.44445 -0.178086 42
-0.845082 -0.444901 -0.246365 42
-7.16306 -3.7575 1.85641 15
-7.27502 -3.81781 1.29281 33
-7.37824 -3.87359 0.726007 33
-0.594498 -0.455086 0.0374202 23
-0.845865 -0.44453 -0.112873 42
-0.84143 -0.44184 -0.17761 44
-0.845935 -0.443278 -0.246365 44
-7.15732 -3.70525 1.84967 18
-7.27583 -3.76817 1.2893 33
-7.37919 -3.8233 0.724046 33
-0.598933 -0.453383 0.037551 23
-0.83944 -0.43539 -0.111656 42
-0.872356 -0.662863 -0.0926357 41
-0.845989 -0.438407 -0.178086 42
-0.850391 -0.439949 -0.247011 42
-7.1588 -3.69177 1.84855 20
-7.2802 -3.75434 1.28891 33
-2.86295 -2.19151 0.693444 3
-7.37257 -3.80357 0.722739 32
-0.554582 -0.418424 0.0809279 52
-3.18317 -1.64241 0.0619124 32
-0.595756 -0.449304 0.0372894 23
-0.840198 -0.433925 -0.111656 44
-0.871533 -0.659828 -0.0924182 44
-0.846753 -0.43693 -0.178086 44
-0.853306 -0.439567 -0.247658 44
-7.1613 -3.64415 1.84406 20
-2.87529 -2.18502 0.957029 8
-7.28215 -3.70721 1.28579 33
-2.85288 -2.16016 0.688202 11
-7.37907 -3.75813 0.721432 32
-0.556765 -0.415514 0.0809279 52
-3.16722 -1.61325 0.0614325 33
-0.693646 -0.354375 -0.0391201 45
-0.844671 -0.430643 -0.11196 44
-0.849029 -0.432491 -0.178086 44
-0.851287 -0.43291 -0.246365 44
-7.14746 -3.62299 1.839 23
-2.86755 -2.17124 0.953152 9
-7.2776 -3.68891 1.28384 33
-2.87622 -2.16999 0.692968 9
-7.37895 -3.74187 0.720778 33
-0.559471 -0.416036 0.0812321 50
-3.15666 -1.60094 0.0611707 36
-0.69649 -0.354292 -0.0392514 45
-0.675613 -0.502577 -0.0140928 18
-0.838778 -0.425808 -0.111048 45
-0.845401 -0.428794 -0.177134 44
-0.843417 -0.427072 -0.243778 42
-7.14672 -3.57571 1.83395 23
-2.87078 -2.15089 0.950567 4
-7.27851 -3.64319 1.28072 33
-2.88913 -2.15687 0.693444 8
-7.38221 -3.69667 0.719253 32
-0.559581 -0.411715 0.0809279 42
-3.16248 -1.58382 0.061127 36
-0.595119 -0.437621 0.0368968 23
-0.69387 -0.348407 -0.0389889 45
-0.676143 -0.497657 -0.0140492 18
-0.845363 -0.423775 -0.111656 44
-0.879529 -0.649131 -0.0924182 47
-0.845365 -0.423414 -0.176658 44
-0.857955 -0.633953 -0.163654 45
-0.841245 -0.420645 -0.242485 42
-0.859911 -0.636757 -0.238649 42
-7.14422 -3.55888 1.8317 24
-2.8784 -2.14877 0.951859 3
-7.2716 -3.62388 1.27837 35
-2.86769 -2.13225 0.687249 2
-7.37527 -3.67712 0.717945 32
-0.564281 -0.413699 0.0815364 36
-3.15657 -1.57329 0.0609525 36
-0.593877 -0.435094 0.036766 23
-0.696712 -0.348308 -0.0391201 45
-0.677011 -0.496477 -0.0140492 20
-0.843879 -0.421194 -0.111352 44
-0.868661 -0.63869 -0.0911135 47
-0.841707 -0.419754 -0.175705 42
-0.851133 -0.626563 -0.162088 45
-0.848542 -0.422247 -0.244425 44
-0.862975 -0.63671 -0.239211 41
-7.15026 -3.51373 1.82833 26
-2.87446 -2.12167 0.94669 1
-7.27337 -3.57577 1.27525 35
-2.88276 -2.12012 0.688202 2
-7.37942 -3.62947 0.71642 33
-0.562513 -0.4077 0.0809279 36
-0.60226 -0.436307 0.0371585 26
-0.696285 -0.343555 -0.0389889 45
-0.677672 -0.491328 -0.0140056 20
-0.850601 -0.418808 -0.11196 45
-0.876008 -0.63708 -0.0915484 49
-0.850577 -0.418434 -0.177134 44
-0.852413 -0.620636 -0.161697 45
-0.844233 -0.414614 -0.242485 42
-0.854638 -0.623364 -0.235841 41
-7.14701 -3.49822 1.82609 24
-2.89759 -2.13099 0.953152 2
-7.26345 -3.55674 1.27252 35
-7.36784 -3.60782 0.714677 33
-0.563152 -0.406816 0.0809279 36
-0.598915 -0.432411 0.0368968 26
-0.692398 -0.340145 -0.0387263 47
-0.674493 -0.487194 -0.0139183 20
-0.84457 -0.414203 -0.111048 44
-0.871088 -0.631139 -0.090896 49
-0.840278 -0.411568 -0.174753 44
-0.853495 -0.619147 -0.161697 45
-0.844956 -0.41314 -0.242485 44
-0.85758 -0.623463 -0.236403 39
-7.15426 -3.45545 1.82328 26
-7.27308 -3.51436 1.27096 35
-7.38153 -3.56832 0.714241 33
-0.561257 -0.400949 0.0803194 36
-0.597126 -0.426342 0.0366352 26
-0.689673 -0.334345 -0.0384638 45
-0.681001 -0.486704 -0.0140056 21
-0.844492 -0.408698 -0.110743 44
-0.874381 -0.62657 -0.090896 49
-0.844561 -0.408374 -0.175229 42
-0.858724 -0.616118 -0.162088 47
-0.84486 -0.407811 -0.241838 42
-0.854918 -0.61467 -0.234718 41
-7.14052 -3.43346 1.81823 26
-7.26362 -3.49417 1.26823 33
-7.3653 -3.54463 0.712062 35
-0.563967 -0.401421 0.0806237 36
-0.595844 -0.423839 0.0365043 26
-0.694756 -0.335303 -0.0387263 47
-0.679821 -0.484053 -0.0139619 20
-0.845204 -0.407223 -0.110743 44
-0.873453 -0.623587 -0.0906786 49
-0.836421 -0.402655 -0.173324 44
-0.857796 -0.613173 -0.161697 47
-0.845641 -0.406189 -0.241838 44
-0.85599 -0.613177 -0.234718 39
-7.14579 -3.38852 1.81486 26
-7.2735 -3.45059 1.26667 33
-7.37537 -3.50046 0.711191 35
-0.560073 -0.394038 0.0797109 36
-0.602194 -0.423507 0.036766 26
-0.694246 -0.330592 -0.038595 47
-0.68243 -0.480367 -0.0139619 21
-0.842909 -0.400521 -0.110135 44
-0.874678 -0.617559 -0.0904611 49
-0.836368 -0.397074 -0.172848 42
-0.858985 -0.607239 -0.161305 47
-0.839021 -0.397632 -0.239252 42
-0.849387 -0.601451 -0.231911 41
-7.14229 -3.37313 1.81261 24
-7.26104 -3.43073 1.26355 33
-7.37246 -3.48333 0.710319 33
-0.556648 -0.39028 0.0791025 36
-0.598789 -0.419668 0.0365043 26
-0.694822 -0.32938 -0.038595 45
-0.681229 -0.477729 -0.0139183 20
-0.839048 -0.39708 -0.109526 44
-0.869662 -0.611706 -0.0898088 50
-0.83706 -0.395614 -0.172848 42
-0.858032 -0.604308 -0.160914 47
-0.839713 -0.396167 -0.239252 42
-0.852315 -0.60153 -0.232472 41
-7.15323 -3.3326 1.81093 26
-3.06175 -2.16345 0.993863 2
-7.26548 -3.3864 1.2612 33
-3.09458 -2.17868 0.728236 3
-7.37871 -3.44071 0.70923 35
-0.598935 -0.415092 0.0363735 26
-0.687483 -0.321523 -0.0380699 47
-0.679547 -0.471401 -0.013831 20
-0.843365 -0.393728 -0.109831 44
-0.870815 -0.605712 -0.0895913 49
-0.839052 -0.391372 -0.172848 44
-0.855125 -0.595545 -0.159739 47
-0.835135 -0.388864 -0.237312 42
-0.85147 -0.594252 -0.231349 41
-7.13693 -3.30987 1.80531 24
-3.06946 -2.16088 0.995155 2
-7.2669 -3.37164 1.26042 33
-3.09073 -2.16709 0.72633 9
-7.35985 -3.4163 0.706833 32
-0.599659 -0.414046 0.0363735 27
-0.688044 -0.320323 -0.0380699 47
-0.676273 -0.467349 -0.0137438 20
-0.846303 -0.393298 -0.110135 45
-0.873912 -0.605619 -0.0898088 49
-0.839734 -0.389907 -0.172848 44
-0.854141 -0.592635 -0.159347 47
-0.83588 -0.38726 -0.237312 42
-0.846525 -0.588565 -0.229665 42
-7.15252 -3.27019 1.80475 23
-3.09101 -2.15116 0.998386 9
-7.26707 -3.32406 1.2573 33
-3.10204 -2.15088 0.72633 9
-7.3669 -3.37125 0.705744 32
-0.593679 -0.405112 0.0358501 26
-0.68517 -0.31464 -0.0378074 47
-0.676736 -0.462261 -0.0137001 20
-0.846161 -0.387683 -0.109831 45
-0.872975 -0.598201 -0.0893739 49
-0.841831 -0.385358 -0.172848 44
-0.853173 -0.585342 -0.158564 49
-0.837897 -0.382878 -0.237312 42
-0.847696 -0.582587 -0.229103 42
-7.18647 -3.27207 1.81205 20
-3.10864 -2.15541 1.00291 8
-7.26329 -3.30855 1.25574 35
-3.09771 -2.13987 0.724423 4
-7.36144 -3.35322 0.704654 32
-0.59637 -0.405597 0.035981 27
-0.690263 -0.315511 -0.0380699 47
-0.669308 -0.455406 -0.0135256 18
-0.84451 -0.385327 -0.109526 44
-0.869916 -0.593849 -0.088939 50
-0.842502 -0.383888 -0.172848 44
-0.852162 -0.582449 -0.158173 49
-0.840763 -0.382411 -0.237958 44
-0.850613 -0.582641 -0.229665 41
-7.24129 -3.25135 1.82159 14
-3.11553 -2.13691 1.00162 4
-7.267 -3.2644 1.2534 35
-3.13078 -2.13943 0.729666 2
-7.36923 -3.31184 0.703783 33
-0.596423 -0.401062 0.0358501 26
-0.687296 -0.309969 -0.0378074 49
-0.671605 -0.452012 -0.0135256 18
-0.844252 -0.379885 -0.109222 44
-0.870853 -0.588036 -0.0887215 50
-0.837715 -0.37661 -0.17142 44
-0.8552 -0.577979 -0.158173 49
-0.833869 -0.374209 -0.235372 42
-0.84561 -0.572677 -0.227419 42
-7.29754 -3.26284 1.83451 12
-3.13121 -2.13966 1.00549 2
-7.25916 -3.24567 1.25106 35
-3.13248 -2.13258 0.729189 2
-7.35454 -3.28982 0.701822 33
-2.09892 -0.939532 0.0395297 4
-0.597122 -0.40002 0.0358501 27
-0.683277 -0.306733 -0.0375448 49
-0.668257 -0.448031 -0.0134384 18
-0.844914 -0.378411 -0.109222 45
-0.869818 -0.585115 -0.088504 52
-0.838371 -0.375148 -0.17142 45
-0.854165 -0.575097 -0.157781 49
-0.838934 -0.374716 -0.236665 42
-0.844595 -0.569828 -0.226857 44
-7.26604 -3.2017 1.82216 30
-3.14437 -2.12459 1.00614 2
-7.26023 -3.20064 1.24833 35
-3.15377 -2.12301 0.731572 2
-7.36255 -3.24725 0.70095 35
-2.11296 -0.932561 0.0397042 4
-0.597136 -0.395495 0.0357193 27
-0.687211 -0.304037 -0.0376761 47
-0.670594 -0.444526 -0.0134384 18
-0.844612 -0.372982 -0.108918 45
-0.870903 -0.579012 -0.0882866 50
-0.835829 -0.368778 -0.170467 44
-0.855116 -0.569239 -0.15739 49
-0.832038 -0.366439 -0.234079 42
-0.847567 -0.565398 -0.226857 44
-7.26269 -3.1851 1.81991 33
-3.15208 -2.1218 1.00743 2
-7.2545 -3.18301 1.24638 35
-3.16599 -2.12243 0.733478 3
-7.35908 -3.23039 0.700079 33
-2.11704 -0.929506 0.0397479 4
-0.597826 -0.394453 0.0357193 29
-0.685454 -0.301835 -0.0375448 45
-0.667213 -0.440575 -0.0133511 18
-0.849808 -0.373498 -0.109526 45
-0.867773 -0.574722 -0.0878517 52
-0.831975 -0.365352 -0.169515 44
-0.856108 -0.567746 -0.15739 49
-0.83938 -0.367738 -0.236019 44
-0.844508 -0.561201 -0.225734 44
-7.25969 -3.13707 1.81486 33
-3.17355 -2.11142 1.01066 3
-7.26028 -3.13882 1.24443 35
-3.18932 -2.11397 0.736338 3
-7.35817 -3.18262 0.698335 33
-2.12647 -0.920392 0.0398351 4
-0.597869 -0.389835 0.0355885 29
-0.684733 -0.297252 -0.0374136 49
-0.669587 -0.436959 -0.0133511 21
-0.840424 -0.363981 -0.108005 45
-0.872847 -0.571544 -0.0880691 52
-0.836193 -0.361817 -0.169991 45
-0.857011 -0.561892 -0.156998 47
-0.836857 -0.36143 -0.234725 42
-0.851592 -0.559318 -0.226857 44
-7.25342 -3.12085 1.81205 35
-3.19333 -2.11657 1.01583 2
-7.24933 -3.12058 1.24169 33
-3.18482 -2.10298 0.734432 3
-7.35456 -3.16584 0.697464 33
-2.13496 -0.919641 0.039966 4
-0.596396 -0.387521 0.0354576 27
-0.685251 -0.296057 -0.0374136 49
-0.666174 -0.43304 -0.0132638 18
-0.843274 -0.363639 -0.10831 45
-0.865525 -0.564539 -0.0871993 52
-0.841334 -0.362291 -0.170944 45
-0.853868 -0.557676 -0.156215 49
-0.837487 -0.359969 -0.234725 44
-0.848405 -0.555292 -0.225734 44
-7.25845 -3.07807 1.80924 33
-7.25193 -3.07679 1.23935 33
-7.35902 -3.12371 0.696374 35
-0.6026 -0.38712 0.0357193 27
-0.677597 -0.288569 -0.0368885 49
-0.672546 -0.432391 -0.0133511 18
-0.840596 -0.357285 -0.107701 45
-0.870556 -0.561359 -0.0874168 53
-0.836376 -0.355161 -0.169515 45
-0.860913 -0.555895 -0.156998 47
-0.834848 -0.353847 -0.233432 42
-0.851301 -0.550842 -0.225734 44
-7.25707 -3.06256 1.80756 33
-7.25046 -3.06125 1.23818 33
-7.3507 -3.10505 0.695067 33
-0.596993 -0.381988 0.0353268 29
-0.6804 -0.288356 -0.0370197 49
-0.664912 -0.425774 -0.0131766 20
-0.843506 -0.35678 -0.108005 47
-0.865266 -0.555771 -0.0867644 52
-0.836995 -0.3537 -0.169515 45
-0.857741 -0.551701 -0.156215 47
-0.835526 -0.352244 -0.233432 42
-0.840014 -0.541378 -0.222365 44
-7.25779 -3.01671 1.80363 33
-7.25095 -3.01534 1.23545 33
-7.35359 -3.05949 0.69376 35
-0.603254 -0.381449 0.0355885 29
-0.677289 -0.282874 -0.0367572 49
-0.671415 -0.424869 -0.0132638 20
-0.84084 -0.35031 -0.107397 45
-0.872357 -0.553923 -0.0871993 52
-0.834362 -0.347288 -0.168563 45
-0.860618 -0.547202 -0.156215 49
-0.835127 -0.346941 -0.232785 42
-0.849076 -0.540781 -0.224049 44
-7.25576 -3.00251 1.80194 33
-7.23971 -2.99734 1.23272 33
-7.34972 -3.04285 0.692888 33
-0.599645 -0.377811 0.0353268 27
-0.682396 -0.283599 -0.0370197 49
-0.667942 -0.421005 -0.0131766 20
-0.839095 -0.348041 -0.107093 45
-0.862829 -0.545694 -0.086112 52
-0.837235 -0.346766 -0.169039 45
-0.849093 -0.537713 -0.153866 47
-0.842431 -0.34824 -0.234725 45
-0.841722 -0.534185 -0.221803 44
-7.26462 -2.96172 1.80026 33
-7.24616 -2.95566 1.23116 35
-7.35119 -2.99996 0.691581 33
-0.599505 -0.373332 0.0351959 27
-0.683823 -0.280142 -0.0370197 49
-0.663724 -0.413614 -0.0130457 20
-0.843205 -0.344578 -0.107397 45
-0.859264 -0.537328 -0.0854597 52
-0.83898 -0.342524 -0.169039 45
-0.853984 -0.53458 -0.154258 47
-0.832994 -0.339433 -0.231492 42
-0.844508 -0.52977 -0.221803 44
-7.25346 -2.9439 1.79633 33
-7.24215 -2.9393 1.2296 35
-7.34026 -2.98057 0.690056 33
-0.598043 -0.370955 0.0350651 27
-0.681997 -0.27801 -0.0368885 49
-0.664445 -0.412455 -0.0130457 20
-0.841505 -0.342175 -0.107093 45
-0.864416 -0.538481 -0.0858946 52
-0.839576 -0.34106 -0.169039 45
-0.854915 -0.533089 -0.154258 47
-0.833585 -0.337979 -0.231492 44
-0.839252 -0.524392 -0.220119 44
-7.263 -2.90063 1.79464 33
-7.24648 -2.89549 1.22765 35
-7.35628 -2.94082 0.690056 32
-0.600042 -0.367714 0.0350651 27
-0.681173 -0.27339 -0.0367572 49
-0.666667 -0.408854 -0.0130457 20
-0.843344 -0.337617 -0.107093 45
-0.860972 -0.529851 -0.0852422 52
-0.841409 -0.336512 -0.169039 45
-0.855599 -0.5273 -0.153866 45
-0.835402 -0.333464 -0.231492 42
-0.842077 -0.519844 -0.220119 42
-7.25396 -2.88382 1.79127 32
-7.24873 -2.88319 1.22726 35
-7.30886 -4.54543 1.66474 44
-7.3452 -2.92153 0.68853 33
-7.41428 -4.59856 1.06545 36
-0.598496 -0.365455 0.0349342 27
-0.683969 -0.273122 -0.0368885 49
-0.66738 -0.40769 -0.0130457 20
-0.846179 -0.337207 -0.107397 47
-0.859779 -0.527035 -0.0850248 52
-0.837432 -0.333235 -0.168087 45
-0.848126 -0.520598 -0.1523 45
-0.835982 -0.332005 -0.231492 42
-0.842893 -0.51852 -0.220119 42
-7.25535 -2.84047 1.7879 32
-7.32891 -4.52421 2.29532 38
-7.24763 -2.8389 1.22452 30
-7.31714 -4.49938 1.66141 36
-7.34598 -2.87887 0.687223 33
-7.41287 -4.5441 1.0618 33
-0.600402 -0.362316 0.0349342 27
-0.683065 -0.268628 -0.0367572 49
-0.667303 -0.403001 -0.013002 20
-0.845622 -0.331869 -0.107093 47
-0.858278 -0.519925 -0.0845899 52
-0.84368 -0.330777 -0.169039 45
-0.852945 -0.517441 -0.152692 47
-0.835402 -0.326893 -0.230846 42
-0.837295 -0.508997 -0.217873 42
-7.31828 -4.50002 2.2895 36
-7.31321 -4.47762 1.65855 36
-7.40597 -4.5221 1.05967 39
-0.681206 -0.26653 -0.0366259 49
-0.665871 -0.400535 -0.0129584 20
-0.841574 -0.328594 -0.106484 45
-0.857058 -0.51713 -0.0843724 52
-0.841969 -0.328416 -0.168563 45
-0.85174 -0.514664 -0.1523 45
-0.829272 -0.322672 -0.228906 42
-0.838182 -0.507535 -0.217873 42
-7.32602 -4.45031 2.28433 36
-7.31767 -4.42783 1.65426 35
-7.41121 -4.47042 1.05693 35
-0.682592 -0.26296 -0.0366259 50
-0.668029 -0.396926 -0.0129584 20
-0.838705 -0.322263 -0.105876 45
-0.855488 -0.510064 -0.0839375 52
-0.843733 -0.323855 -0.168563 45
-0.848081 -0.506369 -0.151126 45
-0.828694 -0.317466 -0.228259 42
-0.845084 -0.505514 -0.218996 42
-7.32345 -4.43126 2.2811 36
-7.28966 -4.39349 1.64616 38
-3.09208 -1.181 0.286525 11
-7.40547 -4.45109 1.05511 35
-0.678384 -0.25999 -0.0363633 50
-0.66872 -0.395759 -0.0129584 20
-0.843848 -0.322711 -0.106484 47
-0.856377 -0.50857 -0.0839375 50
-0.835121 -0.318895 -0.166658 45
-0.85108 -0.506161 -0.151517 45
-0.826988 -0.315162 -0.227612 42
-0.839618 -0.500413 -0.217311 42
-7.32299 -4.38049 2.27399 36
-7.21275 -4.29744 1.62376 24
-3.13765 -1.18022 0.290229 11
-7.40735 -4.39957 1.05206 33
-0.684366 -0.258307 -0.0366259 50
-0.666416 -0.389819 -0.0128711 20
-0.838555 -0.315676 -0.105571 45
-0.852515 -0.500415 -0.0832851 53
-0.832127 -0.312943 -0.165706 44
-0.851596 -0.500436 -0.151126 47
-0.833098 -0.312663 -0.228906 42
-0.842227 -0.49601 -0.217311 42
-7.30159 -4.35038 2.26495 33
-7.21602 -4.28234 1.6228 20
-3.11871 -1.1669 0.288268 3
-7.3894 -4.37146 1.04841 33
-0.680138 -0.255366 -0.0363633 50
-0.660639 -0.38484 -0.0127403 21
-0.843755 -0.315946 -0.10618 45
-0.855531 -0.500194 -0.0835026 53
-0.832672 -0.31149 -0.165706 45
-0.850343 -0.497691 -0.150734 47
-0.831378 -0.310367 -0.228259 44
-0.843091 -0.494539 -0.217311 42
-7.31179 -4.30473 2.26107 30
-7.23623 -4.24326 1.62233 20
-3.14582 -1.15829 0.290229 2
-7.40148 -4.32644 1.04689 35
-0.683854 -0.252543 -0.0364946 50
-0.660486 -0.380115 -0.0126966 20
-0.838409 -0.30896 -0.105267 45
-0.856074 -0.494302 -0.0832851 52
-0.836596 -0.30797 -0.166182 45
-0.848675 -0.490739 -0.149951 45
-0.837528 -0.307668 -0.229552 42
-0.837263 -0.48519 -0.215065 42
-7.23165 -4.22192 1.61947 15
-3.12678 -1.1451 0.288268 2
-7.39186 -4.30352 1.04446 35
-7.37078 -4.28436 0.444986 21
-0.681948 -0.250493 -0.0363633 50
-0.66547 -0.381475 -0.0127839 20
-0.838947 -0.307496 -0.105267 45
-0.856936 -0.492807 -0.0832851 52
-0.837132 -0.30651 -0.166182 45
-0.84953 -0.489257 -0.149951 47
-0.835848 -0.305235 -0.228906 44
-0.840212 -0.484956 -0.215626 42
-7.25578 -4.18523 1.61994 14
-3.1259 -1.12563 0.287614 2
-7.39999 -4.2548 1.04233 36
-1.70725 -0.615111 0.0310653 50
-7.32675 -4.20585 0.44093 1
-0.680901 -0.246075 -0.0362321 50
-0.661022 -0.374135 -0.012653 20
-0.833591 -0.30044 -0.104354 47
-0.855185 -0.485832 -0.0828502 53
-0.841089 -0.302804 -0.166658 45
-0.8478 -0.482339 -0.149168 45
-0.830612 -0.298415 -0.226966 42
-0.842824 -0.480403 -0.215626 42
-5.78345 -3.33477 1.77706 8
-7.23329 -4.15543 1.61327 14
-3.11614 -1.11598 0.286525 2
-7.39159 -4.23453 1.0402 35
-1.70362 -0.610448 0.030978 52
-7.32035 -4.18689 0.440145 1
-0.681329 -0.244886 -0.0362321 50
-0.661674 -0.37298 -0.012653 20
-0.834062 -0.29913 -0.104354 45
-0.851709 -0.481865 -0.0824153 53
-0.83468 -0.298864 -0.16523 45
-0.84864 -0.480859 -0.149168 47
-0.831132 -0.296965 -0.226966 44
-0.841465 -0.477865 -0.215065 42
-5.82542 -3.31982 1.78482 8
-7.25423 -4.11876 1.61327 12
-3.11 -1.09606 0.285435 2
-7.39639 -4.18598 1.03776 35
-1.70904 -0.602647 0.0310216 52
-7.34 -4.14728 0.440015 1
-0.682602 -0.241315 -0.0362321 50
-0.659201 -0.367166 -0.0125657 20
-0.835616 -0.294759 -0.104354 45
-0.85422 -0.477399 -0.0824153 53
-0.83155 -0.293012 -0.164277 44
-0.842552 -0.471542 -0.147602 45
-0.825786 -0.290363 -0.225026 44
-0.839718 -0.471048 -0.213942 42
-5.8396 -3.31442 1.7874 9
-7.24504 -4.09516 1.60946 12
-3.11896 -1.0931 0.286089 3
-7.39072 -4.16575 1.03594 35
-1.70312 -0.59689 0.0308908 50
-7.3494 -4.13569 0.440145 1
-0.683022 -0.240123 -0.0362321 50
-0.662019 -0.367241 -0.0126094 20
-0.829101 -0.290847 -0.103442 45
-0.848541 -0.472242 -0.081763 53
-0.827425 -0.289944 -0.163325 44
-0.847675 -0.472497 -0.148385 49
-0.833185 -0.291156 -0.226966 44
-0.840539 -0.469581 -0.213942 44
-7.25139 -4.04878 1.60612 12
-7.39365 -4.11483 1.0332 35
-1.70622 -0.587964 0.0308908 50
-7.36731 -4.09343 0.439884 1
-0.679548 -0.234922 -0.0359695 52
-0.657442 -0.360011 -0.0124785 20
-0.835357 -0.287967 -0.10405 47
-0.853179 -0.469003 -0.0819804 53
-0.835947 -0.287849 -0.164753 45
-0.850137 -0.468052 -0.148385 47
-0.825557 -0.283665 -0.224379 42
-0.845195 -0.466214 -0.214503 42
-7.23915 -4.02537 1.60183 12
-7.38491 -4.09477 1.03107 35
-1.70251 -0.583368 0.0308035 52
-7.37591 -4.08307 0.440015 17
-0.679957 -0.233735 -0.0359695 50
-0.660256 -0.360073 -0.0125221 20
-0.835808 -0.286654 -0.10405 47
-0.849639 -0.4651 -0.0815455 52
-0.834125 -0.285598 -0.164277 45
-0.844476 -0.462974 -0.14721 49
-0.828338 -0.283001 -0.225026 44
-0.839539 -0.461334 -0.212819 42
-7.29807 -4.02649 2.22101 35
-7.25298 -3.98513 1.6004 12
-7.38885 -4.04651 1.02864 35
-1.70307 -0.573947 0.0307599 50
-7.39719 -4.04439 0.440015 15
-0.678805 -0.229377 -0.0358382 50
-0.659877 -0.355527 -0.0124785 20
-0.834945 -0.281485 -0.103746 47
-0.852062 -0.460645 -0.0815455 53
-0.833233 -0.280593 -0.163801 45
-0.840392 -0.454986 -0.146036 45
-0.83205 -0.27957 -0.225673 44
-0.837672 -0.454586 -0.211696 42
-7.28816 -4.00443 2.21584 35
-7.24339 -3.96177 1.59659 14
-7.38065 -4.02528 1.02651 35
-1.7018 -0.569885 0.0307162 50
-7.39328 -4.0255 0.43936 15
-0.68394 -0.229773 -0.0361008 50
-0.667082 -0.357962 -0.0126094 21
-0.830727 -0.278457 -0.103137 47
-0.848491 -0.456774 -0.0811106 53
-0.833721 -0.279139 -0.163801 45
-0.843352 -0.454702 -0.146427 47
-0.825709 -0.275689 -0.223733 44
-0.838464 -0.453123 -0.211696 42
-7.29911 -3.95917 2.2126 35
-7.25109 -3.91678 1.59373 12
-7.39359 -3.98058 1.02529 35
-1.70001 -0.559407 0.030629 50
-7.39956 -3.97716 0.438444 14
-0.675645 -0.223076 -0.0355757 52
-0.666808 -0.353164 -0.0125657 20
-0.829863 -0.273187 -0.102833 47
-0.850871 -0.452325 -0.0811106 53
-0.837552 -0.275387 -0.164277 45
-0.839201 -0.446766 -0.145253 45
-0.831733 -0.27286 -0.225026 45
-0.840904 -0.44858 -0.211696 44
-7.28901 -3.93724 2.20744 35
-7.24927 -3.89947 1.59182 12
-7.38016 -3.95839 1.02255 35
-1.70099 -0.556439 0.030629 52
-7.3882 -3.95609 0.437398 12
-0.678407 -0.222671 -0.035707 52
-0.663016 -0.34964 -0.0124785 20
-0.83501 -0.27342 -0.103442 47
-0.849464 -0.449663 -0.0808931 53
-0.833364 -0.272407 -0.163325 47
-0.837803 -0.444133 -0.144861 45
-0.834505 -0.272153 -0.225673 45
-0.835171 -0.443796 -0.210011 42
-7.30033 -3.89574 2.20485 36
-7.24725 -3.8512 1.58706 12
-7.34151 -2.35714 0.671535 21
-7.3942 -3.91621 1.02164 35
-1.69902 -0.546296 0.0305417 52
-7.40219 -3.91385 0.437005 11
-0.677186 -0.218354 -0.0355757 52
-0.662568 -0.345111 -0.0124348 20
-0.826977 -0.266019 -0.102225 47
-0.849605 -0.444045 -0.0806757 52
-0.834732 -0.268185 -0.163325 47
-0.844481 -0.442052 -0.145644 45
-0.835872 -0.267926 -0.225673 45
-0.837484 -0.439417 -0.210011 42
-6.94305 -2.21328 1.67167 1
-7.29219 -3.87505 2.20033 35
-7.24162 -3.83038 1.5842 12
-7.32188 -2.33676 0.669356 20
-7.38786 -3.89634 1.01981 35
-1.6953 -0.541516 0.0304544 53
-7.39134 -3.89161 0.435959 8
-0.675187 -0.216415 -0.0354444 52
-0.667592 -0.346284 -0.0125221 20
-0.82744 -0.264576 -0.102225 49
-0.852582 -0.443722 -0.0808931 53
-0.83052 -0.265242 -0.162373 45
-0.845251 -0.440578 -0.145644 45
-0.824874 -0.262675 -0.222439 45
-0.840403 -0.439094 -0.210573 42
-7.25021 -2.268 1.74298 36
-7.29381 -3.82543 2.19451 35
-7.23987 -2.26614 1.19331 30
-7.2507 -3.78673 1.58182 12
-7.32967 -2.29562 0.66892 20
-7.38683 -3.84484 1.01677 35
-1.69811 -0.532632 0.0304544 53
-7.40122 -3.8458 0.435304 11
-0.681077 -0.214366 -0.035707 52
-0.658367 -0.336901 -0.0123039 20
-0.828859 -0.260095 -0.102225 47
-0.848265 -0.435804 -0.0802408 53
-0.834286 -0.261475 -0.162849 47
-0.843243 -0.433717 -0.144861 45
-0.83085 -0.259787 -0.223733 45
-0.840607 -0.433413 -0.210011 42
-7.23516 -2.25082 1.73849 39
-7.28763 -3.80598 2.19063 35
-6.99386 -2.17579 1.15194 1
-7.24859 -3.76953 1.57991 12
-7.30275 -2.27321 0.666088 15
-7.38472 -3.82737 1.01555 36
-1.68949 -0.526699 0.0302799 53
-7.3924 -3.82483 0.434388 11
-0.679066 -0.212436 -0.0355757 52
-0.661174 -0.336901 -0.0123476 20
-0.826942 -0.257913 -0.10192 49
-0.855659 -0.437759 -0.0808931 53
-0.830053 -0.258566 -0.161896 49
-0.841806 -0.431108 -0.14447 45
-0.826687 -0.25691 -0.222439 45
-0.843523 -0.433069 -0.210573 42
-7.2449 -2.21093 1.73793 32
-7.29459 -3.76112 2.18676 35
-7.24134 -2.21122 1.19096 26
-7.25514 -3.72479 1.57705 12
-7.32408 -2.23785 0.666959 18
-7.38699 -3.7796 1.01312 36
-1.69223 -0.517846 0.0302799 55
-7.39677 -3.77812 0.433473 11
-0.680169 -0.208878 -0.0355757 50
-0.658477 -0.331159 -0.0122603 18
-0.828281 -0.253579 -0.10192 49
-0.853505 -0.431005 -0.0804582 53
-0.829047 -0.253503 -0.16142 47
-0.839582 -0.42459 -0.143687 45
-0.82571 -0.251877 -0.221793 45
-0.839277 -0.425309 -0.208888 42
-7.22505 -2.19248 1.73231 32
-7.28825 -3.74176 2.18288 35
-7.23536 -2.19697 1.1894 26
-7.25944 -3.71101 1.57657 12
-7.30652 -2.21855 0.664998 15
-7.37082 -3.75671 1.01008 35
-1.69074 -0.514166 0.0302363 52
-7.39157 -3.76082 0.432818 9
-0.675754 -0.206242 -0.0353131 50
-0.663509 -0.332277 -0.0123476 20
-0.823928 -0.25084 -0.101312 49
-0.849817 -0.427255 -0.0800233 53
-0.827139 -0.251346 -0.160944 49
-0.840322 -0.423125 -0.143687 45
-0.821524 -0.249042 -0.2205 45
-0.837775 -0.422881 -0.208327 42
-7.23877 -2.15531 1.73287 33
-7.29418 -3.69826 2.179 35
-7.24203 -2.15765 1.18862 26
-7.2628 -3.66646 1.57324 12
-7.30811 -2.1787 0.664127 15
-7.37488 -3.71025 1.00795 35
-1.69332 -0.505602 0.0302363 53
-7.40224 -3.71758 0.432295 9
-0.679217 -0.203413 -0.0354444 52
-0.658482 -0.325547 -0.0122167 18
-0.834745 -0.249349 -0.102529 49
-0.852042 -0.4228 -0.0800233 52
-0.826048 -0.246458 -0.160468 49
-0.838115 -0.416498 -0.142904 45
-0.827406 -0.246251 -0.221793 47
-0.837803 -0.417391 -0.207765 42
-7.22616 -2.13784 1.72894 33
-7.28985 -3.68008 2.17577 33
-7.24341 -2.1443 1.18823 26
-7.26763 -3.65141 1.57276 11
-7.3119 -2.16594 0.664127 14
-7.37247 -3.69292 1.00673 35
-1.68709 -0.500224 0.0301054 53
-7.38863 -3.6946 0.431117 8
-0.669994 -0.199397 -0.0349193 50
-0.828039 -0.245784 -0.101616 49
-0.852779 -0.421312 -0.0800233 53
-0.821768 -0.243628 -0.159516 49
-0.841048 -0.416141 -0.143295 45
-0.82556 -0.243982 -0.221146 47
-0.83853 -0.415928 -0.207765 42
-7.23528 -2.09804 1.72838 33
-7.28804 -3.6298 2.16931 33
-7.2478 -2.10302 1.18706 27
-7.27786 -3.60894 1.57085 11
-7.31873 -2.12496 0.663691 14
-7.379 -3.64638 1.00491 35
-1.68969 -0.491384 0.0301054 55
-7.39508 -3.64793 0.430332 8
-0.675825 -0.197276 -0.0351819 50
-0.82459 -0.239922 -0.101008 49
-0.85274 -0.415738 -0.0798059 52
-0.832506 -0.241903 -0.16142 47
-0.834363 -0.407353 -0.141729 45
-0.826826 -0.239656 -0.221146 47
-0.836403 -0.409221 -0.206642 42
-7.22218 -2.08195 1.72445 33
-7.28787 -3.61386 2.16737 35
-7.23685 -2.08753 1.18472 26
-7.27975 -3.59406 1.5699 11
-7.31525 -2.11011 0.663037 12
-7.37359 -3.6293 1.00338 35
-1.68814 -0.487742 0.0300618 55
-7.40528 -3.63852 0.430594 8
-0.673769 -0.195406 -0.0350506 50
-0.824965 -0.238626 -0.101008 49
-0.851229 -0.41315 -0.0795884 52
-0.825849 -0.238419 -0.159992 49
-0.837288 -0.406987 -0.142121 47
-0.820278 -0.236219 -0.219206 47
-0.839229 -0.408986 -0.207204 44
-7.2283 -2.04278 1.72333 33
-7.28872 -3.56842 2.1622 35
-7.24768 -2.04961 1.18472 27
-7.28902 -3.55286 1.56799 11
-7.32344 -2.07238 0.662819 12
-7.37464 -3.58196 1.00095 35
-1.693 -0.479871 0.0301054 53
-7.39503 -3.58552 0.428893 8
-0.679589 -0.193231 -0.0353131 50
-0.83098 -0.23565 -0.101616 49
-0.844418 -0.404339 -0.0787186 53
-0.829408 -0.234901 -0.160468 49
-0.832745 -0.399359 -0.140946 47
-0.828438 -0.234022 -0.221146 47
-0.834789 -0.401385 -0.205519 42
-7.21309 -2.0249 1.71883 33
-7.28409 -3.55039 2.15897 36
-7.25125 -2.03696 1.18472 26
-7.28479 -3.5335 1.56561 11
-7.37194 -3.56475 0.999734 35
-1.68429 -0.473919 0.0299309 53
-7.40128 -3.5726 0.428893 4
-0.667905 -0.188676 -0.0346568 50
-0.821832 -0.231523 -0.100399 50
-0.85185 -0.406115 -0.079371 52
-0.817999 -0.230149 -0.158087 49
-0.837886 -0.400056 -0.141729 47
-0.82656 -0.231783 -0.2205 47
-0.839872 -0.402054 -0.206642 42
-7.22159 -1.9852 1.71827 33
-7.27926 -3.49941 2.15186 33
-7.26217 -1.99769 1.18472 26
-7.28992 -3.48894 1.56275 11
-7.37545 -3.51733 0.997604 35
-1.68916 -0.465756 0.0299745 55
-7.39346 -3.51962 0.427323 4
-0.673699 -0.186499 -0.0349193 50
-0.825466 -0.227729 -0.100704 49
-0.84722 -0.398435 -0.0787186 52
-0.823966 -0.227015 -0.159039 49
-0.831056 -0.391408 -0.140163 47
-0.825432 -0.226816 -0.219853 47
-0.831048 -0.392246 -0.203834 41
-7.20825 -1.96936 1.71434 33
-7.281 -3.48461 2.15057 35
-7.25577 -1.98368 1.18316 29
-7.29378 -3.47516 1.56228 9
-7.36304 -3.49721 0.99517 35
-1.68514 -0.461491 0.0298872 55
-0.674023 -0.185322 -0.0349193 50
-0.81864 -0.224476 -0.0997908 50
-0.847914 -0.396955 -0.0787186 52
-0.829098 -0.226865 -0.159992 50
-0.831738 -0.389957 -0.140163 47
-0.825827 -0.225375 -0.219853 47
-0.836061 -0.393036 -0.204957 44
-7.21846 -1.93159 1.71434 33
-7.28108 -3.43945 2.1454 35
-7.27082 -1.94694 1.18394 29
-7.28907 -3.42774 1.55751 9
-7.36777 -3.45229 0.993344 36
-1.69229 -0.454248 0.0299745 55
-0.674985 -0.181791 -0.0349193 52
-0.819804 -0.220186 -0.0997908 50
-0.84547 -0.390399 -0.0782837 52
-0.827864 -0.222034 -0.159516 50
-0.827061 -0.382453 -0.138989 45
-0.826957 -0.221192 -0.219853 47
-0.829289 -0.384507 -0.202711 42
-7.21005 -1.91586 1.71154 35
-7.28051 -3.42365 2.14346 33
-7.26705 -1.93234 1.18277 29
-7.29342 -3.4127 1.55703 11
-7.3603 -3.43312 0.991519 35
-1.68591 -0.449074 0.0298436 56
-0.675301 -0.180612 -0.0349193 52
-0.824985 -0.220026 -0.100399 50
-0.852922 -0.392078 -0.078936 53
-0.825878 -0.219961 -0.159039 50
-0.836677 -0.385186 -0.140555 47
-0.82271 -0.218373 -0.21856 47
-0.836578 -0.386157 -0.204396 44
-7.21323 -1.87499 1.70985 33
-7.27703 -3.37403 2.137 33
-7.27501 -1.89238 1.18238 30
-7.30005 -3.36931 1.55465 11
-7.35848 -3.3839 0.988781 33
-1.6834 -0.438983 0.0297564 55
-0.676237 -0.177074 -0.0349193 53
-0.826163 -0.215559 -0.100399 49
-0.843648 -0.382407 -0.0778488 53
-0.827056 -0.215489 -0.159039 50
-0.83202 -0.377557 -0.13938 47
-0.823842 -0.214062 -0.21856 47
-0.829807 -0.377543 -0.20215 42
-7.20909 -1.86183 1.70817 33
-7.27414 -3.35727 2.13441 35
-7.26635 -1.87659 1.18043 29
-7.297 -3.35246 1.55274 12
-7.36212 -3.37002 0.988477 33
-1.68658 -0.436669 0.0298 56
-0.674128 -0.17527 -0.034788 53
-0.824135 -0.213499 -0.100095 50
-0.848844 -0.383006 -0.0782837 53
-0.822676 -0.212824 -0.158087 50
-0.834922 -0.377132 -0.139772 49
-0.819535 -0.211425 -0.217266 47
-0.830465 -0.376094 -0.20215 42
-7.21198 -1.82101 1.70648 33
-7.27404 -3.31113 2.12924 35
-7.28086 -1.83973 1.18121 30
-7.28987 -3.30305 1.5475 14
-7.36384 -3.32427 0.986347 33
-1.684 -0.426608 0.0297127 56
-0.672616 -0.171127 -0.0346568 53
-0.822835 -0.208575 -0.0997908 49
-0.846298 -0.376508 -0.0778488 53
-0.82616 -0.209111 -0.158563 50
-0.830071 -0.369851 -0.138597 47
-0.825316 -0.208306 -0.21856 47
-0.827985 -0.36973 -0.201027 42
-7.21483 -1.80968 1.70648 35
-7.26881 -3.29344 2.12601 35
-7.28374 -1.82829 1.18121 30
-7.28221 -3.28426 1.54464 15
-7.30955 -1.83475 0.656283 12
-7.36226 -3.30964 0.985434 35
-1.68959 -0.424883 0.0298 56
-0.670491 -0.169347 -0.0345255 53
-0.827976 -0.208486 -0.100399 50
-0.844681 -0.37401 -0.0776313 53
-0.828905 -0.208263 -0.159039 50
-0.832967 -0.369414 -0.138989 49
-0.823335 -0.206282 -0.217913 47
-0.826344 -0.367427 -0.200465 44
-7.21474 -1.76956 1.70424 33
-7.26996 -3.24969 2.12149 35
-7.29082 -1.78954 1.18082 32
-7.27632 -3.23737 1.53988 20
-7.28972 -1.7906 0.653668 14
-7.35908 -3.26199 0.982696 33
-1.68686 -0.415135 0.0297127 56
-3.15608 -1.39335 0.178989 3
-0.673794 -0.166427 -0.0346568 53
-0.824236 -0.202969 -0.0997908 50
-0.844351 -0.368574 -0.0774139 53
-0.829948 -0.204065 -0.159039 50
-0.832632 -0.364047 -0.138597 49
-0.829061 -0.203254 -0.219206 47
-0.828256 -0.363095 -0.200465 44
-7.21308 -1.75581 1.70311 35
-7.27341 -3.23602 2.12084 36
-7.28673 -1.77506 1.17965 32
-7.27355 -3.21942 1.53797 35
-7.30493 -1.78083 0.654757 18
-7.35341 -3.24412 0.981175 33
-1.68766 -0.411896 0.0297127 56
-3.14709 -1.3828 0.178335 3
-0.678935 -0.16643 -0.0349193 53
-0.822177 -0.200945 -0.0994866 50
-0.844993 -0.3671 -0.0774139 53
-0.820762 -0.200305 -0.157135 50
-0.833266 -0.362593 -0.138597 47
-0.824755 -0.200529 -0.217913 47
-0.826661 -0.360663 -0.199904 42
-7.213 -1.71451 1.70087 35
-7.27091 -3.18788 2.11503 33
-7.29383 -1.73504 1.17926 32
-7.27007 -3.17245 1.53368 35
-7.29507 -1.73667 0.653014 20
-7.3572 -3.19835 0.979349 32
-1.68979 -0.403054 0.0297127 56
-3.15223 -1.36476 0.178204 3
-0.67251 -0.161143 -0.0345255 55
-0.825667 -0.197066 -0.0997908 50
-0.846903 -0.36267 -0.0774139 53
-0.82661 -0.196991 -0.158087 50
-0.830626 -0.356254 -0.137814 47
-0.825794 -0.196208 -0.217913 47
-0.8286 -0.356185 -0.199904 42
-7.21094 -1.70206 1.69974 33
-7.2654 -3.17035 2.1118 35
-7.28933 -1.72187 1.17809 32
-7.26659 -3.15584 1.53177 35
-7.29082 -1.72221 0.652361 21
-7.35311 -3.18284 0.978132 33
-1.68806 -0.39953 0.0296691 56
-3.1475 -1.35683 0.177811 3
-0.670361 -0.159396 -0.0343942 53
-0.833222 -0.197474 -0.100704 53
-0.842963 -0.359215 -0.076979 53
