# .PCD v0.7 - Point Cloud Data file format
VERSION 0.7
FIELDS x y z intensity
SIZE 4 4 4 4
TYPE F F F F
COUNT 1 1 1 1
WIDTH 1582
HEIGHT 1
VIEWPOINT 0 0 0 1 0 0 0
POINTS 1582
DATA ascii
-2.78496 0.64717 0.247087 65
-7.25556 0.379977 0.886556 33
-0.627587 0.144968 -0.0320313 59
-0.625939 0.0378074 -0.0103405 8
-0.783389 0.181736 -0.0943145 58
-0.651149 0.0390355 -0.0539288 79
-0.78707 0.18288 -0.149992 53
-0.798751 0.0464076 -0.12137 58
-0.786646 0.183341 -0.20692 52
-0.773967 0.0443469 -0.170704 52
-2.75925 0.657424 0.645756 50
-6.9193 0.377213 1.84491 1
-2.77012 0.659521 0.444465 47
-7.15265 0.402236 1.38451 35
-2.7888 0.663476 0.24774 90
-7.25099 0.417821 0.886252 33
-0.624365 0.147781 -0.0319 61
-0.630724 0.0413738 -0.0104278 8
-0.78484 0.186413 -0.0946187 58
-0.645956 0.0422695 -0.0534938 80
-0.788488 0.187571 -0.150468 53
-0.798497 0.0505892 -0.12137 58
-0.783328 0.186893 -0.206274 50
-0.778589 0.0486724 -0.171827 53
-2.75573 0.661669 0.645195 52
-6.92105 0.389423 1.84556 1
-2.76657 0.663778 0.444075 44
-7.15187 0.415968 1.38451 35
-2.79006 0.668924 0.247958 109
-7.25273 0.430621 0.886556 32
-0.631388 0.150624 -0.0322938 61
-0.628155 0.0423254 -0.0103842 8
-0.786926 0.188364 -0.094923 58
-0.650853 0.043694 -0.0539288 85
-0.785774 0.18837 -0.149992 53
-0.798408 0.0519828 -0.12137 58
-0.787661 0.189535 -0.207567 50
-0.771207 0.049608 -0.170143 53
-2.74975 0.675986 0.644633 42
-6.91161 0.426423 1.84362 1
-2.76773 0.679917 0.444856 56
-7.15694 0.45387 1.38594 35
-2.78156 0.68282 0.247522 125
-7.2503 0.469855 0.886556 33
-0.63059 0.153928 -0.0322938 61
-0.630412 0.0458861 -0.0104278 8
-0.790713 0.193809 -0.0955314 56
-0.64813 0.0469397 -0.0537113 86
-0.782361 0.19203 -0.149516 53
-0.798115 0.0563018 -0.12137 58
-0.784314 0.193075 -0.20692 52
-0.773358 0.0539341 -0.170704 53
-2.75105 0.680891 0.645195 42
-6.91085 0.438485 1.84362 1
-2.76414 0.684152 0.444465 56
-7.15124 0.466045 1.38498 35
-2.77795 0.687075 0.247304 148
-7.24699 0.482345 0.886252 33
-3.03847 0.207142 0.157793 18
-0.625475 0.153825 -0.0320313 59
-0.625342 0.0466523 -0.0103405 8
-0.787966 0.19459 -0.0952272 56
-0.650532 0.0482367 -0.0539288 90
-0.784406 0.193988 -0.149992 53
-0.793088 0.0573683 -0.120587 58
-0.786319 0.195029 -0.207567 52
-0.775694 0.0554423 -0.171266 53
-2.7426 0.694567 0.644072 38
-6.91328 0.474992 1.84491 1
-2.76531 0.69983 0.445246 56
-7.1438 0.50314 1.38403 35
-2.77431 0.70161 0.247304 137
-7.24189 0.520108 0.885948 35
-3.03734 0.223048 0.157793 20
-0.624661 0.157098 -0.0320313 59
-0.630076 0.050286 -0.0104278 4
-0.789341 0.199324 -0.0955314 56
-0.652755 0.0518212 -0.0541462 90
-0.783379 0.198093 -0.149992 53
-0.797713 0.061733 -0.12137 58
-0.787627 0.199741 -0.208214 50
-0.775393 0.059503 -0.171266 53
-2.74387 0.699478 0.644633 52
-6.91726 0.487393 1.84621 1
-2.76181 0.703562 0.444856 55
-7.14536 0.515783 1.38451 35
-2.77308 0.706451 0.247304 115
-7.24849 0.532023 0.88686 35
-2.83628 0.723112 0.0504811 1
-3.04197 0.228185 0.158055 18
-0.631642 0.160043 -0.0324251 59
-0.625001 0.0510169 -0.0103405 4
-0.786623 0.199949 -0.0952272 56
-0.65018 0.0527771 -0.0539288 90
-0.78541 0.20007 -0.150468 53
-0.790216 0.0625853 -0.120196 58
-0.784938 0.200514 -0.207567 50
-0.772869 0.0605459 -0.170704 53
-2.74252 0.71445 0.645195 52
-6.91229 0.522218 1.84556 1
-2.76048 0.718636 0.445246 56
-7.14266 0.551942 1.38451 35
-2.77188 0.721106 0.247522 114
-7.23323 0.569003 0.885339 35
-2.84226 0.739982 0.0506556 8
-3.03576 0.243718 0.157793 20
-0.625964 0.162086 -0.0321625 59
-0.622243 0.0539826 -0.0102969 4
-0.785565 0.204065 -0.0952272 55
-0.644929 0.0557881 -0.0534938 90
-0.789135 0.205286 -0.151421 52
-0.794801 0.0671077 -0.120979 58
-0.79092 0.206325 -0.209507 50
-0.777399 0.0649673 -0.171827 53
-2.73892 0.718616 0.644633 35
-6.91137 0.534281 1.84556 1
-2.75683 0.722825 0.444856 56
-7.14403 0.565846 1.38498 35
-2.76821 0.725311 0.247304 129
-7.24212 0.582416 0.886556 33
-2.81908 0.739717 0.0502629 8
-3.04279 0.249616 0.158185 20
-0.62568 0.163178 -0.0321625 59
-0.627131 0.0554713 -0.0103842 4
-0.790007 0.2067 -0.0958357 55
-0.642348 0.0567131 -0.0532764 90
-0.78403 0.205411 -0.150468 52
-0.792221 0.0682976 -0.120587 58
-0.783519 0.205989 -0.207567 50
-0.777284 0.066324 -0.171827 53
-2.73734 0.734057 0.645195 47
-6.90357 0.571272 1.84427 1
-2.75527 0.738371 0.445246 53
-7.13853 0.603039 1.38451 35
-2.76665 0.740923 0.247522 114
-7.23392 0.62117 0.885948 33
-2.8031 0.751226 0.0500448 11
-3.03393 0.265435 0.157793 18
-0.627228 0.1671 -0.0322938 59
-0.621841 0.0584339 -0.0102969 3
-0.786481 0.210326 -0.0955314 55
-0.647005 0.0605028 -0.0537113 90
-0.785276 0.210289 -0.150945 52
-0.78938 0.0723725 -0.120196 58
-0.784761 0.210719 -0.208214 49
-0.776914 0.0705285 -0.171827 53
-2.73853 0.738991 0.645756 49
-6.90978 0.583925 1.84621 1
-2.74921 0.74189 0.444465 53
-7.1448 0.616125 1.38594 35
-2.76776 0.7464 0.24774 90
-7.23777 0.634224 0.886556 33
-2.7873 0.752203 0.049783 12
-3.04093 0.271383 0.158185 17
-0.629346 0.168847 -0.0324251 59
-0.621738 0.0595191 -0.0102969 3
-0.788508 0.212348 -0.0958357 53
-0.649379 0.0618499 -0.0539288 90
-0.787277 0.212302 -0.151421 52
-0.794172 0.0741796 -0.120979 59
-0.786722 0.212723 -0.20886 50
-0.77679 0.0718844 -0.171827 53
-2.7298 0.7525 0.644633 50
-6.93068 0.622239 1.85267 1
-2.74767 0.756931 0.444856 55
-2.75661 0.758895 0.247087 59
-2.77851 0.765457 0.0496957 14
-3.03698 0.287071 0.158055 17
-0.626047 0.171475 -0.0322938 59
-0.621418 0.0627737 -0.0102969 3
-0.787385 0.216473 -0.0958357 53
-0.649047 0.0652492 -0.0539288 90
-0.783789 0.215766 -0.150945 52
-0.796245 0.0784256 -0.12137 58
-0.780944 0.215546 -0.207567 47
-0.776403 0.0759506 -0.171827 52
-2.72861 0.756787 0.644633 50
-2.74885 0.761907 0.445246 56
-2.76008 0.765038 0.247522 56
-2.77235 0.768967 0.0496085 14
-3.03652 0.291841 0.158055 17
-0.630557 0.173905 -0.0325564 59
-0.631261 0.0648044 -0.0104714 3
-0.784654 0.217044 -0.0955314 50
-0.646452 0.0661466 -0.0537113 90
-0.788139 0.218453 -0.151897 50
-0.796107 0.0798151 -0.12137 58
-0.785218 0.21821 -0.20886 47
-0.771431 0.0767184 -0.170704 52
-2.72227 0.770399 0.644072 50
-2.74245 0.775616 0.444856 55
-2.75617 0.778998 0.247522 58
-2.8836 0.290614 0.351093 21
-2.77083 0.78367 0.0496521 15
-2.91323 0.295586 0.151643 32
-0.629638 0.177204 -0.0325564 59
-0.625951 0.0675004 -0.0103842 3
-0.643619 0.0692823 -0.0534938 90
-0.784663 0.221768 -0.151421 50
-0.795678 0.0839824 -0.12137 58
-0.781781 0.221519 -0.208214 47
-0.773443 0.0809951 -0.171266 53
-2.71624 0.773812 0.642949 50
-2.87745 0.286038 0.76446 44
-2.74109 0.780402 0.444856 53
-2.7596 0.785173 0.247958 90
-2.8979 0.297141 0.352919 47
-2.76451 0.787616 0.0495648 24
-2.93506 0.302941 0.152821 32
-0.631728 0.178988 -0.0326876 59
-0.645975 0.0706581 -0.0537113 90
-0.784275 0.223137 -0.151421 50
-0.79553 0.085371 -0.12137 58
-0.783676 0.223686 -0.20886 47
-0.766029 0.0816165 -0.169581 53
-2.71435 0.789178 0.64351 52
-2.87586 0.301602 0.76446 45
-2.73446 0.794531 0.444465 52
-2.75292 0.799396 0.24774 175
-2.88638 0.311766 0.351702 47
-2.75795 0.801382 0.0495212 32
-2.89614 0.314831 0.150858 50
-0.630782 0.182294 -0.0326876 59
-0.648072 0.0743049 -0.0539288 90
-0.795057 0.089674 -0.12137 58
-0.770421 0.0862717 -0.170704 53
-2.71311 0.793441 0.64351 52
-2.86812 0.305865 0.762522 45
-2.7307 0.798608 0.444075 50
-2.75391 0.8049 0.247958 98
-2.8883 0.31707 0.352006 49
-2.75655 0.806194 0.0495212 42
-2.89062 0.319345 0.150597 47
-0.628067 0.182692 -0.0325564 59
-0.645466 0.075166 -0.0537113 90
-0.78999 0.090529 -0.120587 58
-0.765425 0.0870959 -0.169581 53
-2.71358 0.80903 0.644633 50
-2.85694 0.319321 0.759937 42
-2.72189 0.811006 0.443295 52
-2.87283 0.326093 0.554756 47
-2.74026 0.815981 0.247087 58
-2.87926 0.330847 0.351093 49
-2.75004 0.819421 0.0494776 52
-2.88649 0.333689 0.150466 49
-0.629494 0.186693 -0.0326876 58
-0.647538 0.0788274 -0.0539288 90
-0.789521 0.0945263 -0.120587 58
-0.772237 0.0917861 -0.171266 53
-2.7145 0.814466 0.645195 49
-2.85878 0.324576 0.760583 45
-2.72047 0.815756 0.443295 53
-2.8722 0.331607 0.554756 49
-2.73883 0.820762 0.247087 55
-2.87622 0.335588 0.350789 49
-2.8859 0.338726 0.150466 49
-0.624386 0.186353 -0.0324251 58
-0.647399 0.0799575 -0.0539288 90
-0.791808 0.0961871 -0.120979 58
-0.767235 0.0925806 -0.170143 52
-2.71005 0.829141 0.645195 49
-2.85698 0.340038 0.760583 45
-2.71838 0.831186 0.443685 53
-2.86555 0.346061 0.553802 49
-2.73196 0.834839 0.246869 55
-2.8719 0.350848 0.350485 49
-2.87907 0.353735 0.150204 49
-0.630562 0.191815 -0.0328189 58
-0.642027 0.082746 -0.0534938 90
-0.788842 0.100036 -0.120587 58
-0.769142 0.09702 -0.170704 50
-2.70875 0.833397 0.645195 49
-2.85158 0.344453 0.75929 47
-2.71943 0.836182 0.444075 50
-2.86982 0.351651 0.554756 50
-2.72812 0.838873 0.246651 56
-2.86641 0.354758 0.349876 49
-2.88099 0.358561 0.150335 49
-0.627841 0.192179 -0.0326876 58
-0.644354 0.0841708 -0.0537113 90
-0.791117 0.101713 -0.120979 58
-0.771407 0.0985216 -0.171266 52
-2.709 0.849028 0.646318 49
-2.8498 0.358882 0.75929 49
-2.71266 0.84967 0.443685 49
-2.86313 0.365558 0.553802 50
-2.73097 0.854906 0.247304 99
-2.86698 0.370075 0.350181 49
-2.87412 0.373006 0.150073 47
-0.633972 0.197709 -0.0330815 58
-0.641434 0.0872262 -0.0534938 90
-0.790574 0.105853 -0.120979 58
-0.77088 0.102559 -0.171266 52
-2.71448 0.855956 0.648003 50
-2.84917 0.363855 0.75929 49
-2.71588 0.85589 0.444465 47
-2.86242 0.371054 0.553802 50
-2.72473 0.858173 0.246869 99
-2.86387 0.37476 0.349876 49
-2.88089 0.378987 0.150466 50
-0.633626 0.198815 -0.0330815 58
-0.64622 0.0889888 -0.0539288 90
-0.787939 0.106916 -0.120587 58
-0.7707 0.103905 -0.171266 52
-2.70517 0.869138 0.646879 52
-2.84237 0.378636 0.757998 50
-2.71356 0.871328 0.444856 47
-2.86287 0.386361 0.554279 50
-2.7153 0.871378 0.246433 53
-2.86672 0.390912 0.350485 49
-2.87385 0.393898 0.150204 49
-0.62307 0.19907 -0.0325564 56
-0.640809 0.0917021 -0.0534938 90
-0.787349 0.111178 -0.120587 58
-0.774956 0.10872 -0.172389 50
-2.70612 0.874136 0.647441 52
-2.8441 0.383915 0.758644 49
-2.71673 0.877583 0.445636 49
-2.85733 0.3907 0.553326 49
-2.85865 0.394908 0.349572 47
-0.627472 0.201695 -0.0328189 58
-0.643116 0.0931592 -0.0537113 90
-0.787154 0.112552 -0.120587 58
-0.772351 0.109745 -0.171827 53
-2.69672 0.88724 0.646318 49
-2.84205 0.398801 0.758644 49
-2.71445 0.892568 0.446026 50
-2.85281 0.405315 0.552849 49
-2.859 0.410219 0.349876 49
-0.626407 0.204978 -0.0328189 58
-0.642619 0.0965253 -0.0537113 90
-0.791464 0.117228 -0.12137 58
-0.771766 0.113787 -0.171827 52
-2.68839 0.889176 0.644633 47
-2.83657 0.403089 0.757352 49
-2.71304 0.896831 0.446026 56
-2.84724 0.409602 0.551896 49
-2.85344 0.414005 0.349268 47
-0.628418 0.206857 -0.0329502 58
-0.63752 0.0969345 -0.0532764 90
-0.783926 0.117556 -0.120196 58
-0.771586 0.114999 -0.171827 52
-2.68139 0.902462 0.644072 47
-2.82971 0.416746 0.756059 47
-2.71065 0.911812 0.446416 55
-2.84271 0.423651 0.551419 49
-2.84142 0.42748 0.348051 47
-2.63111 0.398059 0.137644 90
-0.627326 0.210144 -0.0329502 58
-0.646855 0.101747 -0.0541462 90
-0.785742 0.122023 -0.120587 56
-0.768563 0.118681 -0.171266 52
-2.6775 0.906358 0.64351 47
-2.83376 0.422388 0.757352 47
-2.70671 0.915749 0.446026 50
-2.84431 0.42947 0.551896 49
-2.84312 0.432808 0.348355 49
-0.624595 0.210437 -0.0328189 58
-0.641752 0.102129 -0.0537113 90
-0.783086 0.123025 -0.120196 55
-0.770764 0.120383 -0.171827 52
-2.66795 0.919242 0.642387 49
-2.82666 0.436984 0.756059 47
-2.69705 0.92877 0.445246 47
-2.84203 0.444357 0.551896 49
-2.84319 0.448567 0.348659 49
-2.81564 0.446264 0.147587 39
-0.621124 0.21289 -0.0326876 58
-0.638748 0.105102 -0.0534938 90
-0.78487 0.127505 -0.120587 55
-0.770102 0.124552 -0.171827 52
-2.6642 0.922633 0.641826 49
-2.81635 0.440441 0.753475 47
-2.69092 0.931388 0.444465 45
-2.83882 0.448937 0.551419 50
-2.83758 0.452259 0.348051 50
-2.8322 0.45342 0.148503 39
-0.618393 0.213155 -0.0325564 56
-0.641023 0.106607 -0.0537113 90
-0.782208 0.128489 -0.120196 55
-0.769905 0.125761 -0.171827 52
-2.65704 0.93576 0.641264 49
-2.81885 0.455452 0.754767 49
-2.68601 0.945465 0.444465 44
-2.83409 0.462908 0.550943 50
-2.83028 0.466312 0.347442 49
-2.84457 0.470664 0.149288 58
-0.62904 0.220544 -0.0332127 56
-0.642914 0.110365 -0.0539288 90
-0.776651 0.131787 -0.119413 55
-0.766831 0.1294 -0.171266 52
-2.6554 0.940396 0.641264 50
-2.81567 0.459986 0.754121 49
-2.67504 0.946851 0.442904 45
-2.83077 0.467952 0.550466 50
-2.82701 0.470847 0.347138 50
-2.84621 0.476035 0.149419 70
-0.631007 0.222477 -0.033344 58
-0.640264 0.11108 -0.0537113 90
-0.786164 0.134752 -0.120979 55
-0.769008 0.131133 -0.171827 52
-2.65027 0.954749 0.641264 50
-2.81075 0.474815 0.753475 49
-2.6722 0.962148 0.443295 42
-2.82345 0.48195 0.549513 50
-2.82442 0.486136 0.347138 53
-1.4536 0.522714 0.0263531 8
-2.84605 0.491849 0.14955 65
-0.629833 0.225778 -0.033344 58
-1.42656 0.514082 -0.181631 4
-0.639673 0.114431 -0.0537113 89
-0.783014 0.138451 -0.120587 55
-0.768288 0.135292 -0.171827 52
-2.65106 0.959742 0.641826 50
-2.80992 0.47972 0.753475 49
-2.66373 0.96382 0.442124 47
-2.8226 0.486877 0.549513 50
-2.82121 0.490151 0.346834 55
-1.45503 0.526102 0.0263968 4
-2.84282 0.495894 0.149419 65
-0.627091 0.226025 -0.0332127 56
-1.43041 0.518017 -0.18224 4
-0.639473 0.115547 -0.0537113 90
-0.777904 0.138979 -0.119804 55
-0.763272 0.135676 -0.170704 52
-2.64371 0.972767 0.641264 49
-2.8027 0.493107 0.752182 49
-2.65633 0.976901 0.441734 49
-2.82252 0.501583 0.54999 52
-2.82105 0.50535 0.347138 55
-1.44766 0.531732 0.0263095 4
-2.83526 0.509896 0.149157 62
-0.625899 0.229306 -0.0332127 56
-1.42768 0.525499 -0.18224 4
-0.643762 0.119769 -0.0541462 88
-0.777166 0.14305 -0.119804 55
-0.767349 0.140518 -0.171827 52
-2.6443 0.978226 0.641826 50
-2.80183 0.497998 0.752182 50
-2.6523 0.980678 0.441344 50
-2.81672 0.50614 0.549036 50
-2.8226 0.51071 0.347442 55
-1.44898 0.535379 0.0263531 4
-2.83437 0.514844 0.149157 55
-0.625498 0.230398 -0.0332127 58
-1.43374 0.53058 -0.183153 4
-0.641101 0.12045 -0.0539288 86
-0.774485 0.14397 -0.119413 55
-1.00635 0.373347 -0.278049 3
-0.767102 0.141857 -0.171827 52
-2.63441 0.990801 0.640703 50
-2.79672 0.512719 0.751536 50
-2.64696 0.995014 0.441344 50
-2.81403 0.520882 0.549036 50
-2.81736 0.525524 0.347138 53
-1.44616 0.542958 0.0263531 4
-2.83154 0.530172 0.149157 53
-0.61961 0.23191 -0.0329502 56
-1.41924 0.53395 -0.181631 4
-0.645359 0.124715 -0.0543637 83
-0.776148 0.148472 -0.119804 55
-1.01116 0.381175 -0.279989 4
-0.768719 0.146446 -0.172389 50
-2.63513 0.9958 0.641264 50
-2.80057 0.51847 0.752828 50
-2.64077 0.997423 0.440563 52
-2.8107 0.525346 0.54856 50
-2.81409 0.529494 0.346834 50
-1.45456 0.54902 0.0265277 4
-2.82334 0.533241 0.148765 53
-0.619205 0.232991 -0.0329502 56
-0.689121 0.1342 -0.0116495 8
-1.42072 0.537058 -0.181936 4
-0.640245 0.124923 -0.0539288 79
-1.30199 0.492826 -0.26332 4
-0.780742 0.150733 -0.120587 55
-1.00823 0.382081 -0.279342 4
-0.768489 0.147654 -0.172389 52
-2.62987 1.00958 0.641264 50
-2.79317 0.531744 0.751536 50
-2.63782 1.01212 0.440953 52
-2.8056 0.539106 0.548083 50
-1.47922 0.566632 0.135527 8
-2.80884 0.543753 0.34653 49
-1.44709 0.554582 0.0264404 4
-2.82542 0.548961 0.149027 53
-0.627339 0.239705 -0.0334753 58
-0.690888 0.13816 -0.0116931 8
-1.4202 0.545381 -0.18224 4
-0.639604 0.128162 -0.0539288 79
-1.29719 0.498527 -0.262844 4
-0.779943 0.154819 -0.120587 55
-1.01079 0.388919 -0.280636 4
-0.767705 0.151676 -0.172389 52
-2.6192 1.0102 0.639018 49
-2.79461 0.537069 0.752182 50
-2.63374 1.01583 0.440563 50
-2.80465 0.544002 0.548083 49
-1.47358 0.567419 0.135091 8
-2.80789 0.548655 0.34653 49
-1.45079 0.558908 0.0265277 4
-2.822 0.553415 0.148896 53
-0.622262 0.239 -0.0332127 58
-0.688192 0.138888 -0.0116495 8
-1.42619 0.550547 -0.183153 4
-0.63938 0.129278 -0.0539288 79
-1.3009 0.502564 -0.263796 3
-0.777247 0.15571 -0.120196 53
-1.00336 0.38806 -0.278696 3
-0.767439 0.153015 -0.172389 52
-2.62258 1.02838 0.641264 50
-2.79166 0.552182 0.752182 49
-2.63051 1.03097 0.440953 52
-2.80648 0.560121 0.549036 50
-1.47745 0.578112 0.135745 8
-2.80488 0.563839 0.34653 49
-1.44774 0.56675 0.0265277 8
-2.81652 0.568186 0.148765 55
-0.623283 0.243276 -0.033344 58
-0.684979 0.142118 -0.0116058 4
-1.41396 0.554622 -0.181936 4
-0.638671 0.132736 -0.0539288 77
-1.30044 0.510494 -0.264272 3
-0.776393 0.159913 -0.120196 53
-1.00124 0.393483 -0.278696 3
-0.768989 0.15764 -0.17295 52
-2.62096 1.0325 0.641264 50
-2.78832 0.556585 0.751536 49
-2.62641 1.03466 0.440563 52
-2.80069 0.564057 0.548083 50
-1.48107 0.582517 0.136181 8
-2.79902 0.567755 0.345921 50
-1.44675 0.569276 0.0265277 4
-2.81797 0.573595 0.148896 67
-0.62518 0.24528 -0.0334753 58
-0.68228 0.142818 -0.0115622 4
-1.41991 0.559826 -0.182848 4
-0.640879 0.134343 -0.0541462 74
-1.30411 0.514569 -0.265224 3
-0.771272 0.160292 -0.119413 53
-0.98933 0.390779 -0.275463 3
-0.771102 0.15946 -0.173512 50
-2.61534 1.04666 0.641264 50
-2.78301 0.570695 0.75089 50
-2.62554 1.05023 0.441344 52
-2.79529 0.578221 0.547607 50
-1.47106 0.587487 0.135527 8
-2.8033 0.583909 0.346834 55
-1.43679 0.574054 0.0263968 4
-2.81737 0.588848 0.149027 90
-0.623887 0.24855 -0.0334753 58
-0.683971 0.146896 -0.0116058 3
-1.42387 0.570026 -0.183761 4
-0.640167 0.137697 -0.0541462 73
-1.29685 0.51956 -0.264272 3
-0.775258 0.165329 -0.120196 53
-0.98727 0.395954 -0.275463 3
-0.770256 0.163495 -0.173512 50
-2.60917 1.04895 0.640141 50
-2.77727 0.574581 0.749597 50
-2.61912 1.05297 0.440563 52
-2.79668 0.583596 0.548083 52
-1.47235 0.590983 0.135745 4
-2.80228 0.588801 0.346834 55
-1.44042 0.578428 0.026484 4
-2.82123 0.594787 0.149288 90
-0.628084 0.251504 -0.0337378 58
-0.673927 0.14604 -0.0114313 3
-1.41367 0.568796 -0.182544 4
-0.63505 0.137794 -0.0537113 71
-1.29821 0.522742 -0.264748 3
-0.772551 0.166177 -0.119804 52
-0.988816 0.398582 -0.276109 4
-0.772355 0.165335 -0.174073 52
-2.60797 1.06489 0.641264 49
-2.77895 0.59011 0.75089 50
-2.61128 1.06573 0.440173 52
-2.79119 0.597722 0.547607 50
-1.47154 0.599626 0.135963 8
-2.80401 0.604503 0.347442 58
-1.43506 0.585017 0.0264404 4
-2.82052 0.610074 0.149419 90
-0.622137 0.252899 -0.0334753 58
-0.673153 0.149567 -0.0114313 3
-1.41985 0.579952 -0.183761 4
-0.636755 0.14164 -0.0539288 70
-1.29773 0.530463 -0.265224 4
-0.774115 0.170602 -0.120196 53
-0.984482 0.402837 -0.275463 3
-0.766713 0.168361 -0.17295 52
-2.6108 1.07084 0.642387 49
-2.77556 0.594458 0.750244 49
-2.61418 1.07171 0.440953 52
-2.78774 0.602078 0.54713 50
-1.4774 0.605031 0.136617 8
-2.79336 0.606816 0.346225 58
-1.44097 0.59037 0.0265713 4
-2.81224 0.612921 0.149027 82
-0.628622 0.256832 -0.0338691 58
-0.685106 0.153389 -0.0116495 4
-1.42123 0.583126 -0.184065 4
-0.643809 0.144332 -0.0545811 67
-1.29907 0.533662 -0.265701 4
-0.771402 0.171432 -0.119804 53
-0.981545 0.403633 -0.274816 3
-0.771212 0.170588 -0.174073 50
-2.60741 1.08543 0.642949 49
-2.77015 0.607985 0.749597 50
-2.60853 1.08538 0.440953 52
-2.78705 0.616706 0.547607 50
-1.47202 0.611543 0.136399 8
-2.78772 0.620898 0.345921 53
-1.44027 0.598617 0.0266149 4
-2.80411 0.626557 0.148765 59
-0.62501 0.259049 -0.0337378 58
-0.68432 0.156855 -0.0116495 3
-1.42274 0.592471 -0.184674 4
-0.643071 0.147589 -0.0545811 67
-1.28956 0.537391 -0.264272 4
-0.770494 0.175469 -0.119804 52
-0.981717 0.409529 -0.275463 3
-0.76555 0.173576 -0.17295 52
-2.6057 1.08953 0.642949 49
-2.76909 0.612819 0.749597 50
-2.60891 1.09088 0.441344 50
-2.78358 0.62104 0.54713 50
-1.46636 0.612189 0.135963 8
-2.79632 0.627921 0.347138 49
-1.43231 0.598233 0.026484 4
-2.80058 0.630905 0.148634 58
-0.693803 0.160233 -0.011824 3
-1.41942 0.593993 -0.18437 4
-0.640382 0.148168 -0.0543637 65
-1.28862 0.539641 -0.264272 3
-0.765367 0.175738 -0.119021 52
-0.983227 0.412178 -0.276109 3
-0.770002 0.175968 -0.174073 52
-2.59976 1.10361 0.642949 50
-2.76113 0.626249 0.748305 49
-2.60316 1.10453 0.441344 50
-2.78029 0.635606 0.54713 50
-1.4723 0.623752 0.136835 4
-2.78331 0.640345 0.345921 50
-1.43606 0.608657 0.0266149 8
-2.79967 0.646118 0.148765 61
-0.690518 0.163305 -0.0117804 3
-1.42542 0.605305 -0.185587 4
-0.641998 0.152187 -0.0545811 64
-1.28804 0.547343 -0.264748 3
-0.76925 0.180844 -0.119804 52
-0.985497 0.419217 -0.277403 3
-0.771445 0.180538 -0.174635 50
-2.59783 1.10815 0.642949 49
-2.76239 0.631602 0.748951 49
-2.6035 1.11004 0.441734 50
-2.77667 0.640395 0.546653 50
-1.46663 0.624366 0.136399 8
-2.78703 0.646315 0.34653 55
-1.43949 0.613377 0.0267022 8
-2.79854 0.651003 0.148765 67
-0.624975 0.265583 -0.0338691 58
-0.687796 0.163947 -0.0117367 3
-1.42208 0.606816 -0.185282 4
-0.639305 0.152746 -0.0543637 65
-1.28933 0.550556 -0.265224 3
-0.768933 0.182186 -0.119804 52
-0.978033 0.418251 -0.275463 3
-0.771129 0.181884 -0.174635 50
-2.62309 1.13575 0.65081 41
-2.75422 0.645444 0.747659 49
-2.77089 0.654365 0.546177 52
-1.46323 0.632292 0.136399 8
-2.79074 0.663093 0.347442 62
-1.43855 0.621899 0.0267458 4
-2.80469 0.668434 0.149288 96
-0.621285 0.267859 -0.0337378 58
-0.686899 0.167666 -0.0117367 3
-1.42333 0.616478 -0.185891 4
-0.64092 0.156665 -0.0545811 64
-1.28859 0.558502 -0.265701 3
-0.767936 0.186344 -0.119804 52
-0.973615 0.422402 -0.274816 3
-0.765391 0.184938 -0.173512 50
-2.87816 1.25172 0.715386 27
-2.7578 0.651352 0.748951 50
-2.76974 0.6592 0.546177 52
-1.46897 0.637826 0.137052 8
-2.78716 0.667389 0.347138 61
-1.43288 0.622413 0.0266585 8
-2.79138 0.670433 0.148634 128
-0.623105 0.26994 -0.0338691 58
-1.41088 0.614 -0.18437 4
-0.638223 0.157206 -0.0543637 64
-1.28761 0.560751 -0.265701 3
-0.762806 0.18654 -0.119021 50
-0.970664 0.423133 -0.274169 3
-0.762696 0.185712 -0.17295 50
-2.84461 1.25545 0.708647 27
-2.752 0.66522 0.748305 45
-2.71378 1.19709 0.463196 15
-2.77102 0.674846 0.54713 52
-1.45878 0.642492 0.136399 8
-2.78122 0.681387 0.346834 61
-1.43188 0.630917 0.0267022 8
-2.78783 0.685039 0.148634 126
-0.621684 0.273199 -0.0338691 58
-1.41899 0.6264 -0.185891 4
-0.64223 0.161727 -0.0547986 62
-1.28241 0.566491 -0.265224 4
-0.769016 0.192284 -0.120196 50
-0.968435 0.428209 -0.274169 3
-0.766449 0.190851 -0.174073 50
-2.82037 1.25004 0.703032 27
-2.75083 0.670022 0.748305 33
-2.72297 1.20683 0.465147 11
-2.76269 0.677939 0.5457 52
-1.45993 0.646047 0.136617 8
-2.78002 0.68624 0.346834 61
-1.4285 0.632402 0.0266585 4
-2.78906 0.6905 0.148765 130
-0.618924 0.273271 -0.0337378 58
-1.41336 0.626859 -0.185282 4
-0.63711 0.161657 -0.0543637 64
-1.28366 0.569726 -0.265701 3
-0.763883 0.192449 -0.119413 50
-0.96107 0.426949 -0.27223 3
-0.770847 0.193345 -0.175197 50
-2.76469 1.24328 0.690679 24
-2.74729 0.684416 0.748305 49
-2.71887 1.22209 0.465537 12
-2.76624 0.694175 0.54713 52
-1.46107 0.655725 0.137052 8
-2.7788 0.70139 0.347138 62
-1.432 0.64295 0.0267894 8
-2.78298 0.704485 0.148634 116
-0.624314 0.279582 -0.0341317 56
-1.41232 0.635271 -0.185587 4
-0.641085 0.166206 -0.0547986 62
-1.2829 0.577449 -0.266177 4
-0.765294 0.196914 -0.119804 50
-0.967623 0.435954 -0.274816 3
-0.765098 0.196198 -0.174073 50
-2.73832 1.23658 0.684502 53
-2.74843 0.689794 0.748951 49
-2.73045 1.23246 0.467879 15
-2.76265 0.698405 0.546653 52
-1.45539 0.656223 0.136617 8
-2.77769 0.705754 0.347138 61
-1.42177 0.641329 0.0266149 4
-2.77945 0.708243 0.148503 112
-0.619276 0.278614 -0.0338691 58
-1.40228 0.633394 -0.18437 4
-0.643208 0.167937 -0.055016 59
-1.2886 0.582728 -0.267605 3
-0.764949 0.198249 -0.119804 50
-0.96686 0.437643 -0.274816 3
-0.764788 0.197399 -0.174073 49
-2.73624 1.25293 0.685625 49
-2.74257 0.7031 0.748305 45
-2.72396 1.24674 0.467879 53
-2.75432 0.71116 0.5457 50
-1.45657 0.665655 0.137052 8
-2.77636 0.720908 0.347442 68
-1.42532 0.651641 0.0267458 4
-2.7757 0.722787 0.148503 102
-0.617808 0.281852 -0.0338691 58
-1.40796 0.644869 -0.185587 4
-0.637498 0.170053 -0.0545811 59
-1.27894 0.586168 -0.266177 3
-0.763901 0.202252 -0.119804 50
-0.96902 0.444551 -0.276109 3
-0.766104 0.202007 -0.174635 50
-2.70086 1.24242 0.677202 29
-2.74133 0.707886 0.748305 42
-2.70832 1.24529 0.465537 32
-2.7577 0.717674 0.546653 52
-1.45767 0.669237 0.13727 8
-2.7703 0.724505 0.346834 65
-1.41726 0.651239 0.0266149 4
-2.77927 0.728889 0.148765 124
-0.626385 0.287109 -0.0343942 58
-1.41134 0.649404 -0.186195 4
-0.637201 0.171166 -0.0545811 58
-1.27792 0.588399 -0.266177 4
-0.770716 0.205449 -0.120979 50
-0.965973 0.445396 -0.275463 4
-0.770467 0.204566 -0.175758 49
-2.67423 1.24773 0.672148 29
-2.7398 0.72332 0.748951 45
-2.68588 1.25262 0.462806 30
-2.75391 0.732104 0.546653 52
-1.45854 0.679221 0.137706 8
-2.76634 0.739483 0.346834 59
-1.41156 0.657593 0.0265713 4
-2.77529 0.743915 0.148765 149
-0.622611 0.289329 -0.0342629 58
-1.40556 0.655979 -0.185891 4
-0.636296 0.1745 -0.0545811 58
-1.26805 0.592183 -0.264748 4
-0.769629 0.209482 -0.120979 50
-0.963628 0.450448 -0.275463 3
-0.766994 0.208108 -0.175197 49
-2.65242 1.24262 0.667094 53
-2.73853 0.728101 0.748951 49
-2.65037 1.24111 0.456953 32
-2.75263 0.736909 0.546653 50
-1.4551 0.680708 0.137488 8
-2.75798 0.741906 0.345921 53
-1.41946 0.664302 0.0267458 4
-2.76688 0.746336 0.148372 111
-0.631146 0.294657 -0.034788 58
-1.41127 0.661351 -0.186804 4
-0.638396 0.176256 -0.0547986 56
-1.26701 0.594395 -0.264748 4
-0.766877 0.210187 -0.120587 49
-0.956287 0.449041 -0.273523 4
-0.764312 0.208685 -0.174635 50
-2.65467 1.26067 0.669341 59
-2.73015 0.740696 0.747659 44
-2.6483 1.25709 0.457733 58
-2.74649 0.750189 0.546177 50
-1.45164 0.688065 0.137488 8
-2.76603 0.759602 0.347442 50
-1.41383 0.670405 0.0267022 8
-2.77257 0.763448 0.148896 80
-0.625085 0.295813 -0.0345255 58
-1.4033 0.666598 -0.186195 4
-0.639866 0.180254 -0.055016 56
-1.26177 0.599744 -0.264272 4
-0.956181 0.454916 -0.274169 3
-0.763209 0.212684 -0.174635 49
-2.65906 1.26846 0.671025 59
-2.73118 0.746092 0.748305 45
-2.65055 1.26384 0.458513 58
-2.75215 0.757402 0.547607 52
-1.45043 0.690597 0.137488 8
-2.75991 0.763114 0.346834 55
-1.42381 0.678505 0.0269203 4
-2.76642 0.76696 0.148634 67
-0.624568 0.296904 -0.0345255 56
-1.40885 0.672258 -0.187108 4
-0.641951 0.182032 -0.0552335 56
-1.26293 0.603005 -0.264748 3
-0.957483 0.457795 -0.274816 4
-0.762836 0.214016 -0.174635 50
-2.65436 1.28389 0.671587 61
-2.72478 0.760213 0.747659 49
-2.64812 1.28031 0.459294 59
-2.74578 0.771142 0.54713 50
-1.44443 0.69735 0.13727 8
-2.75097 0.776695 0.346225 68
-1.41574 0.683772 0.0268331 4
-2.75982 0.78124 0.148503 61
-0.620758 0.299082 -0.0343942 56
-1.39403 0.674457 -0.185587 4
-0.636195 0.184042 -0.0547986 56
-1.25524 0.607687 -0.263796 4
-0.955073 0.462802 -0.274816 4
-0.764013 0.218796 -0.175197 47
-2.65453 1.28912 0.672148 64
-2.72112 0.764318 0.747013 49
-2.64811 1.28601 0.459684 61
-2.74443 0.775934 0.54713 50
-1.44321 0.69987 0.13727 8
-2.75916 0.784192 0.347442 64
-1.42354 0.690614 0.0270076 4
-2.76326 0.787416 0.148765 62
-0.620235 0.300165 -0.0343942 56
-1.39731 0.679063 -0.186195 4
-0.63108 0.183794 -0.0543637 55
-1.25197 0.608801 -0.26332 3
-0.956434 0.465528 -0.275463 4
-2.65407 1.30669 0.673833 71
-2.71708 0.778556 0.747013 49
-2.6502 1.30422 0.461245 67
-2.73561 0.788941 0.546177 49
-1.44176 0.708517 0.137488 8
-2.74786 0.796568 0.34653 53
-1.41542 0.695849 0.0269203 4
-2.76389 0.803259 0.149027 90
-0.620894 0.304512 -0.0345255 56
-1.39151 0.685271 -0.185891 4
-0.632502 0.187787 -0.0545811 55
-1.25537 0.618609 -0.264748 3
-0.953983 0.47053 -0.275463 4
-2.65638 1.31302 0.674956 82
-2.71572 0.783297 0.747013 49
-2.65478 1.31167 0.462416 77
-2.73187 0.793034 0.5457 50
-1.44499 0.713241 0.137924 8
-2.74184 0.799502 0.345921 50
-1.40748 0.694992 0.0267894 4
-2.76023 0.806903 0.148896 106
-0.620362 0.305595 -0.0345255 56
-1.39488 0.68966 -0.186499 4
-0.636956 0.190282 -0.055016 55
-1.24769 0.617526 -0.26332 3
-0.959648 0.475419 -0.277403 4
-2.65382 1.3291 0.676079 86
-2.71404 0.797709 0.747659 47
-2.65009 1.32666 0.462806 88
-2.72783 0.806851 0.5457 52
-1.44359 0.721661 0.138142 4
-2.73286 0.812441 0.345313 49
-1.40842 0.704347 0.0268767 4
-2.75836 0.822053 0.149027 90
-0.618753 0.308839 -0.0345255 58
-1.38904 0.69584 -0.186195 4
-0.638338 0.194323 -0.0552335 55
-1.24235 0.622732 -0.262844 3
-0.959386 0.481355 -0.278049 4
-2.62104 1.31839 0.668217 38
-2.71496 0.803126 0.748305 47
-2.62792 1.32129 0.459294 45
-2.72627 0.812086 0.5457 52
-1.43565 0.720821 0.137488 4
-2.73381 0.817917 0.345617 49
-1.40706 0.70705 0.0268767 4
-2.74735 0.824013 0.148503 55
-0.622672 0.312165 -0.034788 56
-1.39668 0.702733 -0.187412 4
-0.635612 0.194724 -0.055016 53
-1.24784 0.628216 -0.264272 3
-0.954151 0.481017 -0.276756 4
-2.59868 1.3248 0.664287 33
-2.7152 0.819191 0.749597 47
-2.60533 1.32763 0.456562 35
-2.72433 0.827059 0.546177 49
-1.43173 0.728578 0.137488 4
-2.73647 0.834856 0.34653 55
-1.40111 0.713271 0.0268331 4
-0.618806 0.314286 -0.0346568 58
-1.38623 0.706891 -0.186499 4
-0.632201 0.197325 -0.0547986 55
-1.23787 0.631606 -0.262844 3
-0.955917 0.488208 -0.278049 4
-2.57708 1.31888 0.659233 33
-2.71608 0.824626 0.750244 49
-2.57907 1.31934 0.45227 33
-2.72523 0.832525 0.546653 49
-1.43489 0.733347 0.137924 4
-2.73278 0.83843 0.346225 80
-1.40654 0.719135 0.026964 8
-0.620478 0.316504 -0.034788 56
-1.38733 0.710201 -0.186804 4
-0.634237 0.199157 -0.055016 55
-1.23676 0.633765 -0.262844 3
-0.950769 0.487666 -0.276756 4
-2.54419 1.31889 0.652495 33
-2.71418 0.839072 0.75089 49
-2.55459 1.32373 0.449148 33
-2.72333 0.847033 0.54713 47
-1.43337 0.741746 0.138142 8
-2.71888 0.849782 0.345008 49
-1.39844 0.723943 0.0268767 4
-0.616597 0.318598 -0.0346568 56
-1.37698 0.714022 -0.185891 4
-0.635563 0.203216 -0.0552335 53
-1.23136 0.638884 -0.262367 3
-0.952572 0.494704 -0.278049 4
-2.52677 1.31544 0.648564 33
-2.70579 0.841668 0.748951 49
-2.53037 1.31678 0.445246 32
-2.72404 0.852989 0.547607 47
-1.43208 0.744247 0.138142 8
-2.72449 0.856747 0.345921 49
-1.39705 0.726627 0.0268767 4
-0.618253 0.320828 -0.034788 58
-1.37353 0.715276 -0.185587 4
-0.632831 0.20358 -0.055016 53
-1.24112 0.646714 -0.264748 4
-1.9851 0.626382 -0.324568 14
-0.949481 0.495412 -0.277403 4
-2.49807 1.31772 0.642949 33
-2.70811 0.858472 0.75089 49
-2.50356 1.32007 0.441734 33
-2.72188 0.867982 0.548083 49
-1.41922 0.747335 0.13727 4
-2.71982 0.871475 0.345921 47
-1.39102 0.732764 0.0268331 4
-0.618772 0.325227 -0.0349193 56
-1.37184 0.723857 -0.185891 4
-0.634129 0.207648 -0.0552335 49
-1.22893 0.648827 -0.262844 4
-1.97944 0.636017 -0.324176 12
-0.955409 0.504901 -0.279989 4
-2.47878 1.31251 0.638457 35
-2.702 0.861738 0.749597 47
-2.48185 1.3136 0.438222 33
-2.72269 0.873477 0.54856 50
-1.42451 0.753309 0.137924 4
-2.72081 0.876504 0.346225 47
-1.39415 0.737533 0.0269203 4
-0.620409 0.327476 -0.0350506 56
-1.36851 0.724848 -0.185587 4
-0.629023 0.207231 -0.0547986 45
-1.23429 0.654427 -0.264272 4
-1.97127 0.637209 -0.323002 14
-0.954526 0.506568 -0.279989 4
-2.45255 1.3151 0.633403 35
-2.69071 0.873178 0.747659 45
-2.45535 1.31606 0.43471 33
-2.71824 0.887247 0.54856 52
-1.4141 0.756978 0.13727 4
-2.7209 0.892276 0.346834 47
-1.3882 0.743398 0.0268767 4
-0.618686 0.33072 -0.0350506 56
-1.36907 0.734353 -0.186195 4
-0.625563 0.209747 -0.0545811 39
-1.22232 0.656015 -0.262367 3
-1.96321 0.645989 -0.322219 14
-0.956202 0.513684 -0.281282 4
-2.43739 1.31244 0.630034 35
-2.69148 0.878619 0.748305 45
-2.44001 1.31332 0.432368 35
-2.71653 0.892464 0.54856 50
-1.42374 0.76535 0.13836 4
-2.71934 0.897024 0.346834 47
-1.38897 0.747248 0.0269203 4
-0.618108 0.3318 -0.0350506 56
-1.3656 0.735563 -0.185891 4
-0.629927 0.212396 -0.055016 36
-1.22765 0.661647 -0.263796 3
-1.96443 0.650185 -0.32261 14
-0.95309 0.514369 -0.280636 4
-2.40673 1.31277 0.623857 36
-2.6798 0.890894 0.746366 45
-2.41769 1.31822 0.429637 35
-2.70716 0.905127 0.547607 49
-1.42176 0.774235 0.138578 4
-2.70974 0.910151 0.346225 49
-1.38284 0.753312 0.0268767 4
-0.616362 0.335031 -0.0350506 56
-1.36595 0.745322 -0.186499 4
-0.631168 0.216482 -0.0552335 29
-1.20252 0.656497 -0.259034 3
-1.95163 0.657331 -0.321044 14
-0.952501 0.520513 -0.281282 4
-2.39612 1.31186 0.621611 36
-2.67825 0.89557 0.746366 47
-2.3983 1.31252 0.426515 35
-2.70325 0.909072 0.54713 45
-2.71772 0.917566 0.347442 90
-1.38591 0.758128 0.026964 4
-0.617966 0.337307 -0.0351819 56
-1.36478 0.747466 -0.186499 4
-0.628429 0.216788 -0.055016 24
-1.20998 0.663323 -0.260939 3
-1.95048 0.660737 -0.321044 14
-0.957938 0.525668 -0.283222 4
-2.37005 1.31375 0.616557 36
-2.67368 0.909114 0.746366 47
-2.37196 1.31428 0.423003 35
-2.69629 0.921953 0.546653 45
-2.71053 0.930981 0.347138 50
-1.37331 0.760282 0.0267894 4
-0.614008 0.339326 -0.0350506 55
-1.35434 0.750986 -0.185587 4
-0.622573 0.218461 -0.0545811 27
-1.19374 0.662281 -0.258082 3
-1.93298 0.666146 -0.318695 12
-0.948936 0.526984 -0.281282 4
-2.35073 1.3084 0.612065 36
-2.66751 0.912225 0.745074 49
-2.35456 1.31001 0.420271 36
-2.68987 0.925538 0.5457 44
-2.7089 0.93571 0.347138 47
-1.36967 0.761701 0.0267458 4
-0.615596 0.341613 -0.0351819 56
-1.43492 0.499695 -0.0259168 4
-1.3617 0.758185 -0.186804 4
-0.624546 0.220358 -0.0547986 38
-1.19687 0.666757 -0.259034 3
-1.92948 0.668716 -0.318303 12
-0.956352 0.533522 -0.283869 4
-2.32877 1.31272 0.608134 38
-2.66254 0.926644 0.745074 49
-2.32808 1.31181 0.416759 35
-2.68035 0.937996 0.544747 45
-2.69911 0.948715 0.34653 44
-1.37437 0.773775 0.0269203 8
-0.615973 0.346059 -0.0353131 56
-1.43219 0.507451 -0.0259168 4
-1.35541 0.764321 -0.186499 4
-0.623383 0.223625 -0.0547986 47
-1.18897 0.670807 -0.258082 3
-1.92828 0.679625 -0.318695 12
-0.94304 0.532571 -0.280636 4
-2.31398 1.30917 0.604765 38
-2.66092 0.931289 0.745074 47
-2.31097 1.30695 0.414028 35
-2.67408 0.941052 0.543794 45
-2.69293 0.951309 0.345921 44
-0.615368 0.347133 -0.0353131 53
-1.43602 0.511613 -0.0260041 4
-1.35637 0.767673 -0.186804 4
-0.62769 0.226369 -0.0552335 52
-1.18993 0.674093 -0.258558 3
-1.92243 0.68135 -0.317912 12
-0.942109 0.534216 -0.280636 4
-2.28808 1.31036 0.599711 36
-2.65845 0.945551 0.74572 47
-2.29339 1.31289 0.412077 36
-2.66928 0.954574 0.543794 47
-2.68324 0.963726 0.345313 42
-1.46714 0.530392 0.0799432 4
-0.615707 0.351593 -0.0354444 53
-1.4287 0.517188 -0.0259168 4
-1.34803 0.772294 -0.186195 4
-0.624151 0.228812 -0.055016 50
-1.17799 0.675216 -0.256653 3
-1.91186 0.688912 -0.316737 12
-0.947765 0.543796 -0.283222 4
-1.07049 0.386766 -0.254372 3
-2.27101 1.30584 0.59578 36
-2.65452 0.94938 0.745074 47
-2.26969 1.30457 0.408175 36
-2.66745 0.959697 0.543794 49
-2.67689 0.96673 0.344704 42
-1.46856 0.533797 0.080074 4
-0.612929 0.351421 -0.0353131 53
-1.4278 0.519681 -0.0259168 4
-1.35313 0.778363 -0.187108 4
-0.626094 0.230746 -0.0552335 50
-1.18319 0.68095 -0.258082 3
-1.90601 0.690577 -0.315954 12
-0.946719 0.545614 -0.283222 4
-1.06981 0.388634 -0.254372 4
-2.24918 1.30952 0.59185 36
-2.64707 0.962907 0.744428 49
-2.25193 1.31062 0.406223 36
-2.6693 0.976168 0.545224 50
-2.23888 1.3025 0.223554 36
-2.66929 0.980348 0.3444 41
-1.46096 0.540018 0.0798123 4
-0.613238 0.355883 -0.0354444 53
-1.42966 0.529119 -0.0260041 3
-0.627216 0.234878 -0.0554509 50
-1.16889 0.681152 -0.255701 3
-1.90005 0.699699 -0.315563 12
-0.945934 0.551783 -0.283869 4
-1.06998 0.395251 -0.254933 3
-2.2345 1.30567 0.588481 36
-2.64539 0.967525 0.744428 49
-2.23495 1.30543 0.403492 36
-2.66529 0.979982 0.544747 50
-2.23015 1.30264 0.222901 35
-2.65842 0.981118 0.343183 38
-1.45777 0.54145 0.0796815 4
-0.623389 0.363258 -0.0361008 53
-1.42873 0.531613 -0.0260041 4
-0.624468 0.235111 -0.0552335 47
-1.17617 0.688158 -0.257606 3
-1.90114 0.703866 -0.315954 12
-0.944969 0.553433 -0.283869 4
-1.06707 0.396093 -0.254372 4
-2.21296 1.30867 0.58455 36
-2.64046 0.980902 0.744428 47
-2.21108 1.30705 0.40037 35
-2.658 0.992605 0.544271 50
-2.20853 1.30503 0.221376 35
-2.64628 0.992422 0.34227 36
-1.45725 0.54995 0.0798123 4
-0.621542 0.366408 -0.0361008 50
-1.42837 0.539714 -0.0260477 4
-0.618604 0.236524 -0.0547986 47
-1.16634 0.690345 -0.256177 3
-1.89512 0.712947 -0.315563 12
-0.944232 0.559443 -0.284516 4
-1.06498 0.401675 -0.254372 4
-2.19205 1.30094 0.579496 35
-2.64327 0.987191 0.74572 49
-2.19394 1.30207 0.397638 35
-2.65396 0.996384 0.543794 50
-2.1934 1.30125 0.220068 36
-2.63292 0.992682 0.340749 33
-1.45862 0.553371 0.0799432 4
-0.623048 0.368768 -0.0362321 47
-1.4321 0.543967 -0.026135 4
-0.620522 0.23848 -0.055016 45
-1.17567 0.69866 -0.258558 3
-1.88925 0.714518 -0.31478 12
-0.934959 0.556141 -0.281929 4
-1.05972 0.401825 -0.253249 3
-2.17223 1.30563 0.576127 35
-2.64241 1.00318 0.747013 47
-2.17205 1.30502 0.394907 36
-2.65083 1.0116 0.544271 49
-2.17566 1.30668 0.218979 38
-2.61128 1.00073 0.338619 32
-1.45328 0.560364 0.0798123 4
-0.621044 0.372134 -0.0362321 41
-1.43147 0.5526 -0.0261786 4
-0.621549 0.242723 -0.0552335 45
-1.16767 0.702476 -0.257606 3
-1.88779 0.72528 -0.315171 12
-0.931936 0.561191 -0.281929 4
-1.0598 0.408419 -0.25381 3
-2.15141 1.2977 0.571073 36
-2.63388 1.00522 0.745074 49
-2.1552 1.29949 0.392175 36
-2.64906 1.01622 0.544271 50
-2.15845 1.30147 0.217454 38
-2.60276 1.00216 0.337707 30
-1.46405 0.567119 0.0804665 4
-0.624667 0.375799 -0.0364946 38
-1.43051 0.555098 -0.0261786 4
-0.618799 0.242914 -0.055016 45
-1.16225 0.701971 -0.256653 3
-1.88191 0.726806 -0.314388 12
-0.93302 0.564069 -0.282576 4
-1.06599 0.412693 -0.255495 3
-2.13419 1.3026 0.568266 36
-2.63101 1.01941 0.74572 49
-2.13572 1.30304 0.389834 36
-2.64388 1.02962 0.544271 50
-2.13483 1.30199 0.21571 38
-2.58129 1.00948 0.335577 30
-1.46338 0.575684 0.0805974 4
-0.629147 0.382862 -0.0368885 36
-1.43233 0.564148 -0.0262659 4
-0.617562 0.246043 -0.055016 45
-1.15449 0.705281 -0.255701 3
-1.87808 0.736649 -0.314388 12
-0.934271 0.571309 -0.283869 4
-1.05927 0.416505 -0.254372 4
-2.11761 1.29703 0.564335 36
-2.62697 1.02313 0.745074 47
-2.11871 1.29772 0.387102 36
-2.6375 1.03245 0.543317 49
-2.11981 1.29791 0.214403 39
-2.57028 1.01037 0.33436 29
-1.46005 0.577326 0.0804665 4
-1.43367 0.56756 -0.0263095 4
-0.621769 0.248938 -0.0554509 44
-1.15117 0.70601 -0.255225 3
-1.87909 0.740826 -0.31478 12
-0.929159 0.570407 -0.282576 4
-1.06308 0.420125 -0.255495 4
-2.09814 1.30076 0.560966 38
-2.62158 1.03687 0.745074 47
-2.10139 1.30229 0.385151 38
-2.63434 1.04715 0.543794 49
-2.10241 1.30242 0.213314 39
-2.56495 1.02381 0.33436 30
-1.71897 1.06501 0.0346867 12
-1.45933 0.585886 0.0805974 4
-1.42836 0.574134 -0.0262659 4
-0.618143 0.251269 -0.0552335 39
-1.13495 0.70425 -0.252368 3
-1.87289 0.749743 -0.314388 12
-0.934359 0.580371 -0.285162 4
-1.06087 0.425685 -0.255495 4
-2.08162 1.29504 0.557035 38
-2.62201 1.04233 0.74572 45
-2.08864 1.29943 0.3832 38
-2.63479 1.05265 0.544271 50
-2.08322 1.29556 0.211571 39
-2.55394 1.02461 0.333143 30
-1.69801 1.05611 0.034294 12
-1.45135 0.585651 0.0802048 4
-1.42968 0.577555 -0.0263095 4
-0.617704 0.252348 -0.0552335 38
-1.13789 0.70883 -0.25332 3
-0.931297 0.580721 -0.284516 4
-1.06012 0.427536 -0.255495 3
-2.06016 1.29719 0.553104 38
-2.61428 1.05515 0.745074 45
-2.06718 1.30113 0.380469 38
-2.62924 1.06643 0.544271 49
-2.06165 1.29716 0.210045 38
-2.55084 1.0389 0.333447 26
-1.684 1.05966 0.0341195 12
-1.45058 0.594182 0.0803357 4
-1.422 0.583151 -0.0262222 4
-0.630218 0.261203 -0.0565382 36
-1.12793 0.710846 -0.251892 3
-0.924162 0.583007 -0.283222 3
-1.05561 0.432168 -0.254933 3
-2.0437 1.29131 0.549174 36
-2.61915 1.06242 0.747013 47
-2.05447 1.29813 0.378518 38
-2.62738 1.07102 0.544271 50
-2.04886 1.2941 0.208956 39
-2.54673 1.04241 0.333143 26
-1.66947 1.05457 0.0338577 12
-1.45416 0.598599 0.0805974 4
-1.42561 0.587522 -0.0263095 4
-0.629761 0.262303 -0.0565382 35
-1.11633 0.706242 -0.249511 3
-0.929259 0.588503 -0.285162 3
-1.05711 0.434927 -0.255495 4
-2.02438 1.29446 0.545805 38
-2.61132 1.0752 0.746366 47
-2.03309 1.29956 0.375786 38
-2.62174 1.08476 0.544271 49
-2.02737 1.29541 0.207431 39
-2.55041 1.05952 0.33436 24
-1.65551 1.05791 0.0336831 11
-1.44639 0.604294 0.0803357 4
-1.42021 0.594021 -0.0262659 4
-0.628379 0.265596 -0.0565382 33
-1.10848 0.709427 -0.248559 3
-0.928196 0.594666 -0.285809 3
-1.05032 0.438598 -0.254372 3
-2.01209 1.29106 0.542997 36
-2.60944 1.07976 0.746366 47
-2.01628 1.29376 0.373054 39
-2.62211 1.09028 0.544747 49
-2.01882 1.29491 0.206777 41
-2.56001 1.06873 0.335881 26
-1.65576 1.06215 0.0337268 12
-1.44995 0.608736 0.0805974 4
-1.41224 0.593615 -0.026135 4
-1.10931 0.712689 -0.249035 3
-0.921069 0.592358 -0.283869 3
-1.0518 0.441363 -0.254933 4
-1.99078 1.29263 0.539066 38
-2.60375 1.09341 0.746366 47
-1.99912 1.29757 0.371103 39
-2.6141 1.10304 0.544271 49
-1.99322 1.29325 0.204816 41
-1.64599 1.06808 0.0336395 12
-1.43754 0.612434 0.080074 4
-1.60177 1.04014 -0.098588 14
-1.41372 0.602948 -0.0262222 4
-1.09528 0.71179 -0.246654 4
-1.4837 0.631359 -0.250179 9
-0.928067 0.60377 -0.287102 3
-1.04947 0.446864 -0.254933 3
-1.98036 1.29078 0.53682 38
-2.60852 1.10075 0.748305 49
-1.98444 1.29296 0.368762 39
-2.61198 1.10806 0.544271 49
-1.98679 1.29401 0.20438 41
-1.64603 1.07261 0.0336831 12
-1.44796 0.61982 0.0807282 4
-1.61668 1.05385 -0.0996382 14
-1.41267 0.605415 -0.0262222 4
-1.09814 0.716387 -0.247606 4
-1.47805 0.63202 -0.249396 8
-0.924886 0.604228 -0.286455 3
-1.05542 0.451541 -0.256618 3
-1.96115 1.29342 0.533451 39
-2.60252 1.11485 0.748305 47
-1.96505 1.29552 0.366421 39
-2.61291 1.12462 0.5457 44
-1.9652 1.29514 0.202855 41
-2.74717 1.18664 0.362654 15
-1.64456 1.08396 0.0337704 12
-1.44688 0.628632 0.0808591 4
-1.41396 0.615029 -0.0263095 4
-1.0963 0.723672 -0.248082 4
-1.47472 0.63975 -0.249396 8
-0.923723 0.610396 -0.287102 3
-1.04849 0.455323 -0.255495 3
-1.94694 1.28842 0.530082 38
-2.61611 1.12605 0.752828 41
-1.95272 1.29178 0.364469 39
-2.89722 1.25241 0.606228 26
-1.95464 1.29307 0.201983 42
-2.75897 1.19686 0.36448 15
-1.4436 0.629913 0.0807282 4
-1.41518 0.61849 -0.0263531 4
-1.08685 0.720153 -0.246178 4
-1.4736 0.642323 -0.249396 4
-0.920645 0.61067 -0.286455 3
-1.05672 0.460827 -0.257741 3
-1.93207 1.29317 0.527836 39
-2.88283 1.25763 0.832312 26
-1.93773 1.29649 0.362909 39
-2.8706 1.25822 0.601938 26
-1.93565 1.29463 0.200676 41
-2.76858 1.21826 0.36661 21
-1.44942 0.641477 0.0812516 4
-1.40745 0.623634 -0.0262659 4
-1.93789 1.29857 -0.281727 41
-1.08523 0.727013 -0.246654 3
-1.46343 0.647055 -0.248222 4
-0.919547 0.616669 -0.287102 3
-1.04536 0.46245 -0.255495 3
-1.91768 1.28839 0.524467 39
-2.85186 1.2501 0.823911 26
-1.92317 1.2916 0.360567 41
-2.83896 1.25091 0.595743 26
-1.92719 1.29384 0.200022 41
-2.76418 1.22209 0.366305 27
-1.44145 0.640983 0.0808591 4
-1.40636 0.626089 -0.0262659 4
-1.92533 1.29502 -0.280205 42
-1.07786 0.724791 -0.245225 4
-1.4623 0.649608 -0.248222 4
-0.918361 0.618434 -0.287102 3
-1.04902 0.466233 -0.256618 3
-1.90061 1.29189 0.521659 39
-2.82076 1.25475 0.816803 27
-1.90594 1.29505 0.358616 41
-2.80099 1.25179 0.58907 24
-1.90574 1.29444 0.198497 41
-2.75752 1.23703 0.366305 23
-1.43112 0.645713 0.0804665 4
-1.40752 0.635733 -0.0263531 4
-1.07798 0.733378 -0.246178 4
-1.46789 0.661285 -0.249788 4
-0.913116 0.621872 -0.286455 3
-1.03535 0.466942 -0.25381 3
-1.89053 1.28938 0.519413 39
-2.77224 1.23905 0.803232 24
-1.89167 1.28968 0.356275 39
-2.74503 1.23263 0.577632 24
-1.89731 1.29355 0.197844 41
-2.73067 1.23019 0.362959 15
-1.43694 0.651031 0.0808591 4
-1.40185 0.636137 -0.0262659 4
-1.06859 0.729713 -0.244273 4
-1.46449 0.662835 -0.249396 4
-0.919997 0.628926 -0.289042 3
-1.03684 0.469563 -0.254372 3
-1.86972 1.28957 0.515482 39
-2.74832 1.24513 0.798063 56
-1.87879 1.29536 0.355104 39
-2.74322 1.24854 0.578585 53
-1.87229 1.29041 0.195883 41
-2.69031 1.22905 0.358395 14
-1.87677 1.29398 0.0391806 42
-1.43124 0.65751 0.0807282 4
-1.40771 0.647373 -0.0264404 4
-1.05883 0.730923 -0.242845 4
-0.916802 0.633575 -0.289042 3
-1.02993 0.472972 -0.253249 3
-1.85969 1.28695 0.513236 39
-2.74394 1.24892 0.797417 42
-1.86232 1.28879 0.352372 39
-2.7254 1.24621 0.575249 32
-1.85775 1.28516 0.194575 41
-2.66108 1.22137 0.354744 14
-1.86629 1.29156 0.0390061 41
-1.43236 0.661047 0.0808591 4
-1.40657 0.649829 -0.0264404 4
-1.05554 0.73137 -0.242368 4
-0.91966 0.637932 -0.290335 3
-1.02689 0.473757 -0.252687 3
-1.84272 1.29 0.510428 39
-2.70006 1.24613 0.786431 24
-1.84544 1.29144 0.350421 41
-2.68765 1.24606 0.568577 26
-1.84488 1.29059 0.193922 42
-2.62763 1.22277 0.351093 14
-1.85131 1.29557 0.0388316 41
-1.43567 0.671691 0.0812516 4
-1.40315 0.657185 -0.0264404 4
-1.20749 0.845677 -0.176459 9
-1.05571 0.739708 -0.243321 4
-0.916307 0.642738 -0.290335 3
-1.02882 0.481173 -0.25381 3
-1.82851 1.28481 0.507059 39
-2.67376 1.23971 0.779323 26
-1.83308 1.28756 0.34847 41
-2.66076 1.23985 0.563334 30
-1.83447 1.28807 0.19305 42
-2.59625 1.21374 0.347138 14
-1.83246 1.28762 0.0384826 41
-1.42771 0.67103 0.0808591 4
-1.39747 0.657519 -0.0263531 4
-1.19992 0.843496 -0.175547 11
-1.05442 0.741549 -0.243321 4
-0.919017 0.647282 -0.291628 3
-1.02356 0.480915 -0.252687 4
-1.81161 1.28762 0.504251 41
-2.66045 1.25108 0.777384 49
-1.81804 1.29173 0.346909 41
-2.65645 1.25481 0.563811 58
-1.8153 1.28932 0.191743 42
-2.56272 1.21506 0.343487 26
-1.81755 1.2914 0.038308 41
-1.43083 0.681947 0.0812516 4
-1.3939 0.66507 -0.0263531 4
-1.0444 0.742969 -0.241892 4
-1.01653 0.484369 -0.251564 3
-1.80166 1.2848 0.502005 41
-2.66045 1.25675 0.77803 56
-1.80574 1.28773 0.344958 41
-2.6587 1.26154 0.564764 58
-1.80494 1.2867 0.190871 42
-2.55611 1.2174 0.342879 26
-1.80105 1.2844 0.0380026 41
-1.41836 0.679087 0.0805974 4
-1.39273 0.667502 -0.0263531 4
-1.03511 0.739077 -0.239988 4
-1.02229 0.489269 -0.253249 4
-1.78305 1.28566 0.498636 41
-2.66059 1.27332 0.779969 56
-1.78918 1.28963 0.343007 42
-2.66113 1.27922 0.56667 58
-1.78629 1.28708 0.189564 44
-2.57004 1.24 0.345617 27
-1.78845 1.28911 0.0378717 41
-1.41491 0.686257 0.0805974 4
-1.38934 0.674543 -0.0263531 4
-1.03136 0.744307 -0.239988 4
-1.01101 0.490224 -0.251003 4
-1.77292 1.28305 0.49639 41
-2.65837 1.27796 0.779969 58
-1.77293 1.28261 0.340276 41
-2.65867 1.28433 0.56667 59
-1.77799 1.28581 0.18891 42
-2.56564 1.2434 0.345313 27
-1.77788 1.28668 0.0376972 42
-1.42719 0.695245 0.0813824 4
-1.39491 0.680233 -0.026484 4
-1.02609 0.743222 -0.239035 4
-1.01455 0.494102 -0.252126 3
-1.75613 1.28542 0.493583 41
-2.66011 1.29654 0.782554 59
-1.75999 1.2878 0.339105 41
-2.65632 1.30038 0.567624 64
-1.76096 1.28805 0.187821 44
-2.55888 1.25726 0.345313 29
-1.76708 1.29301 0.0376099 44
-1.41893 0.700759 0.0811207 4
-1.39121 0.68777 -0.026484 4
-1.76154 1.29083 -0.263472 42
-1.01186 0.499584 -0.252126 4
-1.74625 1.28241 0.491336 42
-2.66001 1.30224 0.7832 65
-1.75001 1.28471 0.337544 42
-2.66066 1.30826 0.569053 68
-1.75068 1.28522 0.186949 44
-2.54131 1.25362 0.343183 29
-1.75475 1.28869 0.0373918 44
-1.42006 0.704089 0.0812516 4
-1.38776 0.689092 -0.0264404 4
-1.75351 1.28918 -0.262559 44
-1.01326 0.502245 -0.252687 3
-1.72387 1.27991 0.486844 41
-2.66421 1.32103 0.786431 74
-1.7274 1.28207 0.334422 42
-2.6584 1.32389 0.570007 79
-1.73216 1.28516 0.185642 44
-2.56581 1.28239 0.347442 33
-1.73015 1.28414 0.0369991 42
-1.42083 0.713743 0.0815132 4
-1.38202 0.694991 -0.0263968 4
-1.73678 1.29094 -0.261038 44
-1.00625 0.505376 -0.251564 4
-1.71405 1.27679 0.484598 42
-2.65108 1.32032 0.7832 59
-1.72714 1.28656 0.334812 44
-2.6517 1.32634 0.569053 52
-1.72392 1.28371 0.184988 44
-2.56579 1.28798 0.347747 21
-1.7259 1.28566 0.0369555 42
-1.41065 0.71175 0.0809899 4
-1.37633 0.695162 -0.0263095 4
-1.72459 1.28654 -0.259517 45
-1.00101 0.504956 -0.250441 4
-1.70128 1.28164 0.482913 42
-2.62687 1.32551 0.77803 33
-1.70855 1.28667 0.332471 42
-2.61842 1.32693 0.563334 32
-1.70723 1.28522 0.183899 42
-2.55679 1.30027 0.347442 15
-1.70717 1.28565 0.0366937 42
-1.4069 0.719127 0.0809899 4
-1.6947 1.27717 -0.109746 17
-1.38382 0.708018 -0.0265277 4
-1.70793 1.28808 -0.257996 47
-1.96681 1.00236 -0.344535 12
-1.00053 0.511289 -0.251003 3
-1.69128 1.27873 0.480667 42
-2.59868 1.31703 0.770276 32
-1.69842 1.28369 0.33091 42
-2.59179 1.31975 0.558092 30
-1.69506 1.28069 0.182809 44
-2.52798 1.29123 0.343792 15
-1.69673 1.28289 0.0365192 42
-1.41232 0.724981 0.0813824 4
-1.69247 1.28013 -0.109746 23
-1.3759 0.707025 -0.0263968 4
-1.69777 1.28506 -0.256779 47
-1.97606 1.01139 -0.346493 12
-0.997461 0.511932 -0.250441 3
