# .PCD v0.7 - Point Cloud Data file format
VERSION 0.7
FIELDS x y z intensity
SIZE 4 4 4 4
TYPE F F F F
COUNT 1 1 1 1
WIDTH 1594
HEIGHT 1
VIEWPOINT 0 0 0 1 0 0 0
POINTS 1594
DATA ascii
2.44758 -5.00063 1.48045 35
1.86676 -6.59625 1.0778 38
1.84514 -6.51549 0.589391 9
2.92197 -6.01519 0.815668 15
1.40589 -4.96652 0.0894872 47
2.43264 -5.01854 0.290465 8
1.40516 -4.97057 -0.269771 45
1.31074 -2.71151 -0.0519645 9
1.40172 -4.96501 -0.628256 45
1.35603 -2.80484 -0.268991 11
1.0674 -3.78463 -0.756151 4
1.42737 -2.94667 -0.51367 8
0.784709 -2.78833 -0.766252 4
1.85366 -6.59822 1.57171 32
2.43567 -4.99839 1.47852 33
1.85391 -6.59475 1.07702 38
1.85533 -6.59543 0.596363 36
2.90822 -6.01358 0.814755 15
1.39567 -4.9668 0.0894436 47
2.4304 -5.03626 0.29125 9
1.39581 -4.97061 -0.26964 45
1.30275 -2.70704 -0.0518336 9
1.39239 -4.96506 -0.627952 45
1.35005 -2.80496 -0.268774 9
1.05947 -3.78176 -0.755199 4
0.782597 -2.80146 -0.769485 3
1.8147 -6.59641 1.56891 32
2.40545 -5.00497 1.47658 32
1.81558 -6.59516 1.07546 36
3.09758 -6.47055 1.38641 21
1.8183 -6.60056 0.595927 41
2.86922 -6.0158 0.81293 26
1.36766 -4.96681 0.0893127 45
1.36844 -4.97303 -0.269378 45
1.29131 -2.72082 -0.0519645 11
1.36419 -4.96773 -0.627343 45
1.33856 -2.81873 -0.269426 14
1.04094 -3.79454 -0.756627 8
1.80177 -6.58985 1.56666 32
2.39253 -5.00045 1.47399 27
1.80147 -6.58879 1.0739 36
3.16452 -6.63983 1.42168 32
1.80546 -6.59892 0.595492 39
2.85872 -6.02079 0.81293 23
1.35701 -4.96196 0.0891818 47
1.35647 -4.96337 -0.268721 45
1.28441 -2.71856 -0.0518773 18
1.35291 -4.96053 -0.626126 45
1.3315 -2.81656 -0.268991 17
1.03432 -3.79635 -0.756627 4
1.76609 -6.5995 1.56666 35
2.36115 -5.00199 1.47076 24
1.76758 -6.60052 1.07429 39
3.13285 -6.66297 1.42311 35
1.76831 -6.59866 0.59462 38
1.33037 -4.96658 0.0891382 47
1.36277 -2.92047 0.167083 12
1.33046 -4.97041 -0.268721 45
1.26486 -2.71392 -0.0516591 14
1.32564 -4.96275 -0.625518 45
1.32096 -2.83252 -0.269861 9
1.01569 -3.80646 -0.75758 8
1.28417 -2.74291 -0.690117 8
1.75509 -6.59992 1.5661 35
2.3483 -4.99736 1.46818 18
1.74972 -6.57973 1.07039 32
3.11184 -6.64843 1.41882 30
1.75359 -6.58971 0.593531 38
1.31913 -4.95923 0.0889636 47
1.35661 -2.92059 0.166952 24
1.3205 -4.96789 -0.268459 45
1.26224 -2.72066 -0.0517464 9
1.3157 -4.96026 -0.624909 45
1.31917 -2.84159 -0.270514 11
1.01093 -3.81534 -0.759008 4
1.27422 -2.73411 -0.687309 8
1.71691 -6.59988 1.56385 35
2.316 -4.99645 1.4643 15
1.71524 -6.5888 1.07039 36
3.07081 -6.65127 1.41596 29
1.29315 -4.96607 0.0889636 47
1.33296 -2.9095 0.165905 23
1.29196 -4.96508 -0.267934 45
1.24484 -2.72042 -0.0516155 9
1.28847 -4.96227 -0.624301 42
1.30947 -2.85978 -0.271601 14
1.3545 -2.95372 -0.509755 3
1.2507 -2.72084 -0.682256 11
2.30423 -4.99391 1.46236 15
3.05098 -6.63878 1.41215 27
1.28135 -4.95622 0.0887455 42
1.32684 -2.90956 0.165774 29
1.27581 -4.93831 -0.266358 9
1.23905 -2.72031 -0.0515719 9
1.26928 -4.92367 -0.619129 2
1.30863 -2.87111 -0.272471 15
1.2551 -2.74294 -0.687309 3
2.27204 -4.99272 1.45848 14
1.25047 -4.93981 0.442751 1
1.24865 -4.9362 0.0882655 2
1.30645 -2.90509 0.16512 15
1.23991 -4.90883 -0.264389 2
1.22582 -2.72904 -0.0516155 9
1.23985 -4.91581 -0.617303 3
1.30024 -2.89404 -0.273993 14
1.21625 -4.84706 1.14383 1
2.25733 -4.98349 1.45461 11
1.23656 -4.9245 0.796838 2
1.23943 -4.93232 0.44188 2
1.22762 -4.89252 0.0874365 2
1.30035 -2.90509 0.164989 27
1.22208 -2.73346 -0.0516591 11
1.23067 -4.91556 -0.616999 2
1.28805 -2.88041 -0.272471 11
1.20044 -4.89617 1.15394 2
2.22442 -4.9824 1.45073 1
1.20931 -4.92872 0.796448 2
2.20457 -4.9611 1.04755 1
1.25976 -2.85062 0.377866 3
1.28664 -2.91664 0.165251 17
1.20424 -2.73317 -0.0515282 20
1.28001 -2.90305 -0.273993 9
1.88905 -4.27276 -0.735269 9
2.20786 -4.96863 1.44556 1
2.19192 -4.95597 1.04565 2
1.2618 -2.86871 0.379996 8
1.27349 -2.90061 0.164204 15
1.19745 -2.73069 -0.051441 15
1.27996 -2.91668 -0.27508 9
1.87959 -4.27153 -0.734486 9
2.17685 -4.96647 1.44168 2
1.24825 -2.87733 0.3803 9
1.25979 -2.90931 0.164335 14
1.18561 -2.7413 -0.0515282 9
1.27161 -2.93933 -0.276602 9
1.8609 -4.28778 -0.735661 8
2.16625 -4.96584 1.44039 3
1.23533 -2.86129 0.377866 9
1.24975 -2.90004 0.163681 14
1.17884 -2.73878 -0.051441 9
1.84949 -4.28196 -0.734095 8
2.13266 -4.96196 1.43587 3
1.21886 -2.86565 0.377562 8
1.2311 -2.89987 0.163288 12
1.164 -2.74512 -0.051441 9
1.83092 -4.30067 -0.735661 8
1.30603 -3.06398 -0.759746 8
2.12019 -4.9568 1.43328 2
1.20756 -2.85158 0.375432 11
1.22557 -2.89951 0.163157 12
1.15726 -2.74254 -0.0513537 9
1.82341 -4.30386 -0.735661 4
1.29835 -3.0593 -0.758062 8
2.09225 -4.96079 1.43134 2
2.78731 -6.63676 1.39118 45
1.19453 -2.86244 0.376041 8
1.20459 -2.89207 0.162372 12
1.15011 -2.76451 -0.0516591 9
1.18532 -2.84879 -0.266382 3
1.80372 -4.32018 -0.736835 4
1.28326 -3.0683 -0.758623 4
2.08078 -4.95776 1.4294 2
2.76888 -6.62852 1.38832 42
1.18857 -2.86223 0.375737 11
1.2005 -2.89647 0.162503 11
1.14528 -2.76651 -0.0516591 12
1.18226 -2.85546 -0.266817 2
0.501364 -2.27005 -0.444263 3
1.79712 -4.3256 -0.737227 4
1.2779 -3.07054 -0.758623 4
2.0493 -4.95779 1.42617 2
2.73133 -6.63612 1.38689 38
0.487415 -2.25163 0.198497 9
1.17307 -2.86862 0.375737 9
1.18387 -2.90061 0.162372 12
1.13409 -2.78192 -0.0518336 21
0.489977 -2.27309 -0.280814 8
1.1569 -2.83626 -0.264425 2
0.490104 -2.27752 -0.445215 3
1.77914 -4.34637 -0.739184 4
1.26127 -3.07741 -0.758623 8
2.03696 -4.95242 1.42359 2
2.72068 -6.64314 1.38737 30
0.484006 -2.25492 0.198715 8
1.1695 -2.87275 0.376041 8
0.484309 -2.25826 0.0397042 9
1.18119 -2.90709 0.162634 17
1.13111 -2.78853 -0.0519209 12
0.484336 -2.26415 -0.279597 11
0.484597 -2.27118 -0.443787 9
1.77528 -4.35861 -0.74075 4
1.25644 -3.07938 -0.758623 4
2.0055 -4.94701 1.41907 2
0.469783 -2.24581 0.357055 8
2.67874 -6.63635 1.38308 32
0.472587 -2.25734 0.198715 8
1.15259 -2.87424 0.375432 8
0.4693 -2.24355 0.0393988 12
1.16596 -2.91323 0.162634 29
1.12164 -2.80581 -0.0521391 14
0.472474 -2.26666 -0.279597 8
0.472098 -2.26879 -0.442834 4
1.7552 -4.37472 -0.741925 4
1.23574 -3.07462 -0.755816 4
1.99234 -4.93931 1.41583 2
0.467862 -2.25629 0.358616 9
2.66416 -6.63693 1.38212 30
0.465618 -2.24353 0.197408 9
1.15034 -2.88315 0.376345 4
0.463981 -2.23955 0.0393115 9
1.16273 -2.9199 0.162896 29
0.467572 -2.25893 -0.119461 4
1.11675 -2.80777 -0.0521391 12
0.468517 -2.26748 -0.279597 8
0.467149 -2.26481 -0.441882 4
1.74848 -4.38007 -0.742316 8
1.22946 -3.07452 -0.755254 8
1.96559 -4.95002 1.41583 3
0.456134 -2.26121 0.359006 8
2.62033 -6.62797 1.37736 32
0.453473 -2.24601 0.197408 9
1.13564 -2.89164 0.376649 4
0.453234 -2.24685 0.0393988 8
1.14874 -2.9308 0.163157 24
0.45623 -2.2638 -0.119592 8
1.10703 -2.82773 -0.0524008 12
0.453805 -2.25781 -0.278076 4
0.453444 -2.26008 -0.440453 3
1.72553 -4.38916 -0.742316 8
1.20923 -3.07206 -0.753008 11
1.95427 -4.9467 1.4139 3
0.450167 -2.24982 0.357055 8
2.60786 -6.63025 1.37688 33
0.448091 -2.23947 0.196754 9
1.13472 -2.90266 0.377866 8
0.448335 -2.24274 0.0393115 9
1.14504 -2.93492 0.163288 24
0.449841 -2.25235 -0.118936 4
1.103 -2.83198 -0.0524445 8
0.450741 -2.26096 -0.27838 4
0.450453 -2.26568 -0.441406 3
1.71696 -4.38987 -0.741925 8
1.20172 -3.06716 -0.751324 9
1.92482 -4.94528 1.41066 2
0.439321 -2.25699 0.357836 4
2.56716 -6.62506 1.37307 32
0.437225 -2.24416 0.196972 8
1.12398 -2.92014 0.379388 8
0.436978 -2.24498 0.0393115 4
1.12697 -2.93389 0.162896 18
0.437567 -2.25222 -0.118804 8
1.08416 -2.82587 -0.0522263 8
0.437955 -2.25842 -0.277771 4
0.43898 -2.26793 -0.441406 4
1.69395 -4.3988 -0.741925 8
1.18389 -3.06886 -0.7502 11
1.91619 -4.94863 1.41066 3
0.433983 -2.25048 0.356665 4
2.55179 -6.62311 1.37164 32
0.432367 -2.24003 0.196536 4
0.432195 -2.24336 0.0392679 8
1.129 -2.9545 0.163942 15
0.433165 -2.25053 -0.118673 8
1.08191 -2.83476 -0.0523572 11
0.434946 -2.26405 -0.27838 4
0.432257 -2.25423 -0.438549 4
1.68716 -4.40405 -0.742316 9
1.17415 -3.05956 -0.747393 9
1.8868 -4.95216 1.40873 3
0.42316 -2.26008 0.357836 4
2.51533 -6.63179 1.37068 32
0.421612 -2.24968 0.19719 8
0.419985 -2.24313 0.0392243 9
0.421375 -2.25277 -0.118673 4
1.06391 -2.83355 -0.0522263 12
0.420949 -2.26136 -0.439501 4
1.66058 -4.40359 -0.74075 9
0.422011 -2.27585 -0.610415 4
1.15844 -3.06814 -0.747954 3
1.87558 -4.94867 1.40679 2
0.418711 -2.25589 0.357055 3
2.50028 -6.62699 1.36878 32
0.416779 -2.24551 0.196754 8
2.49008 -6.62437 0.863434 32
0.417432 -2.25124 0.0393552 12
0.41699 -2.25104 -0.118542 4
1.05984 -2.83774 -0.05227 12
1.86717 -4.98641 -0.461874 52
0.415228 -2.25244 -0.437596 4
1.62159 -4.32329 -0.726656 3
0.416734 -2.26945 -0.608475 4
1.16136 -3.09047 -0.753008 4
1.84712 -4.94906 1.4042 2
0.40602 -2.25319 0.356275 3
2.46243 -6.62806 1.3664 32
0.403646 -2.23779 0.195883 11
2.4476 -6.61637 0.860696 33
0.404707 -2.24594 0.0392243 14
0.404317 -2.24828 -0.118279 9
1.04546 -2.84307 -0.05227 9
1.83672 -4.98444 -0.460786 45
0.405116 -2.26176 -0.439025 4
1.60407 -4.34561 -0.729005 9
0.406933 -2.28104 -0.611062 4
1.14941 -3.10793 -0.755816 4
1.83764 -4.95001 1.40356 3
0.400358 -2.24417 0.354714 4
2.44799 -6.62817 1.36544 32
0.398431 -2.23113 0.195229 11
2.43433 -6.61598 0.860087 35
0.399957 -2.24425 0.0391806 12
0.397776 -2.23423 -0.117492 11
1.04567 -2.85897 -0.0525317 2
1.82629 -4.98296 -0.460352 45
0.401167 -2.26247 -0.439025 8
1.60331 -4.36694 -0.732137 11
0.402553 -2.28182 -0.611062 4
1.1482 -3.12136 -0.758623 4
1.81 -4.95761 1.40291 3
0.387372 -2.24143 0.353933 8
2.40654 -6.62245 1.36163 32
0.387623 -2.24062 0.195883 11
2.39343 -6.61506 0.858262 35
0.389473 -2.2537 0.0393115 11
0.387765 -2.24613 -0.118017 12
1.03104 -2.86694 -0.0525754 2
0.390576 -2.27428 -0.44093 4
1.59725 -4.4217 -0.739967 12
0.391005 -2.28628 -0.611708 4
1.13296 -3.1321 -0.759746 8
1.80052 -4.95849 1.40226 3
0.383851 -2.24204 0.353933 9
2.3933 -6.62203 1.36068 32
0.38413 -2.24375 0.1961 11
2.37966 -6.60947 0.857045 35
0.385959 -2.25684 0.0393552 14
1.79417 -4.99761 0.276465 8
0.38552 -2.25664 -0.118542 11
1.03111 -2.88284 -0.0528372 2
0.387426 -2.2798 -0.441882 4
1.59121 -4.42913 -0.74075 12
0.387416 -2.28934 -0.612355 4
1.12638 -3.1293 -0.758623 8
1.77214 -4.95845 1.39968 3
0.372911 -2.24889 0.354714 8
2.35646 -6.62481 1.35877 32
0.373581 -2.25058 0.196536 8
2.34088 -6.61015 0.855524 33
0.374938 -2.26124 0.0393988 4
1.75964 -4.98341 0.275156 3
0.374511 -2.26356 -0.118804 11
1.02984 -2.92573 -0.0535353 2
1.68389 -4.7748 -0.439041 12
0.376279 -2.28415 -0.442358 4
1.57377 -4.45369 -0.743491 12
0.376602 -2.29604 -0.613648 4
1.10835 -3.13056 -0.7575 4
1.76348 -4.96154 1.39968 3
0.370977 -2.26172 0.356665 8
2.33964 -6.61776 1.35639 33
0.369653 -2.25123 0.196536 8
2.32603 -6.60486 0.854307 33
0.371804 -2.26935 0.0395297 11
1.74845 -4.9794 0.274764 4
0.370559 -2.26421 -0.118804 9
1.03386 -2.95346 -0.0540152 3
1.74663 -4.97978 -0.457742 45
0.373078 -2.28965 -0.44331 4
1.57749 -4.48903 -0.748972 11
0.371039 -2.2896 -0.611708 4
1.10613 -3.14168 -0.759746 4
1.73422 -4.96417 1.39774 3
0.358734 -2.2637 0.356665 4
2.30253 -6.62296 1.35496 33
0.357856 -2.25565 0.196754 9
2.28782 -6.61032 0.853394 33
0.359138 -2.26633 0.0394424 9
1.71659 -4.97464 0.273979 9
0.361032 -2.28091 -0.119592 8
1.02194 -2.97082 -0.0542333 3
1.71727 -4.97944 -0.456872 45
0.361065 -2.29406 -0.443787 4
1.54833 -4.4835 -0.746623 8
0.35979 -2.29629 -0.613002 4
1.08752 -3.14301 -0.758623 4
1.72078 -4.9535 1.39386 3
0.356687 -2.27652 0.358616 4
2.28615 -6.61306 1.3521 33
0.353534 -2.25381 0.196536 9
2.27305 -6.60492 0.852177 33
0.355567 -2.26942 0.0394861 8
1.70872 -4.97999 0.27411 9
0.357435 -2.28401 -0.119723 4
1.70696 -4.97772 -0.456437 45
0.356685 -2.29226 -0.44331 4
1.5405 -4.4862 -0.746623 8
0.355782 -2.29691 -0.613002 4
1.08442 -3.15181 -0.760308 4
1.69255 -4.95301 1.39128 4
0.344791 -2.27585 0.358226 4
2.25027 -6.61758 1.35067 35
0.343982 -2.26789 0.197626 8
2.23719 -6.60929 0.851264 33
0.342211 -2.25884 0.0392679 8
1.67949 -4.97675 0.273455 8
0.345471 -2.28585 -0.119723 8
1.67768 -4.97715 -0.455568 45
0.34326 -2.2819 -0.44093 8
1.51381 -4.48224 -0.744666 8
0.34344 -2.29391 -0.611708 4
1.07002 -3.16188 -0.761431 8
1.68391 -4.95596 1.39128 4
0.339362 -2.26668 0.356665 3
2.23363 -6.61026 1.34828 33
0.340023 -2.26848 0.197626 8
2.22328 -6.60613 0.850352 33
0.338242 -2.26196 0.0393115 9
1.67159 -4.98204 0.273586 9
0.340012 -2.27657 -0.119198 8
0.341213 -2.2901 -0.279597 4
1.66661 -4.97299 -0.454915 45
0.339277 -2.2825 -0.44093 8
1.50914 -4.49424 -0.746232 9
0.339387 -2.29695 -0.612355 8
1.06138 -3.15451 -0.759185 4
1.6632 -4.98332 1.39645 4
0.328497 -2.27826 0.358226 4
2.19744 -6.61721 1.34733 35
0.328099 -2.27275 0.197844 4
2.18594 -6.61335 0.849743 33
0.327105 -2.26865 0.0393988 9
1.64383 -4.98864 0.273455 9
0.328441 -2.28079 -0.11933 9
1.63547 -4.96914 -0.0907089 45
0.328466 -2.28945 -0.279293 4
1.63586 -4.96746 -0.45361 45
0.327615 -2.28916 -0.441882 8
1.48481 -4.49974 -0.74584 8
0.325999 -2.28913 -0.609768 4
1.0466 -3.16714 -0.760869 8
1.6484 -4.96788 1.39128 4
2.18357 -6.61404 1.3459 35
0.322381 -2.26099 0.196754 4
2.17167 -6.60499 0.848222 33
0.32139 -2.25684 0.0391806 9
1.63287 -4.98173 0.272932 9
0.32341 -2.27394 -0.118936 9
1.62368 -4.96249 -0.0905344 44
0.325564 -2.29488 -0.279901 4
1.62641 -4.96794 -0.453393 45
0.323277 -2.2873 -0.441406 8
1.47696 -4.50232 -0.74584 8
0.322338 -2.29209 -0.610415 4
1.04163 -3.16878 -0.760869 8
1.64502 -5.04272 1.41002 8
2.14703 -6.61568 1.344 35
0.311609 -2.26753 0.19719 4
2.13552 -6.61155 0.847613 35
0.31064 -2.26339 0.0392679 9
1.60523 -4.98546 0.27267 9
0.311499 -2.27561 -0.118936 8
1.5947 -4.95875 -0.0903162 44
0.312207 -2.28672 -0.278684 4
1.59885 -4.97165 -0.452958 45
0.310707 -2.28161 -0.439977 8
1.45336 -4.50999 -0.74584 8
0.31041 -2.2913 -0.609768 4
1.02577 -3.17651 -0.761431 4
2.13055 -6.60811 1.34161 33
0.306317 -2.2582 0.196318 8
2.11942 -6.6011 0.845788 33
0.305627 -2.25903 0.0391806 8
1.59348 -4.97874 0.272147 9
0.307194 -2.27367 -0.118804 8
1.58604 -4.96153 -0.0903162 45
0.308545 -2.28972 -0.278988 4
1.58865 -4.96969 -0.452523 45
0.308026 -2.29188 -0.441882 9
1.44322 -4.50547 -0.744666 8
0.306647 -2.29668 -0.611062 4
1.02172 -3.18293 -0.762554 4
2.09444 -6.6145 1.34066 33
0.295055 -2.26723 0.196972 8
2.07994 -6.60064 0.844267 33
0.293474 -2.25812 0.039137 9
1.56651 -4.98729 0.272147 8
0.294966 -2.27277 -0.118673 9
1.55768 -4.96527 -0.0902289 45
0.296785 -2.29628 -0.279597 3
1.55961 -4.96844 -0.451653 45
0.295621 -2.29351 -0.441882 3
1.42035 -4.51532 -0.745057 4
0.29584 -2.30783 -0.613648 8
1.00081 -3.1768 -0.759746 4
2.08886 -6.59711 1.84233 1
2.08067 -6.61112 1.33923 35
0.290466 -2.2628 0.196536 11
2.06882 -6.60153 0.843962 33
0.292379 -2.28095 0.0395297 9
1.55569 -4.98022 0.271624 9
0.292576 -2.28567 -0.11933 9
1.54752 -4.96321 -0.0901417 45
0.291927 -2.28689 -0.27838 3
1.54796 -4.96165 -0.450784 45
0.292234 -2.29889 -0.442834 9
1.41543 -4.52722 -0.746623 4
0.290606 -2.29876 -0.611062 68
0.998745 -3.18766 -0.761993 4
2.03459 -6.54074 1.82359 1
2.04283 -6.6075 1.33637 33
0.279615 -2.26919 0.196972 8
2.02911 -6.59567 0.841833 35
0.279919 -2.27495 0.0393988 9
1.52959 -4.98829 0.271624 9
0.280907 -2.28965 -0.119461 3
1.51577 -4.94947 -0.089749 45
0.279649 -2.28593 -0.278076 52
1.5205 -4.96492 -0.450349 45
0.281186 -2.30521 -0.443787 59
1.39316 -4.53928 -0.747406 4
0.279256 -2.3026 -0.611708 58
0.98276 -3.19517 -0.762554 4
2.02461 -6.5489 1.82488 1
2.02797 -6.60438 1.33494 33
0.275356 -2.2672 0.196754 8
2.01541 -6.59208 0.84092 36
0.275551 -2.27549 0.0393988 47
1.51943 -4.98618 0.271362 9
0.277805 -2.29757 -0.119855 55
1.50713 -4.95211 -0.089749 45
0.276841 -2.29627 -0.279293 52
1.51111 -4.96518 -0.450131 45
0.275996 -2.29595 -0.441882 50
1.38596 -4.54407 -0.747798 8
0.27512 -2.30553 -0.612355 59
0.975036 -3.1899 -0.760869 4
1.97931 -6.52741 1.81583 1
1.99194 -6.61021 1.33399 33
0.2628 -2.26619 0.196536 8
1.97972 -6.60289 0.84092 35
0.264777 -2.28683 0.0395733 53
1.49099 -4.98955 0.2711 9
0.265771 -2.29899 -0.119855 53
1.47673 -4.94822 -0.0895308 45
0.264413 -2.29773 -0.279293 52
1.48437 -4.97064 -0.449914 47
0.26357 -2.29741 -0.441882 52
1.36285 -4.55363 -0.748189 8
0.262772 -2.30454 -0.611708 59
0.959168 -3.19979 -0.761993 8
1.96302 -6.51467 1.81131 1
1.97617 -6.59957 1.33113 35
0.258563 -2.26417 0.196318 8
1.9665 -6.59648 0.839703 36
0.261067 -2.28977 0.039617 55
1.47887 -4.97753 0.270315 9
0.261477 -2.29697 -0.119723 53
1.47094 -4.96037 -0.0897054 42
0.260803 -2.29814 -0.279293 53
1.47285 -4.96368 -0.449044 47
0.259286 -2.29543 -0.441406 52
1.36267 -4.58203 -0.752496 4
0.258749 -2.305 -0.611708 59
0.954141 -3.2013 -0.761993 4
1.94101 -6.56157 1.82165 1
1.93997 -6.60007 1.32922 35
0.246563 -2.26049 0.195883 9
1.92984 -6.59955 0.83879 36
0.249474 -2.29106 0.039617 55
1.45139 -4.98041 0.270054 8
0.249714 -2.30079 -0.119855 55
1.436 -4.93416 -0.0890945 8
0.24797 -2.29208 -0.27838 53
1.44545 -4.96654 -0.448609 47
0.247403 -2.29427 -0.44093 52
1.33797 -4.58673 -0.752104 8
0.246568 -2.30147 -0.610415 59
0.93874 -3.21092 -0.763116 4
1.92478 -6.54873 1.81713 1
1.92522 -6.59672 1.32779 33
0.24156 -2.25101 0.195011 9
1.91485 -6.59099 0.837269 36
0.24481 -2.28905 0.0395733 55
1.43921 -4.97095 0.269399 8
0.245435 -2.29874 -0.119723 55
1.43227 -4.95346 -0.0893999 26
0.24397 -2.29251 -0.27838 53
1.43469 -4.96188 -0.447957 47
0.243398 -2.2947 -0.44093 52
1.33893 -4.61988 -0.757194 4
0.242149 -2.30194 -0.610415 59
0.9345 -3.21723 -0.764239 4
0.570668 -5.64336 1.29937 11
1.90004 -6.59617 1.82747 1
0.570684 -5.63379 0.889321 12
1.88727 -6.59491 1.32541 35
0.228876 -2.24733 0.194575 9
1.87848 -6.59887 0.836965 36
0.232319 -2.28533 0.0394861 53
1.41025 -4.97146 0.269007 8
0.232894 -2.29503 -0.119461 55
1.40066 -4.94431 -0.0890945 45
0.231563 -2.29379 -0.27838 52
1.40733 -4.96453 -0.447522 47
0.231223 -2.29843 -0.441406 50
1.31337 -4.62208 -0.756411 8
0.230093 -2.30318 -0.610415 59
0.913728 -3.21053 -0.761431 4
0.563247 -5.65879 1.30274 11
1.88053 -6.57162 1.81971 1
0.564766 -5.66416 0.894004 12
1.87509 -6.59584 1.32493 36
0.225446 -2.25269 0.195011 9
1.86676 -6.59704 0.836356 35
0.22833 -2.28573 0.0394861 55
1.40311 -4.97607 0.269138 8
0.228888 -2.29543 -0.119461 55
1.39271 -4.94915 -0.0891382 45
0.227715 -2.29168 -0.278076 53
1.39663 -4.95979 -0.446869 47
0.226492 -2.2915 -0.439977 52
1.29722 -4.59585 -0.751713 4
0.226073 -2.30358 -0.610415 58
0.910017 -3.21665 -0.762554 4
0.534978 -5.67622 1.30611 11
1.83351 -6.53223 1.80614 1
1.84168 -6.60524 1.32493 36
0.213106 -2.24388 0.194139 9
1.83086 -6.60194 0.835748 35
0.216758 -2.28686 0.0394861 56
1.37304 -4.96891 0.268353 9
0.217501 -2.29905 -0.119592 56
1.36497 -4.9465 -0.0889636 45
0.215251 -2.2879 -0.277467 53
1.37085 -4.9644 -0.446652 47
0.214663 -2.29017 -0.439501 52
1.27644 -4.61448 -0.75367 8
0.213744 -2.29748 -0.608475 61
0.894471 -3.22606 -0.763677 4
1.82275 -6.53775 1.80679 1
1.82686 -6.59662 1.32255 35
0.209878 -2.25169 0.194793 11
1.81735 -6.59795 0.834835 35
0.213226 -2.29221 0.0395733 58
1.3637 -4.96889 0.268222 9
0.213029 -2.29445 -0.11933 56
1.35832 -4.95611 -0.0890945 45
0.211711 -2.29322 -0.278076 53
1.3602 -4.95958 -0.446 47
0.210666 -2.29054 -0.439501 52
1.2651 -4.6048 -0.751713 8
0.21017 -2.30266 -0.609768 58
0.886239 -3.21823 -0.761431 4
1.79934 -6.5868 1.81777 1
1.79037 -6.59899 1.32112 36
0.198518 -2.25772 0.195229 11
1.78019 -6.59779 0.833618 33
0.201656 -2.29828 0.0396606 58
1.33506 -4.96633 0.267698 9
0.201044 -2.30054 -0.119592 56
1.33105 -4.95833 -0.0890073 45
0.199701 -2.29429 -0.278076 53
1.3327 -4.96446 -0.445782 47
0.198459 -2.28917 -0.439025 52
1.24548 -4.62805 -0.754454 8
0.197494 -2.29651 -0.607829 59
0.871289 -3.22988 -0.763116 4
1.77643 -6.54798 1.80614 1
1.77641 -6.59768 1.32017 35
0.193941 -2.25062 0.194575 11
1.76545 -6.58891 0.832097 32
0.196606 -2.29119 0.0395297 58
1.32769 -4.97347 0.26796 9
0.196817 -2.2984 -0.119461 58
1.32046 -4.9534 -0.0888764 45
0.195277 -2.28969 -0.277467 55
1.32274 -4.96197 -0.445347 47
0.194463 -2.28951 -0.439025 52
1.23036 -4.60398 -0.750147 4
0.193486 -2.3017 -0.609122 59
0.865651 -3.23139 -0.763116 4
0.368107 -4.59771 1.05511 8
1.75341 -6.60418 1.81907 14
1.73871 -6.59503 1.31778 33
0.182159 -2.2566 0.195011 11
1.72725 -6.58877 0.83088 29
0.185005 -2.29717 0.039617 59
1.29886 -4.97334 0.267568 9
0.184978 -2.30189 -0.119592 58
1.29237 -4.95563 -0.0887891 45
0.182886 -2.29072 -0.277467 55
1.29422 -4.95919 -0.444477 42
0.18188 -2.28808 -0.438549 53
1.20938 -4.6223 -0.752104 4
0.181055 -2.29786 -0.607829 59
0.364872 -4.64929 1.0669 1
1.72459 -6.54185 1.80097 1
1.72595 -6.5933 1.31683 35
0.178609 -2.26188 0.195447 11
0.180606 -2.2925 0.0395297 61
1.28601 -4.95604 0.266521 9
0.180184 -2.29225 -0.119067 59
1.27995 -4.94337 -0.0885273 9
0.179288 -2.291 -0.277467 55
1.27553 -4.92287 -0.440998 2
0.178264 -2.29329 -0.439501 52
1.19508 -4.60051 -0.748189 4
0.176493 -2.29095 -0.605889 61
0.339815 -4.64141 1.06466 3
0.166249 -2.25033 0.194357 11
0.168818 -2.2909 0.0394861 67
1.24463 -4.90223 0.26325 2
0.168761 -2.29563 -0.119198 61
1.24813 -4.92313 -0.0880474 2
0.167469 -2.29438 -0.277771 56
1.24322 -4.90031 -0.438389 2
0.166478 -2.29172 -0.439025 52
1.16914 -4.59953 -0.747015 4
0.165067 -2.29422 -0.606535 59
0.162854 -2.25807 0.195011 11
0.164997 -2.29368 0.0395297 68
1.24097 -4.92376 0.264297 2
0.164754 -2.29592 -0.119198 62
0.163114 -2.28972 -0.277163 56
1.24077 -4.92661 -0.440563 2
0.162306 -2.28956 -0.438549 52
1.1605 -4.59917 -0.746623 4
0.161062 -2.29451 -0.606535 61
1.2177 -4.86435 1.33247 1
1.22403 -4.92566 0.978924 2
0.150962 -2.26389 0.195447 11
0.152092 -2.28706 0.0393988 71
0.152002 -2.29179 -0.118936 64
0.150885 -2.29305 -0.277467 56
0.149757 -2.28795 -0.438073 52
1.13463 -4.59799 -0.745449 3
0.148182 -2.28812 -0.604595 61
0.367754 -5.71147 1.31117 1
1.22909 -4.94614 1.35444 1
1.21248 -4.91588 0.976541 2
0.147011 -2.26415 0.195447 11
0.14826 -2.28981 0.0394424 74
0.148002 -2.29205 -0.118936 65
0.146968 -2.28833 -0.276859 56
0.146227 -2.29556 -0.439501 52
0.144489 -2.29319 -0.605889 61
0.336985 -5.69872 1.3078 1
1.19716 -4.92414 1.34669 2
0.135255 -2.25989 0.195011 12
0.136816 -2.29303 0.0394861 79
0.135853 -2.29031 -0.118804 62
0.135273 -2.29402 -0.277467 58
0.134606 -2.29627 -0.439501 52
0.132742 -2.29148 -0.605242 61
0.327316 -5.70417 1.30892 1
0.131167 -2.25764 0.194793 12
0.132556 -2.29578 0.0395297 80
0.131855 -2.29054 -0.118804 62
0.131269 -2.29425 -0.277467 58
0.130323 -2.2916 -0.438549 52
0.128209 -2.28932 -0.604595 61
0.296952 -5.71559 1.31117 1
0.118821 -2.25583 0.194575 12
0.120404 -2.29395 0.0394861 80
0.11986 -2.2912 -0.118804 64
0.118728 -2.29245 -0.277163 58
0.117797 -2.28982 -0.438073 52
0.116462 -2.29479 -0.605889 59
0.288827 -5.73308 1.3151 3
0.290253 -5.74171 0.902979 12
0.115009 -2.25852 0.194793 12
0.116275 -2.29166 0.0394424 85
0.115861 -2.2914 -0.118804 65
0.115003 -2.29016 -0.276859 58
0.11356 -2.28512 -0.43712 52
0.112107 -2.28775 -0.603949 61
0.26099 -5.78318 1.32633 20
0.26352 -5.81716 0.914686 20
0.103351 -2.2541 0.194357 12
0.104674 -2.29222 0.0394424 85
0.103527 -2.2845 -0.118411 67
0.103011 -2.29073 -0.276859 58
0.102316 -2.29302 -0.438549 52
0.100526 -2.28829 -0.603949 61
0.242707 -5.59379 1.28253 15
0.243643 -5.59311 0.879175 27
0.0996328 -2.25925 0.194793 14
0.100273 -2.29242 0.0394424 90
0.0997542 -2.28966 -0.118673 77
0.496132 -2.24515 -0.0395297 11
0.0990124 -2.2909 -0.276859 58
0.49975 -2.26141 -0.199188 8
0.098107 -2.28829 -0.437596 53
0.500797 -2.25883 -0.36137 4
0.0961324 -2.28848 -0.603949 62
0.21152 -5.57068 1.27691 26
0.212537 -5.57214 0.875663 29
0.087313 -2.25727 0.194575 14
0.0881743 -2.29041 0.0393988 89
0.4847 -2.24737 0.118672 8
0.0879524 -2.29514 -0.118936 80
0.482915 -2.24291 -0.0394424 9
0.0866161 -2.29141 -0.276859 58
0.485783 -2.25427 -0.198319 8
0.0856344 -2.28634 -0.43712 52
0.487909 -2.2566 -0.360587 8
0.084236 -2.29136 -0.604595 59
0.487494 -2.24549 -0.521659 4
0.191682 -5.26425 1.20616 1
0.204591 -5.59467 0.879175 18
0.0835539 -2.2624 0.195011 14
0.485067 -2.25861 0.278988 8
0.0842669 -2.29306 0.0394424 90
0.480114 -2.24325 0.11841 9
0.0838567 -2.2928 -0.118804 80
0.477946 -2.23887 -0.0393552 9
0.0827516 -2.2841 -0.275946 58
0.480272 -2.24781 -0.197666 11
0.0816438 -2.28648 -0.43712 52
0.482402 -2.25021 -0.359413 9
0.0800706 -2.28668 -0.603302 62
0.485002 -2.25102 -0.522782 9
0.166975 -5.35771 1.2275 1
0.177672 -5.67218 0.891272 26
0.0720241 -2.2603 0.194793 14
0.469641 -2.24413 0.276859 9
0.0724267 -2.28596 0.0393115 90
0.469906 -2.25306 0.118803 11
0.0723279 -2.29569 -0.118936 85
0.467637 -2.24615 -0.0394424 8
0.070791 -2.2845 -0.275946 59
0.469915 -2.25508 -0.198101 8
0.0701436 -2.28932 -0.437596 52
0.471124 -2.25512 -0.359804 3
0.068425 -2.28464 -0.602656 59
0.472198 -2.24876 -0.521659 4
0.168641 -5.7021 0.895955 35
0.0681525 -2.26291 0.195011 14
0.466742 -2.2498 0.277467 8
0.0685101 -2.28858 0.0393552 90
0.464442 -2.24655 0.11841 9
0.0683938 -2.29831 -0.119067 85
0.462185 -2.23962 -0.0393115 9
0.0669457 -2.28958 -0.276554 58
0.463943 -2.24615 -0.197231 9
0.0659397 -2.28208 -0.436168 52
0.466175 -2.2511 -0.359021 3
0.0644374 -2.28476 -0.602656 62
0.466768 -2.24243 -0.519974 3
0.138485 -5.69057 0.894004 32
0.0561822 -2.25826 0.194575 14
0.454955 -2.25222 0.277467 9
0.0565263 -2.28891 0.0393552 90
0.452673 -2.24895 0.11841 8
0.0558393 -2.29365 -0.118804 90
0.449955 -2.23956 -0.0392679 9
0.0548986 -2.28742 -0.27625 59
0.452775 -2.25351 -0.197666 9
0.054103 -2.2873 -0.43712 53
0.455368 -2.25835 -0.359804 3
0.0524197 -2.28265 -0.602009 62
0.455998 -2.24962 -0.521097 3
0.127126 -5.67071 1.29937 17
0.128112 -5.67105 0.890882 24
0.0523528 -2.26333 0.195011 15
0.451024 -2.25301 0.277467 8
0.0521318 -2.28902 0.0393552 90
0.448253 -2.24729 0.118279 8
0.0518361 -2.29375 -0.118804 90
0.446538 -2.24279 -0.0393115 8
0.0509599 -2.29 -0.276554 59
0.447367 -2.24697 -0.197014 8
0.0499541 -2.28003 -0.435692 53
0.448493 -2.24462 -0.357455 3
0.0480865 -2.28516 -0.602656 64
0.450617 -2.24325 -0.519413 3
0.0958714 -5.63722 1.29151 14
0.0970503 -5.64944 0.88737 15
0.0400637 -2.26109 0.194793 15
0.436911 -2.24567 0.27625 4
0.0401882 -2.29176 0.0393988 90
0.436568 -2.25213 0.11841 8
0.0397836 -2.29149 -0.118673 90
0.432957 -2.23782 -0.0391806 9
0.0385289 -2.28776 -0.27625 58
0.435595 -2.24928 -0.197014 8
0.0376562 -2.28272 -0.436168 53
0.436258 -2.24451 -0.357064 3
0.0360475 -2.28055 -0.601362 61
0.439889 -2.25282 -0.521097 4
0.0860916 -5.57646 1.27747 15
0.0875693 -5.61008 0.881126 30
0.0361938 -2.26614 0.195229 17
0.433858 -2.24879 0.276554 4
0.0361123 -2.28682 0.0393115 90
0.431124 -2.24301 0.117887 9
0.0357841 -2.29156 -0.118673 90
0.428575 -2.23612 -0.039137 9
0.0348625 -2.28285 -0.275642 56
0.430246 -2.2427 -0.196362 8
0.0337068 -2.28524 -0.436644 53
0.432812 -2.2477 -0.357455 4
0.0321321 -2.28544 -0.602656 61
0.435413 -2.24873 -0.519974 4
0.0570135 -5.58902 1.28028 20
0.0582939 -5.62034 0.882687 30
0.0246978 -2.2638 0.195011 20
0.421153 -2.24616 0.275946 4
0.0245119 -2.28448 0.0392679 91
0.420301 -2.25015 0.118148 11
0.0238095 -2.29421 -0.118804 90
0.417715 -2.24071 -0.0391806 9
0.0229559 -2.28797 -0.27625 61
0.418497 -2.24492 -0.196362 8
0.0221175 -2.28292 -0.436168 52
0.4192 -2.24023 -0.355889 4
0.0205034 -2.27833 -0.600716 61
0.42181 -2.2414 -0.517728 4
0.0473386 -5.59885 1.28253 18
0.0206615 -2.25388 0.194139 21
0.415399 -2.23714 0.274729 4
0.020167 -2.28952 0.0393552 95
0.414995 -2.24351 0.117756 15
0.0197853 -2.29175 -0.118673 90
0.412886 -2.23652 -0.0390934 9
0.0189626 -2.288 -0.27625 62
0.413664 -2.24076 -0.195927 9
0.018133 -2.28296 -0.436168 53
0.0161605 -2.28319 -0.602009 64
0.418801 -2.24693 -0.518851 4
0.0170794 -5.61121 1.28534 15
0.00846657 -2.25396 0.194139 23
0.404179 -2.24423 0.275337 4
0.0081789 -2.28959 0.0393552 95
0.402851 -2.24573 0.117756 15
0.00779248 -2.29432 -0.118804 90
0.399442 -2.23135 -0.0389625 11
0.00658872 -2.29055 -0.276554 64
0.404148 -2.25514 -0.197014 9
0.00578552 -2.28548 -0.436644 53
0.00420552 -2.28325 -0.602009 64
0.406199 -2.24676 -0.51829 4
0.00830401 -5.6429 1.29264 15
0.00931111 -5.66755 0.890101 30
0.00453265 -2.25397 0.194139 23
0.400654 -2.24486 0.275337 8
0.00418279 -2.28961 0.0393552 91
0.399323 -2.24636 0.117756 15
0.0037829 -2.28934 -0.118542 90
0.398195 -2.2468 -0.0392243 11
0.00298726 -2.2856 -0.275946 61
0.398891 -2.24849 -0.196362 11
0.00179575 -2.28058 -0.435692 53
0.00021924 -2.28566 -0.602656 61
0.405278 -2.26178 -0.521659 4
-0.0204304 -5.44067 1.24603 1
-0.02044 -5.68727 0.893223 32
-0.00686661 -2.25148 0.193922 23
0.387181 -2.23715 0.27412 9
-0.00741554 -2.2921 0.0393988 96
0.389702 -2.26071 0.11841 14
-0.00819357 -2.28683 -0.118411 90
0.388105 -2.25618 -0.0393552 12
-0.00898009 -2.28558 -0.275946 64
0.389676 -2.26527 -0.197666 11
-0.00977125 -2.28546 -0.436644 53
-0.0112955 -2.27598 -0.600069 61
0.392585 -2.25907 -0.520536 4
-0.0314415 -5.70372 1.30667 23
-0.030504 -5.71192 0.897125 35
-0.0108096 -2.25395 0.194139 24
0.385396 -2.25005 0.275642 9
-0.011816 -2.29208 0.0393988 97
0.384056 -2.25155 0.117887 12
-0.01217 -2.28431 -0.118279 90
0.384166 -2.25685 -0.0393552 9
-0.0129692 -2.28556 -0.275946 62
0.385722 -2.26595 -0.197666 11
-0.0137438 -2.28299 -0.436168 52
-0.0157195 -2.2832 -0.602009 62
0.390314 -2.26935 -0.522782 3
-0.0622466 -5.69859 1.30555 21
-0.0612178 -5.69439 0.894394 29
-0.0229506 -2.24888 0.193704 27
0.371984 -2.24476 0.274729 3
-0.0238446 -2.29448 0.0394424 97
0.373926 -2.26591 0.118541 3
-0.0241583 -2.28671 -0.118411 90
0.374007 -2.27122 -0.0395733 4
-0.025364 -2.28794 -0.27625 65
0.375903 -2.28022 -0.198754 8
-0.0260957 -2.28288 -0.436168 53
-0.0276432 -2.28067 -0.601362 64
0.378435 -2.27383 -0.523343 3
-0.068094 -5.4549 1.2494 1
-0.0708417 -5.66958 0.890492 24
-0.0270007 -2.2588 0.194575 26
0.369692 -2.2552 0.275946 3
-0.0277855 -2.28944 0.0393552 98
0.370378 -2.26902 0.118672 9
-0.0281493 -2.28667 -0.118411 90
0.369228 -2.26694 -0.0394861 9
-0.0293572 -2.28789 -0.27625 62
0.371517 -2.27841 -0.198536 9
-0.0300124 -2.27792 -0.435216 53
-0.0316237 -2.28062 -0.601362 64
0.372462 -2.26248 -0.520536 4
-0.0998515 -5.63227 1.29039 14
-0.0987897 -5.62718 0.883858 20
-0.0383454 -2.25365 0.194139 24
0.358272 -2.25704 0.275946 9
-0.0394175 -2.29177 0.0393988 98
0.357309 -2.261 0.118148 8
-0.0401219 -2.28649 -0.118411 90
0.357749 -2.26878 -0.0394861 9
-0.0409827 -2.2902 -0.276554 67
0.358796 -2.27541 -0.198101 8
-0.0416804 -2.28511 -0.436644 53
-0.0433081 -2.28767 -0.603302 64
0.36256 -2.27395 -0.522782 4
-0.109153 -5.6053 1.28421 14
-0.108176 -5.60478 0.880346 17
-0.0423269 -2.25607 0.194357 27
0.356282 -2.26992 0.277467 8
-0.0438173 -2.29169 0.0393988 98
0.354925 -2.27149 0.118672 8
-0.0440628 -2.28392 -0.118279 90
0.352228 -2.25953 -0.0393115 9
-0.0448793 -2.28516 -0.275946 65
0.354825 -2.27603 -0.198101 8
-0.0455675 -2.28012 -0.435692 53
-0.0475445 -2.28034 -0.601362 64
0.357822 -2.26977 -0.521659 4
-0.138561 -5.5681 1.27579 15
-0.138191 -5.59177 0.878395 24
-0.0544093 -2.25083 0.193922 27
0.343242 -2.26691 0.276859 4
-0.0559407 -2.29643 0.0394861 99
0.342253 -2.27091 0.118541 8
-0.0561462 -2.28865 -0.118542 90
0.340752 -2.26634 -0.0393988 9
-0.0573062 -2.28736 -0.27625 65
0.342902 -2.27786 -0.198101 8
-0.0579034 -2.27984 -0.435692 53
-0.0594191 -2.27764 -0.600716 61
0.34405 -2.26204 -0.519413 4
-0.142103 -5.37305 1.23087 1
-0.147892 -5.6261 0.883858 23
-0.0585358 -2.2582 0.194575 27
0.339308 -2.26499 0.276554 3
-0.0598819 -2.29383 0.0394424 99
0.338685 -2.27144 0.118541 8
-0.0600735 -2.28605 -0.118411 90
0.336423 -2.26446 -0.0393552 9
-0.0608991 -2.28727 -0.27625 67
0.337068 -2.26614 -0.197014 9
-0.0618824 -2.27974 -0.435692 53
0.338678 -2.26629 -0.357847 8
-0.0633256 -2.27512 -0.600069 61
0.340497 -2.26258 -0.519413 4
-0.178247 -5.62303 1.28871 15
-0.178759 -5.66968 0.890882 26
-0.0698861 -2.25538 0.194357 29
0.327444 -2.26673 0.276554 4
-0.0714911 -2.29349 0.0394424 100
0.326427 -2.27071 0.11841 8
-0.0717231 -2.28821 -0.118542 90
0.325677 -2.27108 -0.0394424 11
-0.0728743 -2.28692 -0.27625 64
0.325594 -2.26782 -0.197014 9
-0.0734203 -2.27939 -0.435692 53
0.328237 -2.2778 -0.359413 9
-0.0747592 -2.27236 -0.599422 61
0.329 -2.26674 -0.519974 4
-0.188957 -5.67874 1.30162 20
-0.189896 -5.70638 0.896735 35
-0.0737394 -2.25277 0.194139 29
0.323843 -2.26976 0.276859 4
-0.0755777 -2.29586 0.0394861 99
0.321039 -2.26139 0.117887 9
-0.0757167 -2.28809 -0.118542 92
0.320646 -2.26422 -0.0393115 11
-0.076611 -2.27935 -0.275337 65
0.321281 -2.26592 -0.196796 9
-0.0774833 -2.28172 -0.436168 53
0.323202 -2.27104 -0.358238 9
-0.0788102 -2.27464 -0.600069 61
0.326096 -2.27455 -0.521659 4
-0.219868 -5.6825 1.30274 18
-0.219771 -5.7053 0.896735 17
-0.0854378 -2.24986 0.193922 29
0.310926 -2.26405 0.275946 4
-0.0875977 -2.29544 0.0394861 100
0.310223 -2.27046 0.118279 8
-0.087696 -2.28766 -0.118542 90
0.308786 -2.26587 -0.0393115 9
-0.0887403 -2.28388 -0.275946 65
0.310438 -2.27497 -0.197449 9
-0.0893316 -2.27883 -0.435692 53
0.311646 -2.27515 -0.35863 8
-0.0909146 -2.27902 -0.601362 64
0.314182 -2.27622 -0.521659 3
-0.224357 -5.57261 1.27747 12
-0.22613 -5.61609 0.882687 20
-0.0893644 -2.24971 0.193922 29
0.306974 -2.26459 0.275946 8
-0.0915027 -2.29278 0.0394424 100
0.305583 -2.26605 0.118018 8
-0.0914856 -2.28251 -0.118279 90
0.303816 -2.25898 -0.0391806 9
-0.0929306 -2.28868 -0.276554 62
0.306129 -2.27304 -0.197231 9
-0.0934107 -2.28112 -0.436168 53
0.308011 -2.27814 -0.359021 8
-0.0947901 -2.27645 -0.600716 59
0.309541 -2.27194 -0.520536 4
-0.25428 -5.56645 1.27635 15
-0.255984 -5.62469 0.884248 26
-0.101143 -2.24921 0.193922 27
-0.103506 -2.29227 0.0394424 100
0.295017 -2.27752 0.118541 9
-0.103949 -2.28448 -0.118411 92
0.293936 -2.27541 -0.0394424 9
-0.105143 -2.29312 -0.277163 64
0.295448 -2.28701 -0.198319 8
-0.105238 -2.27815 -0.435692 53
0.297694 -2.29196 -0.360979 2
-0.106594 -2.27351 -0.600069 59
0.29732 -2.27112 -0.519974 3
-0.264807 -5.58303 1.28028 15
-0.265566 -5.61931 0.883468 27
0.29611 -2.28316 0.440373 4
-0.105186 -2.25152 0.194139 27
-0.108026 -2.29457 0.0394861 100
0.290398 -2.27308 0.118279 8
-0.107936 -2.28429 -0.118411 90
0.288359 -2.26352 -0.0392243 2
-0.108906 -2.28797 -0.276554 64
0.291456 -2.28752 -0.198319 11
-0.108976 -2.27306 -0.434739 53
0.293375 -2.29003 -0.360587 14
-0.111316 -2.28053 -0.602009 59
0.294941 -2.28371 -0.522782 20
-0.294494 -5.57179 1.27804 17
-0.293747 -5.57587 0.876834 30
0.283535 -2.27981 0.43942 3
-0.117497 -2.25341 0.194357 27
-0.119775 -2.28898 0.0393988 99
0.279328 -2.28453 0.118803 12
-0.120027 -2.28619 -0.118542 90
0.277646 -2.27745 -0.0394424 30
-0.121284 -2.28735 -0.276554 65
0.280702 -2.2989 -0.199188 44
-0.12167 -2.27979 -0.436168 53
0.281686 -2.29398 -0.360979 45
-0.123387 -2.28233 -0.602656 59
0.281668 -2.27802 -0.521097 45
-0.302447 -5.55672 1.27467 17
-0.30358 -5.59512 0.879956 18
0.281074 -2.29248 0.441803 3
-0.121159 -2.24822 0.193922 23
-0.123906 -2.29126 0.0394424 99
0.276652 -2.2924 0.119195 45
-0.124017 -2.28598 -0.118542 90
0.274278 -2.28289 -0.0395297 50
-0.124603 -2.2822 -0.275946 62
0.276992 -2.30186 -0.199406 49
-0.125512 -2.27712 -0.435692 53
0.278587 -2.30182 -0.362153 45
-0.127098 -2.27729 -0.601362 64
0.279891 -2.29296 -0.524467 45
-0.339846 -5.69367 1.30667 23
-0.339795 -5.70931 0.898296 33
0.269467 -2.29387 0.441803 8
-0.132389 -2.2451 0.193704 21
-0.135352 -2.28811 0.0393988 98
0.265228 -2.29878 0.119457 47
-0.135835 -2.2828 -0.118411 90
0.263592 -2.2917 -0.0396606 50
-0.136401 -2.27904 -0.275642 61
0.264646 -2.30081 -0.199188 49
-0.136887 -2.27401 -0.435216 53
0.265953 -2.29834 -0.36137 45
-0.138475 -2.27421 -0.600716 61
0.267594 -2.29198 -0.523905 45
-0.349183 -5.68334 1.30443 20
-0.348395 -5.68653 0.894784 32
0.264776 -2.29195 0.441326 8
-0.137069 -2.25729 0.194793 18
-0.139745 -2.28785 0.0393988 98
0.260928 -2.29676 0.119326 49
-0.139819 -2.28256 -0.118411 90
0.259592 -2.29216 -0.0396606 50
-0.140687 -2.28375 -0.27625 67
0.260915 -2.30374 -0.199406 49
-0.140856 -2.27376 -0.435216 52
0.261942 -2.2988 -0.36137 45
-0.142841 -2.27394 -0.600716 61
0.26331 -2.29002 -0.523343 45
-0.37797 -5.6522 1.29769 15
-0.376848 -5.65006 0.889321 23
0.252772 -2.2933 0.441326 4
-0.149114 -2.25403 0.194575 15
-0.151722 -2.28708 0.0393988 98
0.248498 -2.29814 0.119326 50
-0.151936 -2.28429 -0.118542 90
0.247459 -2.29601 -0.0397042 52
-0.152873 -2.28048 -0.275946 62
0.248032 -2.29765 -0.198754 49
-0.153489 -2.27787 -0.436168 52
0.24963 -2.29769 -0.360979 45
-0.15491 -2.27557 -0.601362 59
0.251186 -2.29383 -0.523905 45
-0.384343 -5.61515 1.28927 14
-0.383359 -5.61497 0.883858 17
0.248499 -2.2913 0.44085 3
-0.153559 -2.26122 0.195229 15
-0.155714 -2.28681 0.0393988 97
0.244618 -2.29604 0.119195 50
-0.155751 -2.28153 -0.118411 90
0.24372 -2.29893 -0.0397479 53
-0.156627 -2.28271 -0.27625 62
0.243754 -2.2956 -0.198536 49
-0.157294 -2.27515 -0.435692 52
0.245619 -2.29812 -0.360979 45
-0.158712 -2.27288 -0.600716 61
0.24705 -2.28938 -0.522782 45
-0.393973 -5.34581 1.2275 1
0.238186 -2.30473 0.443233 9
-0.164636 -2.25545 0.194793 15
0.585071 -5.66962 0.694581 11
-0.167102 -2.2835 0.0393552 97
0.232849 -2.29977 0.119326 50
-0.167879 -2.28317 -0.118542 90
0.231569 -2.29516 -0.0396606 55
-0.168392 -2.27939 -0.275946 62
0.231986 -2.29932 -0.198754 49
-0.16899 -2.27677 -0.436168 52
0.233583 -2.29938 -0.360979 45
-0.170214 -2.27205 -0.600716 59
0.234806 -2.28822 -0.52222 45
-0.421511 -5.58561 1.28309 20
0.590933 -5.65018 1.51083 11
0.233003 -2.29786 0.441803 11
-0.168572 -2.25516 0.194793 15
0.574923 -5.66817 0.694276 12
-0.171675 -2.28567 0.0393988 97
0.228331 -2.29521 0.119064 50
-0.171486 -2.2779 -0.118279 90
0.227563 -2.29556 -0.0396606 55
-0.172559 -2.28156 -0.27625 62
0.227972 -2.29972 -0.198754 50
-0.173151 -2.27892 -0.436644 52
0.228818 -2.29241 -0.359804 47
-0.174389 -2.26931 -0.600069 59
0.231061 -2.29105 -0.522782 45
-0.452711 -5.59539 1.2859 15
0.561075 -5.66051 1.51277 9
0.220728 -2.29661 0.441326 9
-0.180972 -2.25669 0.195011 15
-0.183438 -2.28225 0.0393552 96
0.21567 -2.29393 0.118933 52
-0.183815 -2.28195 -0.118542 90
0.215139 -2.29676 -0.0396606 55
-0.185103 -2.28307 -0.276554 62
0.215452 -2.29593 -0.198319 50
-0.185077 -2.27305 -0.435692 52
0.216412 -2.29362 -0.359804 47
-0.186866 -2.27559 -0.602009 59
0.218662 -2.29227 -0.522782 45
-0.465718 -5.64565 1.29769 15
0.553555 -5.68551 1.51923 11
0.215777 -2.28722 0.43942 4
-0.184501 -2.25141 0.194575 14
-0.187421 -2.28193 0.0393552 96
0.212135 -2.29927 0.119195 53
-0.187797 -2.28162 -0.118542 90
0.211131 -2.29713 -0.0396606 56
-0.188468 -2.27533 -0.275642 61
0.211445 -2.2963 -0.198319 50
-0.189249 -2.27517 -0.436168 52
0.212641 -2.29645 -0.360196 47
-0.190228 -2.26804 -0.600069 61
0.214429 -2.29022 -0.52222 45
-0.498826 -5.67217 1.30443 18
-0.499638 -5.69259 0.897516 35
0.203352 -2.28343 0.438467 2
-0.196504 -2.25289 0.194793 15
-0.199147 -2.27842 0.0393115 95
0.19965 -2.29538 0.118933 55
-0.199522 -2.27812 -0.118411 90
0.198879 -2.29571 -0.039617 58
-0.201037 -2.28172 -0.276554 61
0.199418 -2.29738 -0.198319 52
-0.201595 -2.27904 -0.43712 52
0.200574 -2.29258 -0.359413 47
-0.202316 -2.26942 -0.600716 59
0.201995 -2.28646 -0.521097 45
-0.510567 -5.70292 1.31173 27
-0.508799 -5.69426 0.897906 35
0.200022 -2.29112 0.439896 3
-0.200214 -2.25007 0.194575 15
-0.203347 -2.28056 0.0393552 94
0.196045 -2.29569 0.118933 55
-0.203945 -2.28274 -0.118673 90
0.194439 -2.29108 -0.0395297 59
-0.204398 -2.27893 -0.27625 59
0.195192 -2.29524 -0.198101 52
-0.204906 -2.27135 -0.435692 53
0.196789 -2.29538 -0.359804 47
-0.205837 -2.26425 -0.599422 61
0.198619 -2.2892 -0.521659 45
-0.515984 -5.4431 1.25221 1
-0.536275 -5.66693 0.894004 27
0.188217 -2.28965 0.43942 2
-0.212069 -2.25398 0.195011 15
-0.21536 -2.28448 0.0394424 90
0.184226 -2.29917 0.119064 55
-0.215024 -2.27671 -0.118411 90
0.18284 -2.29203 -0.0395297 61
-0.216564 -2.2803 -0.276554 58
0.183776 -2.29868 -0.198319 52
-0.216869 -2.27517 -0.436644 52
0.184564 -2.29392 -0.359413 47
-0.217991 -2.27039 -0.601362 61
0.186224 -2.28536 -0.520536 47
-0.543749 -5.64112 1.29825 14
-0.543552 -5.63895 0.889711 15
-0.216003 -2.25361 0.195011 15
-0.218866 -2.27912 0.0393552 90
0.179813 -2.29451 0.118803 56
-0.219478 -2.2813 -0.118673 90
0.179039 -2.29484 -0.0395733 61
-0.220062 -2.27498 -0.275946 59
0.179365 -2.29403 -0.197884 52
-0.220362 -2.26991 -0.435692 53
0.180362 -2.29178 -0.359021 47
-0.221481 -2.2652 -0.600069 61
0.182633 -2.29053 -0.521659 47
-0.570041 -5.5871 1.28646 14
-0.567782 -5.57451 0.879956 23
-0.228698 -2.25736 0.195447 15
-0.231448 -2.28039 0.0393988 90
0.167209 -2.29296 0.118672 56
-0.231818 -2.28008 -0.118673 90
0.166248 -2.29079 -0.0394861 65
-0.233383 -2.28363 -0.277163 59
0.167137 -2.29745 -0.198101 55
-0.233396 -2.276 -0.43712 52
0.168545 -2.29515 -0.359413 49
-0.233733 -2.26397 -0.600069 59
0.16968 -2.2842 -0.519974 47
-0.580578 -5.60316 1.29039 15
-0.581123 -5.61782 0.88698 18
-0.231867 -2.24953 0.194793 14
-0.235427 -2.27999 0.0393988 90
0.163607 -2.29322 0.118672 56
-0.236055 -2.28216 -0.118804 85
0.162431 -2.29357 -0.0395297 68
-0.235939 -2.27339 -0.275946 58
0.162945 -2.29526 -0.197884 55
-0.237368 -2.27559 -0.43712 52
0.164358 -2.29298 -0.359021 49
-0.238699 -2.27317 -0.602656 59
0.166456 -2.28932 -0.521097 47
-0.612552 -5.62426 1.29601 12
-0.607319 -5.58525 0.882297 14
-0.243789 -2.25328 0.195229 14
-0.246693 -2.27628 0.0393552 90
0.151598 -2.29405 0.118672 59
-0.24773 -2.27841 -0.118673 82
0.150652 -2.29187 -0.0394861 68
-0.24811 -2.27459 -0.27625 58
0.150757 -2.29359 -0.197666 55
-0.248614 -2.27192 -0.436644 52
0.152181 -2.29135 -0.35863 49
-0.250201 -2.27193 -0.602656 59
0.154128 -2.2853 -0.519974 47
-0.615652 -5.56265 1.28197 15
-0.247721 -2.25285 0.195229 14
-0.251339 -2.27829 0.0393988 90
0.147428 -2.29182 0.118541 61
-0.251982 -2.28045 -0.118804 77
0.146486 -2.28963 -0.0394424 74
-0.252629 -2.27908 -0.276859 58
0.146753 -2.29385 -0.197666 56
-0.252579 -2.27149 -0.436644 52
0.148181 -2.29161 -0.35863 49
-0.255104 -2.27624 -0.603949 59
0.150304 -2.288 -0.520536 45
-0.649965 -5.59554 1.29039 17
-0.259619 -2.249 0.195011 14
-0.262399 -2.26949 0.0392679 90
0.13533 -2.29756 0.118803 62
-0.26363 -2.27662 -0.118673 77
0.134248 -2.29289 -0.0394861 76
-0.263803 -2.26783 -0.275642 58
0.134892 -2.29708 -0.197884 58
-0.264579 -2.26765 -0.436168 52
0.136484 -2.29728 -0.359413 49
-0.266169 -2.26768 -0.602009 59
0.138075 -2.29121 -0.521097 47
-0.628206 -5.33564 1.23031 1
-0.658636 -5.60181 0.885809 30
-0.263253 -2.24607 0.194793 14
-0.267531 -2.27896 0.0394424 90
0.131573 -2.29528 0.118672 67
-0.267896 -2.27864 -0.118804 74
0.130246 -2.29312 -0.0394861 77
-0.268242 -2.2748 -0.276554 56
0.130736 -2.29482 -0.197666 58
-0.269117 -2.27206 -0.43712 52
0.132032 -2.29012 -0.358238 49
-0.270701 -2.27201 -0.603302 59
0.13418 -2.28656 -0.519974 45
-0.684758 -5.56439 1.28421 18
-0.685845 -5.58112 0.883077 27
-0.274314 -2.24224 0.194575 14
-0.278146 -2.27013 0.0393115 90
0.119553 -2.29594 0.118672 68
-0.278204 -2.26734 -0.118279 70
0.118503 -2.29125 -0.0394424 80
-0.279844 -2.2709 -0.27625 56
0.119253 -2.29794 -0.197884 59
-0.280008 -2.26579 -0.436168 50
0.120308 -2.29571 -0.359021 50
-0.281299 -2.26342 -0.601362 59
0.122341 -2.28966 -0.520536 47
-0.693497 -5.5633 1.28421 17
0.312861 -5.64819 1.50436 8
-0.694055 -5.56767 0.881126 29
-0.279152 -2.24917 0.195229 14
-0.283037 -2.27709 0.0394424 90
0.115415 -2.29365 0.118541 71
-0.28216 -2.26685 -0.118279 65
0.114374 -2.28896 -0.0393988 85
-0.284735 -2.2778 -0.277163 58
0.114853 -2.29068 -0.197231 59
-0.284269 -2.26774 -0.436644 50
0.116171 -2.29345 -0.35863 50
-0.285856 -2.26772 -0.602656 59
0.118344 -2.28987 -0.520536 47
-0.724217 -5.5643 1.28534 14
0.289311 -5.76794 1.53603 4
-0.691946 -5.32399 0.842884 1
0.280733 -5.79756 1.12047 14
-0.28964 -2.2378 0.194357 14
0.270401 -5.75045 0.701578 15
-0.29431 -2.27062 0.0393552 83
0.103521 -2.29672 0.118672 74
-0.294421 -2.26529 -0.118279 62
0.102621 -2.29452 -0.0394861 90
-0.295691 -2.26889 -0.27625 55
0.102807 -2.29874 -0.197884 59
-0.296139 -2.26622 -0.436644 52
0.104044 -2.29157 -0.358238 49
-0.296778 -2.25901 -0.600716 59
0.106353 -2.29046 -0.520536 45
-0.714773 -5.41812 1.25164 1
0.279838 -5.78049 1.53926 15
-0.739371 -5.61165 0.888931 21
0.268673 -5.77848 1.11666 18
-0.292568 -2.22988 0.193704 12
0.25362 -5.60466 0.683628 24
-0.299324 -2.275 0.0394424 82
0.0990598 -2.28692 0.118148 74
-0.298702 -2.26725 -0.118411 62
0.0982789 -2.2872 -0.0393552 90
-0.30063 -2.27575 -0.277163 55
0.0985701 -2.29394 -0.197449 61
-0.300741 -2.27056 -0.437596 52
0.100044 -2.29174 -0.358238 50
-0.302076 -2.26561 -0.602656 59
0.102241 -2.28821 -0.519974 45
-0.772324 -5.61931 1.29937 15
0.249087 -5.79399 1.54249 12
-0.773759 -5.63692 0.893613 27
0.230365 -5.58855 1.07949 26
-0.304968 -2.23074 0.193922 12
0.22299 -5.59851 0.682715 29
-0.31021 -2.26597 0.0393115 79
0.087084 -2.2974 0.118672 79
-0.310569 -2.26565 -0.118411 64
0.0861995 -2.29519 -0.0394861 90
-0.312259 -2.26918 -0.276554 56
0.0866569 -2.29691 -0.197666 61
-0.312011 -2.26161 -0.436168 52
0.0878423 -2.29719 -0.359021 52
-0.313269 -2.25922 -0.601362 59
0.0898594 -2.28873 -0.519974 45
-0.785183 -5.64704 1.30611 18
0.229327 -5.56519 1.4811 14
-0.787343 -5.66247 0.897906 33
0.220116 -5.57669 1.0771 26
-0.309204 -2.23267 0.194139 12
0.214087 -5.62121 0.685453 20
-0.314509 -2.26791 0.0393552 73
0.0829788 -2.29505 0.118541 83
-0.316247 -2.27747 -0.119067 64
0.081815 -2.28535 -0.0393115 90
-0.316907 -2.27354 -0.277163 55
0.0823637 -2.28959 -0.197014 64
-0.317322 -2.27078 -0.438073 52
0.0835471 -2.28993 -0.357847 50
-0.318561 -2.26823 -0.603949 58
0.0856717 -2.28402 -0.518851 47
-0.781508 -5.40644 1.25108 1
0.200007 -5.56149 1.47981 15
-0.814506 -5.64116 0.895174 30
0.192118 -5.6121 1.08378 15
-0.320534 -2.22855 0.193922 11
0.186992 -5.6917 0.693972 27
-0.32638 -2.26623 0.0393552 73
0.0710431 -2.29795 0.118672 89
-0.327094 -2.26837 -0.118673 62
0.0700109 -2.29074 -0.0393988 90
-0.328093 -2.26694 -0.276554 55
0.0705377 -2.29497 -0.197449 64
-0.3285 -2.26423 -0.43712 52
0.0721212 -2.29526 -0.35863 50
-0.329733 -2.26176 -0.602656 59
0.0737952 -2.28687 -0.519413 47
-0.823528 -5.63419 1.30443 15
0.190808 -5.57631 1.48369 12
-0.821223 -5.62521 0.892833 27
0.184041 -5.66393 1.09378 15
-0.324062 -2.22553 0.193704 12
0.17845 -5.70438 0.695493 38
-0.331421 -2.27307 0.0394861 70
0.0672766 -2.29307 0.11841 88
-0.331777 -2.27274 -0.118936 59
0.0658583 -2.28587 -0.0393115 90
-0.332014 -2.26888 -0.276859 55
0.0663774 -2.29011 -0.197014 67
-0.333167 -2.26851 -0.438073 52
0.0678014 -2.28551 -0.357064 50
-0.335096 -2.27073 -0.605242 58
0.0700431 -2.28211 -0.51829 47
-0.850824 -5.61535 1.30106 15
0.164611 -5.64479 1.50178 14
-0.849184 -5.61107 0.891272 27
0.154955 -5.65007 1.09092 26
-0.337187 -2.23617 0.194793 11
0.148379 -5.6978 0.694581 36
-0.343671 -2.27631 0.0395733 67
0.0552693 -2.29339 0.11841 90
-0.344048 -2.27344 -0.119067 61
0.0542877 -2.28617 -0.0393115 90
-0.344263 -2.26956 -0.277163 53
0.0543856 -2.29043 -0.197014 68
-0.345015 -2.26922 -0.438549 52
0.0558991 -2.28831 -0.357455 52
-0.346951 -2.27139 -0.605889 58
0.0580259 -2.28001 -0.517728 47
-0.857295 -5.59219 1.29601 15
0.156329 -5.70059 1.51664 20
-0.857479 -5.59982 0.889711 27
0.145465 -5.70188 1.10093 23
-0.341089 -2.23558 0.194793 11
0.138123 -5.68565 0.693059 29
-0.347282 -2.27071 0.0394861 61
0.0512665 -2.29348 0.11841 90
-0.348394 -2.2753 -0.119198 59
0.0503577 -2.28876 -0.0393552 90
-0.348601 -2.27141 -0.277467 55
0.050328 -2.28803 -0.196796 70
-0.349725 -2.27347 -0.439501 50
0.0519052 -2.2884 -0.357455 52
-0.351682 -2.27311 -0.606535 59
0.0540465 -2.28011 -0.517728 47
-0.885626 -5.57544 1.2932 15
0.125263 -5.6917 1.51406 17
-0.885051 -5.57802 0.88698 26
0.115245 -5.68539 1.0976 15
-0.35318 -2.2337 0.194793 11
0.106869 -5.6615 0.690017 23
-0.359559 -2.27132 0.0395297 59
0.0389043 -2.29622 0.118541 90
-0.360695 -2.27591 -0.11933 58
0.0379737 -2.289 -0.0393552 90
-0.360886 -2.26949 -0.277467 52
0.0382534 -2.28328 -0.196362 71
-0.36202 -2.27154 -0.439501 50
0.0398742 -2.28617 -0.357064 52
-0.362429 -2.26408 -0.604595 58
0.0417091 -2.28037 -0.517728 47
-0.89245 -5.56201 1.29039 15
0.114717 -5.66294 1.5063 14
-0.893029 -5.57175 0.886199 21
0.104704 -5.65368 1.0914 14
-0.357472 -2.23554 0.195011 11
0.0973454 -5.62693 0.685758 29
-0.363126 -2.26823 0.0394861 58
0.0352538 -2.29378 0.11841 90
