# .PCD v0.7 - Point Cloud Data file format
VERSION 0.7
FIELDS x y z intensity
SIZE 4 4 4 4
TYPE F F F F
COUNT 1 1 1 1
WIDTH 1626
HEIGHT 1
VIEWPOINT 0 0 0 1 0 0 0
POINTS 1626
DATA ascii
0.949841 -1.46476 -0.271321 3
1.12331 -2.65948 -0.763665 3
2.79368 -6.6196 1.64808 29
3.25294 -4.97806 1.58191 39
2.79818 -6.62709 1.13126 44
3.24566 -4.98579 1.14859 41
1.19911 -2.83788 0.266479 11
3.22808 -4.97202 0.722571 39
1.16118 -2.74935 0.0514846 11
0.889168 -1.37798 0.08413 8
1.19615 -2.83363 -0.159894 4
0.881356 -1.36751 -0.027793 8
2.10496 -4.99415 -0.660201 38
0.952666 -1.4747 -0.272887 3
1.12053 -2.66589 -0.764959 4
2.75617 -6.62739 1.6464 30
3.21852 -4.98027 1.57739 39
2.75871 -6.63025 1.12931 44
3.21153 -4.99034 1.14573 39
1.18377 -2.84162 0.266261 9
3.20066 -4.98676 0.722266 35
1.15156 -2.76693 0.0517027 30
0.884638 -1.38682 0.0843917 4
1.1765 -2.82833 -0.159237 8
0.88093 -1.38262 -0.0280111 8
2.07593 -4.99823 -0.659289 39
1.10194 -2.66056 -0.761726 4
2.73995 -6.62093 1.64359 30
3.21157 -4.9905 1.57868 39
2.74314 -6.62869 1.12814 39
3.19884 -4.98974 1.1443 32
1.17926 -2.84619 0.266479 9
3.19241 -4.99499 0.722571 1
1.14196 -2.75739 0.0514846 11
0.87794 -1.38221 0.0839992 11
1.16821 -2.82366 -0.158844 8
0.875824 -1.37994 -0.0279238 8
2.06065 -4.98844 -0.657463 39
1.09775 -2.66491 -0.762372 4
2.70085 -6.63435 1.64303 30
3.18105 -5.00428 1.57739 26
2.69956 -6.6279 1.12541 33
3.19195 -5.04069 1.15193 1
1.16899 -2.86657 0.267786 8
3.20558 -5.07775 0.732002 1
1.13219 -2.77762 0.0517464 9
0.871539 -1.3892 0.08413 11
1.14727 -2.81607 -0.158056 8
0.874773 -1.39538 -0.028142 4
2.03276 -4.99987 -0.657463 42
1.48746 -3.66129 -0.759961 4
1.08241 -2.66857 -0.761726 4
2.68494 -6.62504 1.63966 32
3.17361 -5.01187 1.57803 3
2.6815 -6.61658 1.12268 32
3.19888 -5.07115 1.15765 3
1.16024 -2.85937 0.266914 4
1.12547 -2.77495 0.0516591 9
0.866455 -1.38649 0.0838684 9
1.14423 -2.82269 -0.158318 12
0.867015 -1.38844 -0.0279675 4
2.01473 -4.98041 -0.654421 33
0.866795 -1.38758 -0.139823 4
1.47739 -3.65478 -0.758056 4
1.07865 -2.6727 -0.762372 3
2.64635 -6.63268 1.63798 30
3.15245 -5.0366 1.58062 17
2.64316 -6.62135 1.12111 33
3.19699 -5.12737 1.1667 12
1.14987 -2.87697 0.268004 8
1.11277 -2.78545 0.0517464 8
0.86182 -1.39525 0.08413 4
1.12759 -2.82401 -0.158056 12
0.866329 -1.40358 -0.0281856 3
0.862147 -1.39633 -0.140258 3
1.45914 -3.66475 -0.758532 4
1.06375 -2.67606 -0.761726 4
2.63143 -6.6255 1.63517 32
3.13726 -5.03185 1.57739 38
2.62977 -6.62136 1.12033 33
3.20359 -5.15795 1.17242 18
1.14668 -2.8836 0.26844 8
0.873517 -1.4174 0.199886 9
1.1116 -2.79668 0.0519209 9
0.856755 -1.39251 0.0838684 4
1.11345 -2.80276 -0.156743 3
0.863878 -1.40509 -0.0281856 3
0.857087 -1.3936 -0.139823 3
1.45094 -3.66272 -0.75758 4
1.06086 -2.68241 -0.763019 3
2.592 -6.63057 1.63292 32
3.10199 -5.03383 1.57286 38
2.49528 -6.37975 1.07702 1
3.1714 -5.16629 1.17052 15
1.12976 -2.88493 0.268004 9
0.859599 -1.41138 0.198365 9
1.09967 -2.80945 0.0520518 8
0.850755 -1.3991 0.0839992 4
1.12238 -2.86902 -0.160156 2
0.861726 -1.41812 -0.0283602 3
1.15746 -2.96337 -0.385777 11
0.853678 -1.40444 -0.140476 3
1.43352 -3.67484 -0.758532 3
1.04417 -2.68117 -0.761079 3
1.56654 -2.56066 -0.68394 15
2.57717 -6.62328 1.63011 30
3.08561 -5.02689 1.56898 38
2.57927 -6.6253 1.11799 33
3.14315 -5.14043 1.16337 14
1.12923 -2.8985 0.269093 4
0.857381 -1.41272 0.198365 9
1.09658 -2.81602 0.0521391 8
0.849856 -1.40257 0.08413 4
1.11013 -2.85236 -0.159106 2
0.857949 -1.41749 -0.0283165 3
1.1546 -2.96981 -0.386385 9
0.848633 -1.40167 -0.140041 3
1.42445 -3.67047 -0.757104 3
1.03949 -2.68299 -0.761079 3
2.5381 -6.62531 1.62731 30
3.05385 -5.03212 1.56575 36
2.54013 -6.62719 1.11604 33
3.11328 -5.14997 1.16194 14
1.11098 -2.89488 0.268222 8
0.848689 -1.41507 0.19806 8
1.08499 -2.82854 0.05227 9
0.845078 -1.41128 0.0843917 3
1.10372 -2.87892 -0.160288 2
0.858501 -1.43466 -0.0285783 3
0.846669 -1.41448 -0.140911 3
1.40848 -3.68452 -0.758532 4
1.02418 -2.6837 -0.759786 4
2.52508 -6.62246 1.62562 32
3.04006 -5.02918 1.56317 39
2.52708 -6.62425 1.11487 33
3.09668 -5.14279 1.15908 14
1.11037 -2.90845 0.269311 8
0.843907 -1.41215 0.197452 3
1.08629 -2.84678 0.0525754 8
0.850573 -1.42544 0.0851768 3
1.10935 -2.90884 -0.161863 3
0.85471 -1.43402 -0.0285347 3
0.842917 -1.41382 -0.140693 3
1.39943 -3.68008 -0.757104 4
1.02548 -2.70129 -0.764312 4
1.70094 -2.83244 -0.75357 8
2.48524 -6.6219 1.62225 30
3.00712 -5.03207 1.55929 38
2.48455 -6.61658 1.11136 33
3.06432 -5.14786 1.15669 14
1.10001 -2.92569 0.270401 8
0.835234 -1.41441 0.197148 4
1.07801 -2.86862 0.0528808 8
0.841824 -1.42773 0.0850459 3
1.10689 -2.94714 -0.163701 3
0.847441 -1.43832 -0.0285347 3
1.83234 -4.88903 -0.635862 12
0.837021 -1.42021 -0.140911 3
1.3825 -3.69172 -0.758056 4
1.01011 -2.70193 -0.763019 4
2.47143 -6.61667 1.62001 32
2.98968 -5.0228 1.55477 38
2.46954 -6.61165 1.1098 32
3.05032 -5.14476 1.15479 14
1.1071 -2.96027 0.273451 4
0.830235 -1.4116 0.196539 4
1.08174 -2.89392 0.0533171 8
0.840601 -1.43135 0.0851768 3
1.10611 -2.96077 -0.164357 4
0.846201 -1.44195 -0.0285783 3
1.81687 -4.87362 -0.633428 12
0.837075 -1.42596 -0.141346 3
1.37435 -3.68953 -0.757104 4
1.00791 -2.71048 -0.764959 4
2.43307 -6.62308 1.61832 33
2.95721 -5.02798 1.55154 38
2.43234 -6.61754 1.10863 33
3.0134 -5.14373 1.15097 14
1.09158 -2.96602 0.273451 9
0.827845 -1.42449 0.197756 3
1.07606 -2.92535 0.053797 8
0.836873 -1.44219 0.0855693 3
0.844939 -1.45716 -0.0287965 3
1.77596 -4.84113 -0.627952 12
0.834621 -1.43893 -0.142215 3
1.35501 -3.69667 -0.757104 4
0.993707 -2.71572 -0.764959 4
2.42016 -6.62003 1.61664 33
2.93743 -5.01439 1.54572 39
2.42024 -6.61671 1.10785 33
2.99451 -5.13203 1.14716 14
0.825607 -1.42579 0.197756 3
0.83963 -1.45214 0.0860926 3
0.83336 -1.44253 -0.142433 3
1.35024 -3.70364 -0.758056 4
0.985666 -2.70837 -0.762372 4
1.61013 -2.76726 -0.729985 4
2.38052 -6.61886 1.61327 33
2.90716 -5.02083 1.54314 39
2.38055 -6.61535 1.10551 33
2.96236 -5.1365 1.14478 14
0.824322 -1.44085 0.199277 3
0.833259 -1.45868 0.0862235 3
1.65748 -4.61487 -0.596919 4
0.829772 -1.45321 -0.143085 3
1.33147 -3.71043 -0.758056 4
0.974385 -2.72014 -0.764312 4
2.36766 -6.61571 1.61158 33
2.89114 -5.01335 1.53926 38
2.36401 -6.60555 1.10316 35
2.94972 -5.13528 1.14335 15
2.3685 -6.61448 0.611615 36
0.820571 -1.44013 0.198973 3
0.834434 -1.46663 0.086616 3
1.57863 -4.41212 -0.244566 3
1.64608 -4.60841 -0.595702 9
0.835895 -1.46979 -0.144607 3
1.32087 -3.70119 -0.755675 4
0.968018 -2.71729 -0.763019 4
1.61626 -2.82279 -0.741778 4
2.32537 -6.61003 1.60709 32
2.86126 -5.02213 1.53732 39
2.32612 -6.60852 1.1016 35
2.9143 -5.13572 1.14001 15
0.817913 -1.45304 0.20019 3
0.829203 -1.47532 0.0868777 3
1.54481 -4.39233 -0.242991 3
1.62111 -4.61462 -0.595398 4
0.82548 -1.46995 -0.144172 3
1.30391 -3.715 -0.757104 8
0.955371 -2.72688 -0.764312 4
1.62912 -2.87994 -0.754693 9
2.31302 -6.61178 1.60653 33
2.84653 -5.01662 1.53409 39
2.31458 -6.61257 1.1016 35
2.8996 -5.13276 1.13811 15
2.23834 -6.39109 0.589391 17
0.816596 -1.45663 0.200494 3
0.836431 -1.49417 0.0879244 3
1.53467 -4.38795 -0.242597 3
1.62287 -4.64556 -0.599049 3
0.829022 -1.48224 -0.14526 3
1.29823 -3.71959 -0.75758 4
0.950927 -2.73099 -0.764959 4
1.63248 -2.89763 -0.758623 9
2.27484 -6.61729 1.60485 33
2.81461 -5.02352 1.5315 39
2.27395 -6.61098 1.09926 35
2.8667 -5.13716 1.13572 15
2.20373 -6.40311 0.589391 17
0.813534 -1.4697 0.201711 3
1.50356 -4.37231 -0.241285 4
1.68465 -4.90777 -0.631907 18
0.824881 -1.49309 -0.145912 3
1.27889 -3.72888 -0.758056 4
0.937396 -2.73822 -0.765605 4
1.61678 -2.90642 -0.758623 8
2.2605 -6.60933 1.60204 32
2.80113 -5.02 1.52892 41
2.26276 -6.61221 1.09887 35
2.85295 -5.13358 1.13382 14
2.18611 -6.38809 0.587648 15
0.812429 -1.47314 0.202016 3
1.49593 -4.37493 -0.241285 8
1.68415 -4.93155 -0.634645 17
0.828307 -1.50542 -0.146999 4
1.27317 -3.73343 -0.758532 4
0.833101 -1.51165 -0.268189 9
0.93417 -2.74442 -0.766899 4
1.61103 -2.90683 -0.758062 8
2.22431 -6.61646 1.60091 33
2.76517 -5.01508 1.5231 39
2.22575 -6.61694 1.0977 36
2.84586 -5.18236 1.14144 12
2.15057 -6.38963 0.586776 17
0.810671 -1.48826 0.203537 3
1.47535 -4.38718 -0.241547 8
1.66146 -4.94971 -0.635862 17
0.823068 -1.51397 -0.147434 11
1.25114 -3.73052 -0.756627 4
0.829921 -1.52466 -0.269755 8
0.918736 -2.74453 -0.765605 3
1.59813 -2.91949 -0.759185 8
2.21083 -6.6107 1.59867 32
2.75409 -5.01567 1.52181 39
2.2095 -6.60677 1.09536 35
2.8486 -5.20884 1.14621 12
2.13704 -6.38629 0.586122 15
1.46928 -4.39448 -0.24181 4
1.6591 -4.97143 -0.638296 20
1.24773 -3.74201 -0.758532 4
0.914706 -2.74842 -0.766252 3
1.59537 -2.92655 -0.760308 8
2.16856 -6.60674 1.59474 33
2.72114 -5.01989 1.51858 39
2.17295 -6.61628 1.09497 35
2.83322 -5.24792 1.15145 11
2.09935 -6.38829 0.585251 15
1.44314 -4.39525 -0.241416 3
1.62986 -4.97326 -0.637383 24
1.22594 -3.74404 -0.75758 4
0.899822 -2.75333 -0.766252 4
1.57604 -2.92871 -0.758623 4
2.15667 -6.60551 1.59361 33
2.70663 -5.01401 1.51535 39
2.15796 -6.6056 1.09263 36
2.83337 -5.27014 1.15526 11
2.08047 -6.36827 0.583072 15
1.44011 -4.412 -0.242204 3
1.61667 -4.9593 -0.635254 30
0.820145 -1.54099 -0.149391 3
1.22016 -3.74851 -0.758056 3
0.89278 -2.74801 -0.764312 4
1.5749 -2.93762 -0.760308 4
2.11833 -6.60511 1.59081 33
2.67553 -5.01699 1.51212 41
2.12184 -6.6121 1.09185 35
2.81588 -5.30175 1.15908 8
2.04745 -6.37635 0.582854 15
1.42462 -4.44063 -0.243385 3
1.59219 -4.97242 -0.635862 36
0.8135 -1.54732 -0.149609 3
1.19967 -3.74996 -0.757104 8
0.881794 -2.7617 -0.766899 8
1.55721 -2.94152 -0.759185 4
2.105 -6.59914 1.58856 35
2.65883 -5.00673 1.5076 41
2.10654 -6.60403 1.0899 36
2.81237 -5.3175 1.16146 4
2.03329 -6.37042 0.581982 15
1.42369 -4.46452 -0.244566 3
1.58351 -4.97519 -0.635862 41
1.19387 -3.75439 -0.75758 8
0.874055 -2.75402 -0.764312 4
1.55435 -2.94854 -0.760308 4
2.06781 -6.60579 1.58744 36
2.62696 -5.0099 1.50436 39
2.0712 -6.61262 1.08951 36
2.79018 -5.34302 1.16384 8
1.99693 -6.37147 0.581111 15
1.40398 -4.48646 -0.245354 3
1.55596 -4.97868 -0.635254 44
1.17274 -3.7559 -0.756627 8
0.863209 -2.77009 -0.767545 4
1.53551 -2.95016 -0.758623 4
2.05411 -6.60241 1.58575 35
2.61373 -5.00591 1.50178 39
2.05672 -6.60679 1.08795 38
2.79012 -5.36796 1.16813 4
1.98211 -6.36306 0.580021 17
1.54557 -4.96674 0.0901853 45
1.408 -4.52705 -0.247455 4
1.54506 -4.97428 -0.634341 45
1.40903 -2.73103 -0.265295 20
1.16908 -3.76732 -0.758532 4
2.13458 -4.12498 -0.730963 11
0.857177 -2.76944 -0.766899 4
1.53373 -2.95932 -0.760308 4
2.01551 -6.6041 1.58351 35
2.58218 -5.0114 1.49919 39
2.01662 -6.60365 1.0856 36
2.77656 -5.41087 1.17433 8
1.94619 -6.36893 0.579586 17
1.51808 -4.96999 0.090098 47
1.38574 -4.53913 -0.247717 3
1.51668 -4.97782 -0.633732 45
1.38904 -2.72729 -0.264207 20
1.14654 -3.76655 -0.757104 4
2.11521 -4.1405 -0.731746 9
0.842664 -2.77389 -0.766899 4
1.51547 -2.96324 -0.759185 4
2.00089 -6.59327 1.58014 32
2.56901 -5.00731 1.49661 39
2.00553 -6.60445 1.08521 36
2.78501 -5.45066 1.18195 9
1.93074 -6.35802 0.578278 17
1.5094 -4.97263 0.090098 45
1.38505 -4.56544 -0.24903 3
1.5067 -4.97307 -0.63282 47
1.39558 -2.7519 -0.266382 14
1.13855 -3.76384 -0.756151 4
0.837822 -2.77535 -0.766899 4
1.51192 -2.96779 -0.759746 4
1.96565 -6.60132 1.57958 32
2.53707 -5.00733 1.49273 39
1.96599 -6.59829 1.08248 36
2.77288 -5.49534 1.18863 8
1.89498 -6.35577 0.577189 17
1.48136 -4.97062 0.0899235 47
1.37617 -4.62025 -0.251655 3
1.47852 -4.97375 -0.631907 47
1.38611 -2.76783 -0.267252 14
1.11878 -3.7672 -0.755675 4
0.826504 -2.78882 -0.769485 4
1.49966 -2.98219 -0.761431 4
1.95389 -6.59973 1.57845 32
2.52506 -5.00528 1.49079 38
1.95352 -6.59427 1.08131 36
2.77763 -5.52867 1.19482 9
1.88176 -6.35191 0.576535 18
1.47198 -4.9708 0.0898799 45
1.4686 -4.96893 -0.630994 47
1.38685 -2.78138 -0.268339 15
1.11082 -3.76444 -0.754723 4
1.46437 -2.93122 -0.514062 8
0.820273 -2.78562 -0.768192 4
1.49278 -2.98019 -0.760308 4
1.9166 -6.60051 1.57621 35
2.49538 -5.00935 1.48821 38
1.91621 -6.59492 1.07975 38
2.77583 -5.5954 1.20626 9
1.8482 -6.35657 0.576099 18
1.44331 -4.96619 0.0896617 47
1.428 -4.91987 -0.26754 11
1.33186 -2.70678 -0.0520518 12
1.44049 -4.9694 -0.630082 45
1.38219 -2.8087 -0.270296 49
1.09584 -3.78416 -0.75758 4
1.44243 -2.92557 -0.511713 11
0.808171 -2.7967 -0.770132 4
1.47608 -2.98578 -0.759746 8
1.90305 -6.59683 1.57452 35
2.48018 -5.00073 1.48433 38
1.90196 -6.58876 1.07819 36
2.86519 -5.8031 1.25011 12
1.85022 -6.40524 0.580239 11
2.95013 -5.99313 0.814755 14
1.43239 -4.96415 0.0895745 47
2.45447 -4.99677 0.289941 8
1.43185 -4.96554 -0.269903 44
1.32161 -2.69788 -0.0518336 9
1.42976 -4.96475 -0.629169 47
1.37619 -2.80887 -0.270079 29
1.0872 -3.77899 -0.756151 4
1.43842 -2.93029 -0.512104 9
0.802136 -2.79593 -0.769485 4
1.86468 -6.59765 1.57228 35
2.44777 -5.00323 1.4811 35
1.86427 -6.59183 1.07702 36
1.844 -6.51581 0.589391 11
2.91983 -6.01347 0.815364 15
1.40502 -4.96677 0.0894872 47
2.43176 -5.01896 0.290465 8
1.40584 -4.97297 -0.269903 45
1.307 -2.70499 -0.0518336 9
1.40153 -4.96764 -0.62856 45
1.35494 -2.8026 -0.268774 11
1.06874 -3.79191 -0.75758 4
1.42902 -2.95136 -0.514453 8
0.788138 -2.80241 -0.770132 4
1.85497 -6.60291 1.57284 33
2.43374 -4.99664 1.47787 33
1.85276 -6.59507 1.07702 38
1.85418 -6.59575 0.596363 35
2.90717 -6.01409 0.814755 15
1.395 -4.9644 0.0893999 47
2.41865 -5.01421 0.289941 8
1.39581 -4.97061 -0.26964 45
1.3001 -2.70277 -0.0517464 9
1.39085 -4.96291 -0.627648 45
1.34896 -2.80272 -0.268557 9
1.0608 -3.78904 -0.756627 4
0.784543 -2.80844 -0.771425 3
1.81599 -6.60111 1.57003 33
2.4044 -5.00279 1.47593 32
1.81493 -6.59278 1.07507 36
1.82028 -6.60777 0.596581 39
2.86708 -6.01132 0.812321 23
1.36633 -4.96199 0.0892254 45
1.3691 -4.97544 -0.269509 45
1.28593 -2.70954 -0.0517464 11
1.36419 -4.96773 -0.627343 45
1.33748 -2.81648 -0.269209 14
1.04029 -3.79217 -0.756151 4
1.8037 -6.5969 1.56835 33
2.39253 -5.00045 1.47399 27
1.80212 -6.59117 1.07429 36
3.16664 -6.64426 1.42263 32
1.80612 -6.60133 0.59571 38
2.85765 -6.01855 0.812626 21
1.35635 -4.95955 0.0891382 45
1.35713 -4.96578 -0.268852 45
1.28549 -2.72081 -0.0519209 20
1.35226 -4.95813 -0.625822 45
1.3315 -2.81656 -0.268991 15
1.03496 -3.79872 -0.757104 4
1.76546 -6.59715 1.5661 35
2.36219 -5.00417 1.47141 24
1.7663 -6.59575 1.07351 39
3.1318 -6.66075 1.42263 35
1.76895 -6.60107 0.594838 38
1.32843 -4.95934 0.0890073 45
1.36171 -2.91821 0.166952 12
1.33024 -4.97305 -0.268852 45
1.27122 -2.72751 -0.0519209 14
1.32564 -4.96275 -0.625518 45
1.32152 -2.83501 -0.270079 9
1.28003 -2.73409 -0.687871 8
1.75269 -6.59551 1.56498 35
2.34727 -4.99518 1.46753 20
1.75035 -6.58211 1.07078 33
3.11172 -6.6512 1.4193 30
1.75551 -6.59693 0.594184 38
1.31891 -4.96188 0.0890073 45
1.35661 -2.92059 0.166952 20
1.319 -4.96571 -0.268327 45
1.26118 -2.71839 -0.0517027 9
1.31697 -4.96506 -0.625518 45
1.31972 -2.84408 -0.270731 11
1.27215 -2.7297 -0.686186 8
1.71331 -6.59075 1.56161 35
2.31716 -5.00123 1.46559 15
1.64141 -6.30947 1.02473 1
3.06861 -6.64958 1.41548 29
1.28976 -4.95662 0.0887891 47
1.33349 -2.912 0.166036 24
1.29172 -4.96772 -0.268065 45
1.24646 -2.72518 -0.0517027 9
1.28511 -4.95289 -0.623084 38
1.31105 -2.86453 -0.272036 14
1.35967 -2.96494 -0.511713 3
1.25124 -2.72327 -0.682817 11
2.30235 -4.99212 1.46171 15
3.05188 -6.64378 1.4131 27
1.28236 -4.96371 0.0888764 35
1.32996 -2.91637 0.166167 27
1.27744 -4.94821 -0.266883 8
1.23858 -2.72053 -0.0515719 9
1.26805 -4.91886 -0.61852 2
1.30709 -2.86908 -0.272253 15
1.25408 -2.74073 -0.686748 3
2.26803 -4.98393 1.4559 14
1.24132 -4.90359 0.439483 1
1.23763 -4.89258 0.0874802 2
1.30953 -2.91191 0.165512 20
1.24663 -4.93546 -0.265833 2
1.22274 -2.72221 -0.0514846 9
1.24409 -4.93265 -0.619433 3
1.29614 -2.88496 -0.273123 14
1.23284 -4.91323 1.15955 1
2.25733 -4.98349 1.45461 11
1.22875 -4.89336 0.791765 2
1.23882 -4.9299 0.441662 2
1.23066 -4.90465 0.0876547 2
1.30547 -2.91647 0.165643 26
1.22106 -2.73118 -0.0516155 11
1.24331 -4.96611 -0.623388 2
1.29111 -2.88722 -0.273123 11
1.20276 -4.90563 1.15618 2
2.21061 -4.95154 1.44168 1
1.20579 -4.91433 0.794106 2
2.19558 -4.94092 1.04326 1
1.26579 -2.86423 0.379692 1
1.28563 -2.91436 0.16512 20
1.20424 -2.73317 -0.0515282 20
1.27799 -2.8985 -0.273558 9
1.89005 -4.27501 -0.735661 9
2.2 -4.95098 1.44039 2
2.20784 -4.99186 1.05327 2
1.2628 -2.87098 0.3803 8
1.27349 -2.90061 0.164204 14
1.20148 -2.73984 -0.0516155 15
1.28297 -2.92351 -0.275733 9
1.88258 -4.27831 -0.735661 9
2.17685 -4.96647 1.44168 2
1.24528 -2.87051 0.379388 9
1.2578 -2.90473 0.164073 14
1.18361 -2.73672 -0.051441 9
1.27213 -2.93911 -0.276602 9
1.85598 -4.27646 -0.733703 8
2.16625 -4.96584 1.44039 3
1.24125 -2.87495 0.379692 9
1.24975 -2.90004 0.163681 12
1.17983 -2.74108 -0.0514846 9
1.85145 -4.28649 -0.734878 8
2.13735 -4.97046 1.43845 3
1.22131 -2.87 0.378171 9
1.23161 -2.89966 0.163288 14
1.16252 -2.74032 -0.0513537 9
1.83577 -4.31202 -0.737618 8
1.30273 -3.05479 -0.7575 8
2.12581 -4.96752 1.43651 2
1.21532 -2.86985 0.377866 11
1.22362 -2.89491 0.162896 12
1.16066 -2.74925 -0.0514846 9
1.83017 -4.31976 -0.738401 4
1.2974 -3.05706 -0.7575 8
2.09044 -4.95893 1.4307 2
2.7814 -6.62594 1.3888 38
1.19499 -2.86494 0.376345 8
1.20505 -2.89458 0.162503 12
1.14192 -2.74626 -0.0513101 9
1.19012 -2.86028 -0.267469 3
1.80658 -4.32701 -0.73801 4
1.28273 -3.06853 -0.758623 8
2.08272 -4.9648 1.43134 2
2.77267 -6.63757 1.39023 33
1.18953 -2.86452 0.376041 11
1.20338 -2.90338 0.162896 11
1.14192 -2.75979 -0.0515282 12
1.17461 -2.83706 -0.265077 2
1.80567 -4.34611 -0.74075 4
1.2779 -3.07054 -0.758623 4
2.05017 -4.95743 1.42617 2
2.73249 -6.63564 1.38689 41
1.17451 -2.87071 0.376041 9
0.487061 -2.24999 0.0395733 9
1.18532 -2.90271 0.162503 12
1.12983 -2.77016 -0.0516155 21
0.48933 -2.26816 -0.280205 8
0.488956 -2.27024 -0.443787 3
1.78101 -4.35094 -0.739967 4
1.26181 -3.07719 -0.758623 8
2.0369 -4.94984 1.42294 2
2.71788 -6.63633 1.38594 32
0.482835 -2.24753 0.198061 8
1.16481 -2.86127 0.37452 8
0.483786 -2.25581 0.0396606 9
1.18214 -2.9094 0.162765 21
1.12971 -2.7837 -0.0518336 12
0.483818 -2.26173 -0.279293 11
0.48346 -2.26389 -0.442358 9
1.77528 -4.35861 -0.74075 4
1.25644 -3.07938 -0.758623 4
2.00464 -4.94736 1.41907 2
0.471909 -2.25797 0.359006 8
2.67758 -6.63682 1.38308 32
0.472701 -2.25986 0.198933 8
1.14931 -2.86753 0.37452 8
0.470438 -2.25097 0.0395297 12
1.16638 -2.91575 0.162765 29
1.12209 -2.80833 -0.0521827 14
0.472583 -2.26917 -0.279901 8
0.471702 -2.26888 -0.442834 4
1.7506 -4.36326 -0.739967 4
1.23885 -3.08388 -0.758062 4
1.996 -4.95085 1.41907 2
0.468862 -2.26113 0.359397 9
2.66324 -6.63465 1.38165 32
0.465227 -2.24361 0.197408 8
1.15219 -2.88776 0.376954 4
0.465498 -2.2469 0.0394424 9
1.16458 -2.92454 0.163157 29
1.11811 -2.8126 -0.0522263 12
0.469519 -2.27234 -0.280205 8
0.466753 -2.26489 -0.441882 4
1.74848 -4.38007 -0.742316 8
1.23219 -3.0813 -0.756939 8
1.96734 -4.95192 1.41648 3
0.455067 -2.25387 0.357836 8
2.6233 -6.63208 1.37831 32
0.454849 -2.25082 0.197844 9
1.1325 -2.88221 0.375432 4
0.453626 -2.24677 0.0393988 9
1.14742 -2.92595 0.162896 24
1.10935 -2.83218 -0.0524881 12
0.454199 -2.25774 -0.278076 8
0.454802 -2.26481 -0.441406 3
1.72371 -4.38457 -0.741533 8
1.20887 -3.06958 -0.752447 11
1.95425 -4.94412 1.41325 3
0.45065 -2.25224 0.357445 8
2.60786 -6.63025 1.37688 33
0.449944 -2.24672 0.197408 9
1.13381 -2.90035 0.377562 8
0.447846 -2.24029 0.0392679 9
1.14504 -2.93492 0.163288 24
1.10167 -2.82713 -0.0523572 8
0.450741 -2.26096 -0.27838 4
0.449894 -2.26079 -0.440453 3
1.71516 -4.38527 -0.741142 8
1.19994 -3.06262 -0.7502 9
1.92835 -4.95687 1.4139 3
0.438458 -2.25465 0.357445 4
2.56778 -6.63009 1.37402 32
0.438256 -2.25157 0.197626 8
1.12437 -2.92265 0.379692 8
0.437537 -2.24996 0.0393988 4
1.12825 -2.93874 0.163157 18
1.08816 -2.83772 -0.0524445 8
0.437561 -2.25849 -0.277771 4
0.437655 -2.26319 -0.440453 4
1.69306 -4.39649 -0.741533 8
1.18511 -3.07361 -0.751324 11
1.91707 -4.95347 1.41196 3
0.434915 -2.25533 0.357445 4
2.5509 -6.62082 1.37116 32
0.433856 -2.24988 0.197408 4
0.430781 -2.23599 0.039137 8
1.129 -2.9545 0.163942 15
1.08052 -2.83261 -0.0523136 11
0.433546 -2.25674 -0.277467 4
0.432784 -2.25913 -0.439501 4
1.68804 -4.40636 -0.742708 9
1.1759 -3.06411 -0.748516 9
1.88594 -4.94732 1.40743 3
0.42174 -2.2503 0.356275 4
2.51562 -6.62906 1.37021 32
0.422463 -2.25205 0.197408 8
0.420376 -2.24306 0.0392243 9
1.06352 -2.83103 -0.0521827 12
0.421792 -2.2637 -0.439977 4
1.66058 -4.40359 -0.74075 9
0.422408 -2.27577 -0.610415 4
1.15984 -3.07022 -0.748516 3
1.8773 -4.9506 1.40743 2
0.418261 -2.25346 0.356665 3
2.49941 -6.6247 1.3683 32
0.416264 -2.24054 0.196318 8
2.48921 -6.62204 0.86313 32
0.415615 -2.2414 0.0391806 12
1.06121 -2.8399 -0.0523136 12
1.86717 -4.98641 -0.461874 50
0.418284 -2.26685 -0.440453 4
1.62594 -4.33484 -0.728613 3
0.418473 -2.27896 -0.611062 3
1.16222 -3.09275 -0.75357 4
1.84964 -4.95843 1.40679 2
0.404319 -2.24596 0.355104 3
2.46212 -6.63079 1.36687 32
0.404576 -2.24521 0.196536 11
2.44559 -6.61447 0.860391 33
0.404315 -2.24601 0.0392243 14
1.04583 -2.8456 -0.0523136 9
1.83672 -4.98444 -0.460786 45
0.404721 -2.26183 -0.439025 4
1.60665 -4.35256 -0.730179 9
0.406957 -2.28349 -0.611708 3
1.14886 -3.10813 -0.755816 4
1.83677 -4.95033 1.40356 2
0.401655 -2.25146 0.355884 4
2.44629 -6.62357 1.36449 32
0.399785 -2.24101 0.1961 11
2.43433 -6.61598 0.860087 35
0.398646 -2.23687 0.0390498 12
1.05121 -2.87558 -0.0528372 2
1.82544 -4.98062 -0.460134 45
0.401199 -2.26495 -0.439501 8
1.60075 -4.35999 -0.730963 11
0.404225 -2.29134 -0.613648 4
1.14905 -3.12364 -0.759185 4
1.81502 -4.96864 1.40614 3
0.388183 -2.2438 0.354324 8
2.40853 -6.62434 1.36211 32
0.388437 -2.24301 0.1961 11
2.39543 -6.61697 0.858566 35
0.388168 -2.24378 0.039137 11
1.03579 -2.87851 -0.0527935 2
0.389316 -2.26453 -0.439025 4
1.59809 -4.42402 -0.740359 12
0.392622 -2.29335 -0.613648 4
1.13268 -3.12962 -0.759185 8
1.80138 -4.95818 1.40226 3
0.383851 -2.24204 0.353933 8
2.39414 -6.62434 1.36115 32
0.384103 -2.24123 0.195883 11
2.38051 -6.61181 0.857349 33
0.385539 -2.25438 0.0393115 14
1.02992 -2.87796 -0.0527499 2
0.387003 -2.27489 -0.44093 4
1.59204 -4.43145 -0.741142 12
0.389825 -2.30363 -0.616235 4
1.12638 -3.1293 -0.758623 8
1.7729 -4.96331 1.40097 2
0.372117 -2.24652 0.354324 4
2.35613 -6.62753 1.35925 32
0.372783 -2.24818 0.196318 4
2.33889 -6.60822 0.855219 33
0.37373 -2.25637 0.0393115 3
1.75377 -4.96959 0.274371 3
1.02766 -2.9212 -0.053448 2
1.70216 -4.82645 -0.443825 12
0.376278 -2.28664 -0.442834 4
1.57625 -4.46067 -0.744666 12
0.37698 -2.30087 -0.614941 4
1.10862 -3.13305 -0.758062 4
1.76099 -4.95729 1.39839 3
0.370579 -2.25929 0.356275 4
2.34046 -6.62007 1.35686 33
0.370465 -2.25866 0.19719 4
2.32521 -6.60252 0.854002 33
0.370999 -2.26442 0.0394424 11
1.74762 -4.97705 0.274633 8
1.03334 -2.95364 -0.0540152 3
1.7458 -4.97743 -0.457525 45
0.372286 -2.28729 -0.442834 4
1.57667 -4.4867 -0.748581 9
0.372963 -2.30152 -0.614941 4
1.10451 -3.13708 -0.758623 4
1.73348 -4.95931 1.39645 3
2.30207 -6.61793 1.354 33
0.360195 -2.26789 0.197844 9
2.29223 -6.6193 0.854611 35
0.358363 -2.25886 0.0393115 9
1.72236 -4.98849 0.274764 9
1.02573 -2.9801 -0.0544079 3
1.71896 -4.9815 -0.45709 45
0.361085 -2.29157 -0.44331 4
1.55073 -4.4879 -0.747406 8
0.360937 -2.301 -0.614295 4
1.08807 -3.14282 -0.758623 4
1.72165 -4.9532 1.39386 3
2.2873 -6.61266 1.3521 33
0.355467 -2.26359 0.197408 8
2.27582 -6.60921 0.852785 33
0.355963 -2.26936 0.0394861 8
1.70796 -4.97497 0.273848 9
1.70783 -4.97742 -0.456437 45
0.356332 -2.28735 -0.442358 4
1.5437 -4.49293 -0.747798 8
0.357657 -2.3064 -0.615588 4
1.08179 -3.14242 -0.758062 4
1.69717 -4.9693 1.3958 4
2.24912 -6.61797 1.35067 33
0.344701 -2.27533 0.198279 8
2.23763 -6.61438 0.851873 33
0.34368 -2.27125 0.0394861 8
1.68182 -4.9865 0.273979 8
1.67848 -4.97951 -0.455785 45
0.343951 -2.28924 -0.442358 8
1.5154 -4.48692 -0.745449 9
0.344106 -2.30113 -0.613648 8
1.06634 -3.15284 -0.759185 4
1.6846 -4.96082 1.39257 4
2.2352 -6.61491 1.34924 33
0.33926 -2.26608 0.197408 4
2.22328 -6.60613 0.850352 33
0.338979 -2.2669 0.0393988 9
1.6692 -4.97494 0.273194 9
0.340746 -2.28151 -0.119461 8
1.66385 -4.96762 -0.0908398 50
0.340484 -2.28519 -0.278988 3
1.66264 -4.96119 -0.453828 45
0.339955 -2.28984 -0.442358 8
1.50599 -4.48488 -0.744666 9
0.340441 -2.30412 -0.614295 8
1.06372 -3.16143 -0.760869 4
1.66024 -4.97158 1.39322 4
2.19859 -6.61683 1.34733 35
0.328141 -2.27023 0.197626 4
2.18631 -6.61061 0.849439 33
0.328212 -2.27354 0.0394861 9
1.64313 -4.98361 0.273194 9
0.328441 -2.28079 -0.11933 9
1.63555 -4.96649 -0.0906652 45
0.328514 -2.28694 -0.278988 4
1.63664 -4.96983 -0.453828 45
0.327668 -2.28667 -0.441406 8
1.48714 -4.50677 -0.747015 8
0.327756 -2.29864 -0.612355 8
1.04869 -3.17158 -0.761993 8
1.65003 -4.96988 1.39192 4
2.18203 -6.60938 1.34495 33
0.324528 -2.27327 0.197844 4
2.17244 -6.60735 0.848526 33
0.322443 -2.26427 0.0393115 9
1.63287 -4.98173 0.272932 9
0.32306 -2.27147 -0.118804 9
1.62454 -4.96221 -0.0905344 45
0.324175 -2.28505 -0.278684 4
1.62641 -4.96794 -0.453393 45
0.322991 -2.28238 -0.440453 8
1.47696 -4.50232 -0.74584 8
0.323008 -2.29687 -0.611708 4
1.04086 -3.16647 -0.760308 8
1.63738 -5.02235 1.4042 8
2.14663 -6.61839 1.34447 35
0.31155 -2.27005 0.197408 8
2.13131 -6.60248 0.846396 33
0.310921 -2.2684 0.0393552 8
1.60053 -4.97386 0.272016 9
0.309477 -2.26076 -0.118148 9
1.59384 -4.95903 -0.0903162 44
0.311474 -2.28431 -0.27838 4
1.59885 -4.97165 -0.452958 45
0.311626 -2.29139 -0.441882 4
1.45488 -4.51469 -0.746623 8
0.310332 -2.29375 -0.610415 3
1.02597 -3.179 -0.761993 4
2.13131 -6.61045 1.34209 35
0.30792 -2.27306 0.197626 8
2.12018 -6.60346 0.846092 33
0.306961 -2.26894 0.0393552 8
1.595 -4.9835 0.272409 9
0.307194 -2.27367 -0.118804 8
1.58518 -4.9618 -0.0903162 45
0.308545 -2.28972 -0.278988 4
1.58789 -4.96732 -0.452306 45
0.306326 -2.2822 -0.439977 9
1.44398 -4.50782 -0.745057 8
0.307283 -2.30146 -0.612355 4
1.02172 -3.18293 -0.762554 4
2.09485 -6.61179 1.34018 33
0.29513 -2.26471 0.196754 8
2.08034 -6.59791 0.843962 33
0.295152 -2.26799 0.0393115 9
1.56363 -4.97511 0.271493 8
0.295042 -2.27025 -0.118542 9
1.55779 -4.96261 -0.0901853 45
0.295918 -2.28638 -0.27838 3
1.56048 -4.96817 -0.451653 45
0.294771 -2.28372 -0.439977 3
1.42258 -4.52238 -0.746232 4
0.2941 -2.29101 -0.609122 8
1.00357 -3.18359 -0.761431 4
2.08709 -6.58754 1.83974 1
2.08035 -6.60608 1.33828 33
0.291177 -2.26522 0.196754 11
2.06808 -6.59916 0.843658 33
0.290876 -2.26602 0.0392679 9
1.55569 -4.98022 0.271624 9
0.292659 -2.28314 -0.119198 9
1.54913 -4.96532 -0.0901853 45
0.292865 -2.29428 -0.279293 3
1.54883 -4.96138 -0.450784 45
0.29171 -2.29154 -0.441406 11
1.41764 -4.53428 -0.747798 8
0.290705 -2.29632 -0.610415 68
0.995818 -3.17837 -0.759746 4
2.0425 -6.5661 1.8307 1
2.04355 -6.60985 1.33685 33
0.278403 -2.2593 0.1961 8
2.0313 -6.60278 0.842745 35
0.280223 -2.27743 0.0394424 9
1.52959 -4.98829 0.271624 9
0.2807 -2.28464 -0.119198 3
1.51503 -4.94708 -0.0897054 44
0.281448 -2.30071 -0.279901 50
1.52283 -4.96942 -0.450784 47
0.280003 -2.29547 -0.441882 59
1.39243 -4.53692 -0.747015 4
0.278967 -2.3002 -0.611062 58
0.979882 -3.18586 -0.760308 4
2.02389 -6.54659 1.82424 1
2.02912 -6.60402 1.33494 33
0.274459 -2.25979 0.1961 8
2.01832 -6.60157 0.842137 35
0.276247 -2.27792 0.0394424 47
1.51797 -4.98141 0.2711 9
0.278504 -2.3 -0.119986 55
1.50713 -4.95211 -0.089749 45
0.276841 -2.29627 -0.279293 52
1.51343 -4.96968 -0.450566 45
0.275996 -2.29595 -0.441882 52
1.38812 -4.55115 -0.748972 8
0.275237 -2.30308 -0.611708 59
0.972174 -3.18058 -0.758623 4
1.98115 -6.52937 1.81648 1
1.9931 -6.60986 1.33399 35
0.262338 -2.25872 0.195883 8
1.97873 -6.59542 0.840007 35
0.265462 -2.28927 0.039617 53
1.49115 -4.98689 0.270969 11
0.265315 -2.29151 -0.119461 53
1.47687 -4.94557 -0.0894872 45
0.265097 -2.30015 -0.279597 52
1.48381 -4.96561 -0.449479 47
0.263135 -2.29005 -0.440453 52
1.36712 -4.56782 -0.750538 8
0.262902 -2.3021 -0.611062 59
0.959727 -3.19963 -0.761993 8
1.96556 -6.51895 1.8126 1
1.97944 -6.60628 1.33256 33
0.258677 -2.26165 0.1961 8
1.9665 -6.59648 0.839703 36
0.26203 -2.29469 0.0397042 55
1.47531 -4.96556 0.269661 9
0.262441 -2.30189 -0.119986 53
1.47038 -4.95532 -0.0896181 42
0.260247 -2.29321 -0.278684 53
1.47443 -4.96581 -0.449261 47
0.259687 -2.29538 -0.441406 52
1.36055 -4.57493 -0.751321 4
0.258615 -2.30015 -0.610415 59
0.952742 -3.19663 -0.760869 8
1.94033 -6.55925 1.821 1
1.94135 -6.60478 1.33017 33
0.246294 -2.25802 0.195665 9
1.92914 -6.59716 0.838486 36
0.249205 -2.28858 0.0395733 53
1.45139 -4.98041 0.270054 8
0.249447 -2.29831 -0.119723 53
1.4353 -4.93176 -0.0890509 4
0.24797 -2.29208 -0.27838 52
1.44614 -4.96893 -0.448826 47
0.247141 -2.29183 -0.440453 52
1.34074 -4.59621 -0.75367 4
0.246824 -2.30387 -0.611062 59
0.938053 -3.20858 -0.762554 4
1.9357 -6.58579 1.82747 1
1.92385 -6.59201 1.32684 33
0.241032 -2.24606 0.194575 9
1.91554 -6.59337 0.837573 36
0.245075 -2.29154 0.039617 55
1.43991 -4.97335 0.26953 8
0.245698 -2.30122 -0.119855 55
1.43227 -4.95346 -0.0893999 27
0.244231 -2.29497 -0.278684 53
1.43539 -4.96427 -0.448174 47
0.243398 -2.2947 -0.44093 52
1.33824 -4.61751 -0.756803 4
0.241898 -2.29954 -0.609768 59
0.931769 -3.20788 -0.761993 4
0.570179 -5.63851 1.29825 11
1.89736 -6.58689 1.82488 1
0.571429 -5.64116 0.890492 12
1.88795 -6.59727 1.32588 35
0.229127 -2.24981 0.194793 9
1.87916 -6.60126 0.837269 35
0.23257 -2.28782 0.0395297 55
1.41025 -4.97146 0.269007 8
0.233395 -2.3 -0.119723 55
1.40066 -4.94431 -0.0890945 45
0.23181 -2.29626 -0.278684 52
1.40733 -4.96453 -0.447522 47
0.230979 -2.29598 -0.44093 50
1.31269 -4.6197 -0.75602 4
0.229377 -2.29597 -0.608475 59
0.915739 -3.21756 -0.763116 4
0.561562 -5.64182 1.29881 11
1.87787 -6.56233 1.81713 1
0.564766 -5.66416 0.894004 12
1.87509 -6.59584 1.32493 35
0.2252 -2.25021 0.194793 9
1.86676 -6.59704 0.836356 35
0.228577 -2.28822 0.0395297 55
1.39904 -4.96166 0.268353 8
0.229381 -2.3004 -0.119723 55
1.39271 -4.94915 -0.0891382 45
0.227228 -2.28674 -0.277467 52
1.39663 -4.95979 -0.446869 47
0.226972 -2.29638 -0.44093 52
1.29857 -4.60061 -0.752496 4
0.225604 -2.29877 -0.609122 59
0.910017 -3.21665 -0.762554 4
1.8322 -6.52758 1.80485 1
1.8397 -6.59815 1.3235 35
0.213574 -2.24884 0.194575 9
1.82953 -6.59716 0.83514 35
0.217461 -2.29432 0.039617 56
1.3737 -4.97132 0.268483 9
0.2171 -2.29908 -0.119592 56
1.36364 -4.94169 -0.0888764 45
0.215713 -2.29284 -0.278076 55
1.36865 -4.95984 -0.446217 47
0.215118 -2.29506 -0.440453 52
1.27644 -4.61448 -0.75367 4
0.213966 -2.29988 -0.609122 59
0.891854 -3.21668 -0.761431 4
1.82535 -6.54705 1.80937 1
1.82571 -6.59694 1.32255 35
0.209419 -2.24673 0.194357 11
1.81669 -6.59556 0.834531 35
0.212826 -2.29225 0.0395733 56
1.3637 -4.96889 0.268222 9
0.213316 -2.30194 -0.119723 56
1.35832 -4.95611 -0.0890945 45
0.211938 -2.29569 -0.27838 53
1.35999 -4.96222 -0.446217 47
0.210889 -2.29299 -0.439977 52
1.26839 -4.6167 -0.75367 8
0.208897 -2.29307 -0.607182 59
0.884938 -3.21353 -0.760308 4
1.79947 -6.59177 1.81907 1
1.78921 -6.59931 1.32112 36
0.197692 -2.25279 0.194793 11
1.7758 -6.58613 0.832097 33
0.201038 -2.29582 0.039617 58
1.3355 -4.97138 0.26796 9
0.201044 -2.30054 -0.119592 58
1.32889 -4.95373 -0.08892 45
0.1993 -2.29433 -0.278076 55
1.3314 -4.95965 -0.445347 47
0.198269 -2.29165 -0.439501 52
1.24162 -4.61374 -0.752104 8
0.197093 -2.29654 -0.607829 59
0.870088 -3.22768 -0.762554 4
1.77592 -6.55063 1.80679 1
1.77514 -6.59294 1.31921 36
0.193336 -2.24817 0.194357 11
1.76481 -6.58651 0.831793 32
0.197031 -2.29617 0.039617 58
1.33092 -4.98553 0.268614 9
0.197028 -2.30089 -0.119592 56
1.31895 -4.95121 -0.0888327 45
0.195487 -2.29217 -0.277771 55
1.31759 -4.94272 -0.443608 45
0.194681 -2.29688 -0.440453 50
1.2342 -4.61829 -0.752496 4
0.193084 -2.29688 -0.607829 59
0.86375 -3.22434 -0.761431 4
1.75518 -6.6062 1.81971 12
1.74049 -6.5971 1.31826 35
0.182353 -2.25408 0.194793 11
1.7303 -6.59566 0.831793 30
0.185207 -2.29465 0.0395733 59
1.30099 -4.97794 0.267829 9
0.184581 -2.29691 -0.11933 58
1.29324 -4.95541 -0.0887891 45
0.183679 -2.29563 -0.278076 55
1.29359 -4.95678 -0.44426 42
0.182666 -2.29295 -0.439501 52
1.20812 -4.61752 -0.751321 4
0.181645 -2.30024 -0.608475 59
0.36715 -4.67843 1.07364 1
1.72759 -6.54855 1.80291 1
1.72533 -6.59093 1.31635 35
0.178224 -2.25192 0.194575 11
0.180996 -2.29749 0.039617 61
1.28412 -4.9488 0.266128 8
0.180766 -2.29972 -0.119461 59
1.27893 -4.93588 -0.0883964 11
0.179672 -2.29595 -0.278076 55
1.26926 -4.89877 -0.438824 2
0.178853 -2.29571 -0.439977 52
1.1957 -4.6029 -0.748581 4
0.176861 -2.29577 -0.607182 59
0.338474 -4.63418 1.06297 3
1.68608 -6.53442 1.79645 1
0.1664 -2.25781 0.195011 11
0.1686 -2.29342 0.0395297 67
1.24624 -4.91212 0.263773 2
0.168541 -2.29815 -0.11933 61
1.24604 -4.91851 -0.0879601 2
0.16689 -2.29194 -0.277467 56
1.24236 -4.90052 -0.438389 2
0.165902 -2.2893 -0.438549 52
1.16895 -4.60212 -0.747406 4
0.164495 -2.29184 -0.605889 61
0.162282 -2.25562 0.194793 11
0.164952 -2.2987 0.039617 67
1.24317 -4.93607 0.264951 2
0.164 -2.29097 -0.118936 61
0.162889 -2.29223 -0.277467 55
1.23808 -4.91959 -0.439911 2
0.162249 -2.29448 -0.439501 52
1.16091 -4.60416 -0.747406 4
0.160662 -2.29454 -0.606535 59
1.22489 -4.92545 0.978924 2
0.150699 -2.25393 0.194575 11
0.152821 -2.29202 0.0394861 70
0.152895 -2.29924 -0.11933 64
0.150961 -2.28807 -0.276859 56
0.150634 -2.29527 -0.439501 52
1.13641 -4.60518 -0.746623 3
0.148891 -2.29291 -0.605889 59
0.367969 -5.69925 1.30836 1
1.2241 -4.92249 1.34798 1
1.21275 -4.91329 0.976065 2
0.146925 -2.25667 0.194793 11
0.14882 -2.29228 0.0394861 77
0.148402 -2.29203 -0.118936 64
0.14744 -2.29576 -0.277771 56
0.146318 -2.29063 -0.438549 52
0.144889 -2.29317 -0.605889 61
0.337701 -5.71088 1.3106 3
1.19773 -4.92649 1.34734 2
0.135402 -2.26238 0.195229 12
0.136668 -2.29054 0.0394424 77
0.135706 -2.28781 -0.118673 61
0.135273 -2.29402 -0.277467 58
0.13418 -2.28892 -0.438073 52
0.132742 -2.29148 -0.605242 61
0.326343 -5.68714 1.30499 1
0.131024 -2.25515 0.194575 12
0.132271 -2.29079 0.0394424 80
0.131713 -2.28805 -0.118673 62
0.131269 -2.29425 -0.277467 58
0.130185 -2.28915 -0.438073 52
0.128075 -2.28691 -0.603949 61
0.297455 -5.72532 1.31341 1
0.118691 -2.25334 0.194357 12
0.120274 -2.29145 0.0394424 79
0.119602 -2.28621 -0.118542 65
0.118854 -2.29493 -0.277467 56
0.117922 -2.29227 -0.438549 52
0.116704 -2.29961 -0.607182 59
0.288827 -5.73308 1.3151 3
0.289003 -5.73683 0.902198 12
0.114633 -2.25106 0.194139 12
0.116275 -2.29166 0.0394424 83
0.115736 -2.28891 -0.118673 65
0.114604 -2.29018 -0.276859 56
0.114162 -2.29738 -0.439501 52
0.112223 -2.29016 -0.604595 61
0.262616 -5.81967 0.915076 21
0.102957 -2.25412 0.194357 12
0.104162 -2.28974 0.0393988 88
0.103639 -2.28699 -0.118542 67
0.102501 -2.28827 -0.276554 55
0.101809 -2.29059 -0.438073 52
0.100231 -2.29072 -0.604595 61
0.242667 -5.59315 0.879175 27
0.099023 -2.25429 0.194357 14
0.100381 -2.29491 0.0394861 90
0.0998613 -2.29216 -0.118804 74
0.496828 -2.25011 -0.039617 12
0.0986126 -2.29092 -0.276859 58
0.501377 -2.26871 -0.199841 8
0.0978108 -2.29076 -0.438073 52
0.498247 -2.24928 -0.359804 4
0.0963322 -2.2933 -0.605242 61
0.211245 -5.56337 1.27523 23
0.212443 -5.56967 0.875273 29
0.0876919 -2.26722 0.195447 14
0.487025 -2.25058 0.278076 9
0.0880796 -2.28791 0.0393552 86
0.483106 -2.24006 0.118279 8
0.0878583 -2.29265 -0.118804 77
0.484509 -2.25024 -0.0395733 9
0.0864316 -2.28645 -0.27625 58
0.488962 -2.26887 -0.199623 8
0.0859055 -2.29369 -0.438549 52
0.487909 -2.2566 -0.360587 8
0.0841488 -2.28895 -0.603949 61
0.486972 -2.24311 -0.521097 4
0.192562 -5.2886 1.21178 1
0.204591 -5.59467 0.879175 18
0.0833732 -2.25742 0.194575 14
0.484015 -2.25376 0.27838 8
0.0842669 -2.29306 0.0394424 90
0.480114 -2.24325 0.11841 9
0.0839465 -2.29529 -0.118936 79
0.479 -2.24375 -0.0394424 9
0.0829283 -2.28906 -0.276554 58
0.482899 -2.25998 -0.198754 9
0.081816 -2.29139 -0.438073 52
0.483447 -2.25503 -0.360196 9
0.0800706 -2.28668 -0.603302 61
0.483966 -2.24626 -0.521659 9
0.177595 -5.66971 0.890882 26
0.0721019 -2.26279 0.195011 14
0.471694 -2.25384 0.278076 9
0.0725044 -2.28846 0.0393552 90
0.467332 -2.24085 0.118148 11
0.0719272 -2.2957 -0.118936 85
0.468152 -2.2486 -0.0394861 9
0.0710171 -2.29194 -0.276859 59
0.469521 -2.25517 -0.198101 8
0.0701436 -2.28932 -0.437596 52
0.471124 -2.25512 -0.359804 3
0.0686373 -2.29188 -0.604595 61
0.473209 -2.25353 -0.522782 4
0.167635 -5.70134 1.30667 32
0.159157 -5.37876 0.844835 1
0.068079 -2.26042 0.194793 14
0.46776 -2.25466 0.278076 8
0.0681107 -2.2886 0.0393552 90
0.463931 -2.24411 0.118279 8
0.0678481 -2.29333 -0.118804 85
0.462695 -2.24207 -0.0393552 9
0.0670878 -2.29454 -0.277163 59
0.463551 -2.24623 -0.197231 9
0.0661479 -2.28944 -0.437596 52
0.466681 -2.25352 -0.359413 3
0.0643033 -2.29442 -0.605242 61
0.466768 -2.24243 -0.519974 3
0.136727 -5.69973 1.30611 23
0.137492 -5.69059 0.894004 32
0.055968 -2.26574 0.195229 14
0.454562 -2.2523 0.277467 9
0.0562463 -2.29392 0.0394424 90
0.450788 -2.24169 0.118018 8
0.0557801 -2.29116 -0.118673 90
0.449564 -2.23964 -0.0392679 9
0.0546722 -2.29487 -0.277163 58
0.452279 -2.25107 -0.197449 9
0.053816 -2.29222 -0.438073 52
0.454875 -2.25593 -0.359413 3
0.0519678 -2.28024 -0.601362 64
0.454628 -2.24492 -0.519974 3
0.127126 -5.67071 1.29937 17
0.128332 -5.68092 0.892443 26
0.0520135 -2.26583 0.195229 15
0.450532 -2.25057 0.277163 8
0.0521872 -2.29152 0.0393988 90
0.446773 -2.23995 0.117887 8
0.0518361 -2.29375 -0.118804 90
0.447133 -2.24777 -0.0393988 8
0.0510136 -2.29248 -0.276859 61
0.447858 -2.24941 -0.197231 8
0.049608 -2.28249 -0.436168 52
0.449471 -2.24946 -0.358238 3
0.0480372 -2.28274 -0.602009 64
0.453041 -2.25518 -0.52222 3
0.0967728 -5.63233 1.29039 14
0.0976984 -5.62967 0.884248 17
0.0404584 -2.26109 0.194793 15
0.437303 -2.2456 0.27625 4
0.0406309 -2.29425 0.0394424 90
0.436 -2.24716 0.118148 8
0.0396581 -2.284 -0.118279 90
0.434789 -2.2451 -0.0393115 9
0.0390096 -2.29271 -0.276859 61
0.436074 -2.25172 -0.197231 8
0.038094 -2.28517 -0.436644 53
0.435305 -2.23967 -0.356281 3
0.0364827 -2.28296 -0.602009 59
0.439337 -2.24796 -0.519974 3
0.0862026 -5.58377 1.27916 14
0.0875693 -5.61008 0.881126 30
0.0364733 -2.25866 0.194575 17
0.432433 -2.24149 0.275642 4
0.0361503 -2.28932 0.0393552 90
0.428742 -2.23076 0.117233 9
0.0357466 -2.28906 -0.118542 90
0.43087 -2.24586 -0.0393115 9
0.0349353 -2.28781 -0.27625 59
0.431669 -2.25004 -0.197014 8
0.0341407 -2.28768 -0.43712 52
0.432812 -2.2477 -0.357455 4
0.0321321 -2.28544 -0.602656 62
0.434945 -2.24634 -0.519413 4
0.056038 -5.58903 1.28028 20
0.0572638 -5.61541 0.881907 30
0.0242775 -2.26132 0.194793 20
0.420761 -2.24623 0.275946 4
0.024163 -2.28948 0.0393552 91
0.416667 -2.23305 0.117233 11
0.0237851 -2.29171 -0.118673 90
0.417324 -2.24079 -0.0391806 9
0.0225336 -2.28549 -0.275946 58
0.418036 -2.24248 -0.196144 8
0.0216972 -2.28047 -0.435692 53
0.419659 -2.24265 -0.356281 8
0.0201255 -2.28075 -0.601362 64
0.42233 -2.24626 -0.518851 4
0.0473586 -5.60129 1.28309 18
0.0485672 -5.63031 0.884248 30
0.0202472 -2.2514 0.193922 21
0.416316 -2.24201 0.275337 4
0.020167 -2.28952 0.0393552 95
0.414077 -2.23861 0.117494 15
0.0197853 -2.29175 -0.118673 90
0.41112 -2.22922 -0.0389625 9
0.0189626 -2.288 -0.27625 62
0.413664 -2.24076 -0.195927 9
0.0177346 -2.28296 -0.436168 53
0.414834 -2.23853 -0.355498 4
0.0161761 -2.28561 -0.602656 64
0.417898 -2.24214 -0.517728 4
0.018066 -5.61364 1.2859 15
0.0181245 -5.32428 0.83586 1
0.00886821 -2.25645 0.194357 23
0.404126 -2.24172 0.275033 4
0.00857851 -2.28959 0.0393552 95
0.40235 -2.24074 0.117494 17
0.00778551 -2.29182 -0.118673 90
0.400278 -2.23374 -0.0390061 9
0.00698243 -2.28807 -0.27625 61
0.402815 -2.24779 -0.196362 9
0.00618441 -2.28548 -0.436644 53
0.405319 -2.25282 -0.357455 8
0.00459728 -2.27841 -0.600716 61
0.40703 -2.24909 -0.518851 4
0.00802424 -5.4139 1.23985 1
0.00492213 -2.25148 0.193922 23
0.399771 -2.23998 0.274729 8
0.00418279 -2.28961 0.0393552 90
0.398881 -2.2439 0.117625 15
0.00378551 -2.29183 -0.118673 90
0.396378 -2.23443 -0.0390061 11
0.00298726 -2.2856 -0.275946 64
0.398891 -2.24849 -0.196362 11
0.00219292 -2.27812 -0.435216 53
0.400949 -2.25109 -0.357064 8
0.000220504 -2.28325 -0.602009 64
0.404408 -2.25699 -0.520536 4
-0.0213392 -5.43092 1.24378 1
-0.00728825 -2.25895 0.194575 24
0.387218 -2.23967 0.274425 9
-0.00779552 -2.2871 0.0393115 96
0.386305 -2.24356 0.117494 14
-0.00820403 -2.28932 -0.118542 90
0.386426 -2.24886 -0.0392243 12
-0.00940238 -2.29054 -0.276554 65
0.390531 -2.27018 -0.198101 11
-0.0101701 -2.28546 -0.436644 53
0.390858 -2.26289 -0.35863 8
-0.0117484 -2.28563 -0.602656 61
0.392191 -2.25914 -0.520536 4
-0.0314275 -5.70128 1.30611 23
-0.030504 -5.71192 0.897125 36
-0.011203 -2.25395 0.194139 24
0.3837 -2.24027 0.274425 9
-0.011816 -2.29208 0.0393988 97
0.384481 -2.25401 0.118018 12
-0.01217 -2.28431 -0.118279 90
0.381652 -2.2446 -0.039137 11
-0.0130003 -2.29053 -0.276554 62
0.385722 -2.26595 -0.197666 11
-0.014159 -2.28544 -0.436644 53
0.387329 -2.266 -0.359021 8
-0.0157195 -2.2832 -0.602009 64
0.390732 -2.27175 -0.523343 4
-0.0611448 -5.68886 1.3033 21
-0.0601705 -5.68946 0.893613 29
-0.0226111 -2.25386 0.194139 27
0.373609 -2.25204 0.275642 4
-0.023363 -2.28699 0.0393115 97
0.373497 -2.26092 0.118279 12
-0.0237318 -2.28422 -0.118279 90
0.371933 -2.25637 -0.0393115 11
-0.0249075 -2.28298 -0.275642 62
0.377944 -2.28998 -0.199623 8
-0.025639 -2.27798 -0.435216 53
0.379135 -2.28991 -0.362545 8
-0.0272148 -2.27826 -0.600716 64
0.37721 -2.26416 -0.521097 3
-0.0698665 -5.67171 1.29937 15
-0.0698211 -5.66713 0.890101 26
-0.0265448 -2.25382 0.194139 24
0.370085 -2.25514 0.275946 4
-0.0274173 -2.29194 0.0393988 98
0.37159 -2.27388 0.118933 9
-0.027782 -2.28917 -0.118542 90
0.367994 -2.25701 -0.0393115 9
-0.0289908 -2.29038 -0.276554 62
0.372321 -2.28081 -0.198754 9
-0.0296482 -2.28038 -0.435692 53
0.374329 -2.2857 -0.361762 4
-0.0312256 -2.28062 -0.601362 64
0.374461 -2.27202 -0.522782 4
-0.100879 -5.63469 1.29095 14
-0.099905 -5.63457 0.885029 21
-0.0386057 -2.24617 0.193486 24
0.35906 -2.26445 0.276859 9
-0.0397276 -2.28676 0.0393115 98
0.358493 -2.27093 0.118672 8
-0.0400312 -2.2815 -0.118148 90
0.357353 -2.26884 -0.0394861 9
-0.0412898 -2.28523 -0.275946 67
0.360369 -2.28525 -0.198971 8
-0.0419391 -2.27774 -0.435216 53
0.363922 -2.29738 -0.363328 4
-0.0433263 -2.26835 -0.598129 62
0.362551 -2.27642 -0.523343 4
-0.109105 -5.60286 1.28365 14
-0.108128 -5.60231 0.879956 17
-0.0426233 -2.25108 0.193922 27
0.355892 -2.26747 0.277163 8
-0.0438173 -2.29169 0.0393988 98
0.354925 -2.27149 0.118672 8
-0.0441622 -2.28891 -0.118542 90
0.352224 -2.26206 -0.0393552 9
-0.0449296 -2.28764 -0.27625 65
0.354825 -2.27603 -0.198101 8
-0.0460164 -2.28257 -0.436168 53
0.356814 -2.2785 -0.360196 4
-0.0474408 -2.27551 -0.600069 61
0.357822 -2.26977 -0.521659 8
-0.137589 -5.56812 1.27579 15
-0.137277 -5.59426 0.878785 24
-0.0542003 -2.25831 0.194575 27
0.344769 -2.2742 0.277771 4
-0.0554779 -2.29394 0.0394424 100
0.342271 -2.26838 0.11841 8
-0.0556845 -2.28616 -0.118411 90
0.341524 -2.26875 -0.0394424 9
-0.0567805 -2.28241 -0.275642 62
0.3433 -2.2778 -0.198101 8
-0.0575689 -2.28231 -0.436168 53
0.343382 -2.27058 -0.35863 4
-0.0588935 -2.27283 -0.599422 61
0.346676 -2.27643 -0.522782 8
-0.146658 -5.58007 1.2786 14
-0.147826 -5.62363 0.883468 23
-0.0579448 -2.25074 0.193922 27
0.339308 -2.26499 0.276554 4
-0.0594815 -2.29384 0.0394424 99
0.339432 -2.27638 0.118803 8
-0.0597411 -2.28856 -0.118542 90
0.336445 -2.26193 -0.0393115 9
-0.060764 -2.28231 -0.275642 67
0.337464 -2.26608 -0.197014 9
-0.0614845 -2.27975 -0.435692 53
0.338678 -2.26629 -0.357847 8
-0.0629968 -2.27755 -0.600716 61
0.341232 -2.2674 -0.520536 4
-0.178092 -5.61816 1.28758 15
-0.178759 -5.66968 0.890882 26
-0.0698075 -2.2529 0.194139 29
0.328524 -2.2741 0.277467 4
-0.0714911 -2.29349 0.0394424 100
0.326787 -2.27318 0.118541 8
-0.0716434 -2.28572 -0.118411 90
0.325677 -2.27108 -0.0394424 11
-0.0729549 -2.2894 -0.276554 64
0.325594 -2.26782 -0.197014 9
-0.0733398 -2.27694 -0.435216 53
0.325736 -2.2607 -0.356672 9
-0.074921 -2.27719 -0.600716 61
0.330775 -2.27879 -0.522782 4
-0.188875 -5.6763 1.30106 20
-0.189978 -5.70884 0.897125 35
-0.0737394 -2.25277 0.194139 29
0.323487 -2.2673 0.276554 4
-0.0754939 -2.29337 0.0394424 99
0.321039 -2.26139 0.117887 8
-0.0758008 -2.29058 -0.118673 91
0.321357 -2.26917 -0.0393988 11
-0.0767808 -2.28431 -0.275946 65
0.321636 -2.26838 -0.197014 9
-0.0775681 -2.28417 -0.436644 53
0.32179 -2.26127 -0.356672 9
-0.0788102 -2.27464 -0.600069 61
0.326096 -2.27455 -0.521659 4
-0.219963 -5.68494 1.3033 17
-0.219867 -5.70777 0.897125 17
-0.0854378 -2.24986 0.193922 29
0.310926 -2.26405 0.275946 4
-0.0875009 -2.29294 0.0394424 99
0.308851 -2.26057 0.117756 8
-0.0880953 -2.28764 -0.118542 90
0.309129 -2.26835 -0.0393552 9
-0.0886424 -2.2814 -0.275642 67
0.309699 -2.27256 -0.197231 8
-0.0894292 -2.28128 -0.436168 53
0.311646 -2.27515 -0.35863 8
-0.0911101 -2.28385 -0.602656 62
0.31452 -2.27863 -0.52222 3
-0.22523 -5.57014 1.27691 12
-0.22603 -5.61362 0.882297 20
-0.089264 -2.24722 0.193704 29
0.307989 -2.27196 0.276859 8
-0.0918012 -2.29027 0.0393988 99
0.304566 -2.25863 0.117625 8
-0.0920878 -2.28749 -0.118542 91
0.306185 -2.27631 -0.0394861 9
-0.0924197 -2.27628 -0.275033 62
0.305395 -2.27063 -0.197014 9
-0.0932068 -2.27622 -0.435216 53
0.308347 -2.28058 -0.359413 8
-0.0952899 -2.27884 -0.601362 64
0.309875 -2.27435 -0.521097 4
-0.255476 -5.57127 1.27747 17
-0.256626 -5.61725 0.883077 26
-0.101763 -2.25417 0.194357 27
-0.103906 -2.29225 0.0394424 100
0.293318 -2.26767 0.118018 9
-0.104064 -2.28697 -0.118542 91
0.293214 -2.27298 -0.0393988 9
-0.10485 -2.27823 -0.275337 61
0.294475 -2.2796 -0.197666 8
-0.105636 -2.27813 -0.435692 53
0.296725 -2.28461 -0.359804 2
-0.107105 -2.2759 -0.600716 59
0.297886 -2.27841 -0.521659 3
-0.265504 -5.59763 1.28365 15
-0.265566 -5.61931 0.883468 27
-0.105579 -2.2515 0.194139 26
-0.108026 -2.29457 0.0394861 100
0.289755 -2.26813 0.118018 8
-0.108055 -2.28679 -0.118542 90
0.290209 -2.28092 -0.0395297 3
-0.108667 -2.28301 -0.275946 64
0.292095 -2.29246 -0.198754 11
-0.109731 -2.28039 -0.436168 53
0.293056 -2.28758 -0.360196 14
-0.11072 -2.26847 -0.598776 61
0.294624 -2.28129 -0.52222 20
-0.293006 -5.56211 1.27579 17
-0.293034 -5.58085 0.877614 29
0.283008 -2.27246 0.43799 3
-0.116973 -2.25094 0.194139 27
-0.119375 -2.289 0.0393988 99
0.279727 -2.28448 0.118803 12
-0.119895 -2.2837 -0.118411 90
0.27866 -2.28236 -0.0395297 30
-0.120752 -2.28489 -0.27625 65
0.279474 -2.28902 -0.198319 42
-0.121008 -2.27491 -0.435216 53
0.281992 -2.29643 -0.36137 45
-0.122726 -2.27753 -0.601362 64
0.283588 -2.29005 -0.523905 45
-0.300186 -5.51537 1.26512 18
-0.303311 -5.59019 0.879175 18
0.279859 -2.28274 0.439896 3
-0.120767 -2.24825 0.193922 23
-0.123906 -2.29126 0.0394424 99
0.275739 -2.28497 0.118803 45
-0.124154 -2.28847 -0.118673 90
0.276195 -2.29525 -0.0397479 50
-0.12474 -2.28468 -0.27625 65
0.276992 -2.30186 -0.199406 49
-0.125251 -2.27959 -0.436168 53
0.277078 -2.28957 -0.360196 45
-0.127234 -2.2797 -0.602009 64
0.279591 -2.29055 -0.523905 45
-0.34084 -5.69361 1.30667 21
-0.340939 -5.71172 0.898686 33
0.267321 -2.2793 0.438943 8
-0.133078 -2.25004 0.194139 20
-0.135901 -2.29058 0.0394424 98
0.264536 -2.29634 0.119326 49
-0.135835 -2.2828 -0.118411 90
0.263482 -2.29423 -0.0397042 50
-0.137099 -2.28397 -0.27625 64
0.264067 -2.29586 -0.198754 49
-0.137284 -2.27398 -0.435216 53
0.265552 -2.29839 -0.36137 45
-0.138723 -2.27177 -0.600069 59
0.266907 -2.28961 -0.523343 45
-0.333583 -5.43047 1.24603 1
-0.349539 -5.68893 0.895174 32
0.264203 -2.28707 0.440373 8
-0.137463 -2.25727 0.194793 18
-0.139745 -2.28785 0.0393988 98
0.260528 -2.2968 0.119326 49
-0.139973 -2.28506 -0.118542 90
0.259478 -2.29469 -0.0397042 52
-0.141085 -2.28373 -0.27625 65
0.260345 -2.29879 -0.198971 49
-0.141714 -2.28109 -0.436644 52
0.261256 -2.2964 -0.360979 47
-0.142688 -2.27153 -0.600069 65
0.26291 -2.29007 -0.523343 45
-0.377012 -5.65253 0.889711 24
0.252772 -2.2933 0.441326 4
-0.149114 -2.25403 0.194575 15
-0.151722 -2.28708 0.0393988 98
0.248224 -2.29565 0.119195 49
-0.151434 -2.27682 -0.118148 90
0.247186 -2.29353 -0.0396606 52
-0.153041 -2.28296 -0.27625 64
0.248305 -2.30012 -0.198971 49
