# .PCD v0.7 - Point Cloud Data file format
VERSION 0.7
FIELDS x y z intensity
SIZE 4 4 4 4
TYPE F F F F
COUNT 1 1 1 1
WIDTH 1619
HEIGHT 1
VIEWPOINT 0 0 0 1 0 0 0
POINTS 1619
DATA ascii
-1.40931 0.668259 0.0266149 8
-2.76775 0.76213 0.148634 90
-0.622831 0.294741 -0.0343942 56
-1.40106 0.665531 -0.185891 4
-0.637464 0.179596 -0.0547986 56
-1.25734 0.597633 -0.26332 4
-0.960539 0.456996 -0.275463 4
-0.765559 0.213324 -0.175197 50
-2.65906 1.26846 0.671025 59
-2.7172 0.742297 0.744428 45
-2.64833 1.26277 0.458123 58
-2.73795 0.753519 0.544747 52
-1.44369 0.687379 0.136835 4
-2.75273 0.761142 0.345921 62
-1.41254 0.673118 0.0267022 4
-2.76401 0.766297 0.148503 68
-0.622315 0.295827 -0.0343942 56
-1.39766 0.666905 -0.185587 4
-0.632348 0.179384 -0.0543637 55
-1.25851 0.600886 -0.263796 3
-0.966192 0.461973 -0.277403 4
-0.762836 0.214016 -0.174635 49
-2.65436 1.28389 0.671587 61
-2.71082 0.756343 0.743782 49
-2.64812 1.28031 0.459294 59
-2.7316 0.767185 0.544271 49
-1.44219 0.696265 0.137052 4
-2.73902 0.773343 0.344704 90
-1.41124 0.681594 0.0267458 4
-2.75982 0.78124 0.148503 59
-0.618511 0.297993 -0.0342629 58
-1.40296 0.678788 -0.186804 4
-0.6314 0.182692 -0.0543637 55
-1.25745 0.608758 -0.264272 3
-0.959417 0.464914 -0.276109 4
-0.759321 0.217484 -0.174073 47
-2.65672 1.29018 0.67271 62
-2.70484 0.759775 0.742489 47
-2.65033 1.28709 0.460074 61
-2.73262 0.772615 0.544747 49
-1.44097 0.698781 0.137052 4
-2.74722 0.78082 0.345921 68
-1.40556 0.68187 0.0266585 4
-2.76326 0.787416 0.148765 73
-0.620235 0.300165 -0.0343942 56
-1.39731 0.679063 -0.186195 4
-0.635872 0.185152 -0.0547986 55
-1.25638 0.610952 -0.264272 3
-0.962944 0.468707 -0.277403 4
-2.6543 1.30623 0.673833 71
-2.70328 0.774117 0.743135 49
-2.64821 1.30267 0.460855 67
-2.72395 0.785085 0.543794 50
-1.43742 0.706066 0.137052 4
-2.73846 0.793342 0.345313 53
-1.40209 0.688976 0.0266585 4
-2.75924 0.801392 0.148765 90
-1.39831 0.688322 -0.186804 4
-0.634927 0.188368 -0.0547986 56
-1.24887 0.61513 -0.26332 3
-0.960559 0.473575 -0.277403 4
-2.65661 1.31256 0.674956 82
-2.70425 0.779498 0.743782 49
-2.65036 1.30948 0.461635 77
-2.7273 0.791197 0.544747 50
-1.42949 0.705262 0.136399 4
-2.72992 0.796049 0.3444 49
-1.4076 0.694746 0.0267894 4
-2.75783 0.806207 0.148765 90
-1.39266 0.688558 -0.186195 4
-0.634597 0.189476 -0.0547986 55
-1.25 0.618399 -0.263796 3
-0.966219 0.478475 -0.279342 4
-2.65164 1.328 0.675517 86
-2.69781 0.79297 0.743135 47
-2.65009 1.32666 0.462806 88
-2.71605 0.80339 0.543317 49
-1.43468 0.717199 0.13727 4
-2.72572 0.810332 0.3444 49
-1.40171 0.700987 0.0267458 4
-2.74879 0.819217 0.148503 61
-0.621039 0.30985 -0.0346568 58
-1.39347 0.698067 -0.186804 4
-0.628821 0.19138 -0.0543637 55
-1.24455 0.623834 -0.26332 3
-0.957229 0.48027 -0.277403 4
-2.62562 1.32012 0.669341 36
-2.70106 0.799039 0.744428 47
-2.62792 1.32129 0.459294 45
-2.71229 0.807433 0.542841 49
-1.4312 0.718582 0.137052 4
-2.7243 0.815087 0.3444 49
-1.40272 0.704556 0.0267894 4
-2.73539 0.820447 0.147849 49
-0.624957 0.313179 -0.0349193 58
-1.38339 0.696029 -0.185587 4
-0.635646 0.194613 -0.055016 53
-1.24565 0.627111 -0.263796 3
-0.9607 0.484119 -0.278696 4
-2.59891 1.32434 0.664287 33
-2.69915 0.813864 0.745074 47
-2.60556 1.32718 0.456562 35
-2.71508 0.823749 0.544271 49
-1.4252 0.724935 0.136835 4
-2.71999 0.829341 0.3444 55
-1.40124 0.713027 0.0268331 4
-0.616582 0.313151 -0.0345255 58
-1.37751 0.702134 -0.185282 4
-0.634584 0.19805 -0.055016 53
-1.23579 0.630272 -0.262367 3
-0.951704 0.48584 -0.276756 4
-2.57708 1.31888 0.659233 33
-2.69541 0.817877 0.744428 45
-2.57687 1.31822 0.45188 33
-2.71114 0.828247 0.543794 49
-1.42615 0.728556 0.137052 4
-2.71379 0.832639 0.343792 90
-1.39987 0.715716 0.0268331 4
-0.620478 0.316504 -0.034788 56
-1.38733 0.710201 -0.186804 4
-0.629474 0.197699 -0.0545811 53
-1.23469 0.632428 -0.262367 3
-0.950769 0.487666 -0.276756 4
-2.54829 1.32158 0.653618 33
-2.69557 0.833868 0.74572 49
-2.54997 1.3219 0.448368 33
-2.70677 0.842431 0.543794 47
-1.42882 0.739703 0.137706 4
-2.71162 0.848046 0.344096 50
-1.40054 0.725339 0.0269203 4
-0.618812 0.319749 -0.034788 58
-1.38126 0.716552 -0.186499 4
-0.630808 0.201733 -0.0547986 53
-1.23778 0.642498 -0.263796 3
-0.94392 0.490405 -0.275463 4
-2.52677 1.31544 0.648564 33
-2.69411 0.838571 0.74572 50
-2.52599 1.31449 0.444465 32
-2.71232 0.849342 0.545224 47
-1.42532 0.741045 0.137488 4
-2.71265 0.853045 0.3444 47
-1.39262 0.724316 0.0267894 4
-0.620467 0.321983 -0.0349193 56
-1.38013 0.718721 -0.186499 4
-0.630455 0.202834 -0.0547986 53
-1.23666 0.644657 -0.263796 3
-1.98274 0.625644 -0.324176 14
-0.951621 0.496532 -0.278049 4
-2.50045 1.31842 0.64351 33
-2.69443 0.853647 0.747013 49
-2.50816 1.32194 0.442514 32
-2.71033 0.863801 0.5457 49
-1.41714 0.745925 0.137052 4
-2.71051 0.86799 0.344704 47
-1.39336 0.733688 0.0268767 4
-0.616565 0.324061 -0.034788 56
-1.37196 0.723618 -0.185891 4
-0.636501 0.208406 -0.0554509 50
-1.22904 0.648613 -0.262844 3
-1.97709 0.635267 -0.323785 12
-0.951229 0.502473 -0.278696 4
-2.47878 1.31251 0.638457 35
-2.68603 0.85616 0.745074 49
-2.48185 1.3136 0.438222 33
-2.70867 0.869003 0.5457 50
-2.70899 0.872719 0.344704 47
-1.38974 0.735191 0.0268331 4
-0.618204 0.326307 -0.0349193 56
-1.37727 0.729502 -0.186804 4
-0.631394 0.207993 -0.055016 45
-1.23007 0.651908 -0.26332 3
-1.96892 0.636455 -0.32261 14
-0.950263 0.504298 -0.278696 4
-2.45662 1.31783 0.634526 35
-2.68366 0.871422 0.74572 45
-2.46165 1.32 0.43588 33
-2.70174 0.882416 0.545224 50
-2.70659 0.888133 0.345008 47
-1.38146 0.740093 0.0267458 4
-0.618686 0.33072 -0.0350506 56
-1.36894 0.734592 -0.186195 4
-0.632664 0.21207 -0.0552335 45
-1.22005 0.655065 -0.261891 3
-1.96791 0.647522 -0.323002 14
-0.951861 0.511559 -0.279989 4
-2.43524 1.31129 0.629472 35
-2.67524 0.873867 0.743782 45
-2.43783 1.31215 0.431978 35
-2.70253 0.887892 0.5457 52
-2.70755 0.893157 0.345313 47
-1.39117 0.748434 0.026964 4
-0.618108 0.3318 -0.0350506 56
-1.37215 0.739099 -0.186804 4
-0.629927 0.212396 -0.055016 36
-1.21674 0.656026 -0.261415 3
-1.95974 0.648645 -0.321827 14
-0.946719 0.51092 -0.278696 4
-2.41552 1.31702 0.626103 36
-2.6662 0.885882 0.742489 45
-2.41359 1.31543 0.428856 35
-2.69335 0.900011 0.544747 49
-2.70284 0.907321 0.345313 49
-1.37859 0.750676 0.0267894 4
-0.616362 0.335031 -0.0350506 56
-1.36608 0.745083 -0.186499 4
-0.628806 0.215691 -0.055016 29
-1.21341 0.662176 -0.261415 3
-1.95163 0.657331 -0.321044 14
-0.948356 0.518026 -0.279989 4
-2.39826 1.31303 0.622172 35
-2.66465 0.890534 0.742489 47
-2.39396 1.31015 0.425735 35
-2.68929 0.904402 0.544271 45
-2.7036 0.912827 0.345617 96
-1.37714 0.753322 0.0267894 4
-0.613588 0.334906 -0.0349193 56
-1.3626 0.746273 -0.186195 4
-0.628429 0.216788 -0.055016 24
-1.20364 0.659567 -0.25951 3
-1.94814 0.65995 -0.320653 14
-0.94736 0.519845 -0.279989 4
-2.37408 1.31653 0.61768 36
-2.65751 0.904164 0.741843 49
-2.36957 1.3135 0.422613 35
-2.67987 0.91689 0.543317 45
-2.70097 0.928244 0.345921 53
-1.37537 0.761735 0.0268331 4
-0.611826 0.338114 -0.0349193 53
-1.36288 0.756045 -0.186804 4
-0.629641 0.220883 -0.0552335 29
-1.19577 0.663683 -0.258558 3
-1.93531 0.666945 -0.319086 12
-0.953063 0.529501 -0.282576 4
-2.35711 1.31196 0.613749 35
-2.65364 0.908023 0.741197 49
-2.35024 1.3076 0.419491 33
-2.67594 0.920771 0.542841 44
-2.69482 0.930873 0.345313 47
-1.36748 0.760484 0.0267022 4
-0.615596 0.341613 -0.0351819 56
-1.4301 0.498315 -0.0258296 3
-1.35953 0.756976 -0.186499 4
-0.629255 0.221982 -0.0552335 29
-1.18389 0.659784 -0.256177 3
-1.92948 0.668716 -0.318303 12
-0.95003 0.529984 -0.281929 4
-2.32687 1.31111 0.607573 36
-2.64672 0.920653 0.740551 49
-2.33261 1.31383 0.41754 35
-2.66893 0.933497 0.542364 44
-2.68522 0.943333 0.344704 45
-1.37668 0.774763 0.026964 8
-0.618147 0.347286 -0.0354444 55
-1.42756 0.505547 -0.0258296 4
-1.35339 0.762864 -0.186195 4
-0.625733 0.224449 -0.055016 49
-1.18054 0.665768 -0.256177 3
-1.92129 0.677179 -0.31752 12
-0.941031 0.531216 -0.279989 4
-2.31398 1.30917 0.604765 38
-2.64739 0.926064 0.741197 49
-2.31312 1.30816 0.414418 35
-2.66945 0.93943 0.542841 45
-2.68123 0.947196 0.3444 44
-1.37084 0.77494 0.0268767 4
-0.613196 0.345902 -0.0351819 55
-1.43375 0.510531 -0.0259605 4
-1.36069 0.770121 -0.187412 4
-0.630038 0.227197 -0.0554509 52
-1.17084 0.662981 -0.254273 3
-1.92243 0.68135 -0.317912 12
-0.944208 0.53541 -0.281282 4
-2.28362 1.30834 0.598588 36
-2.64235 0.940374 0.741197 47
-2.29316 1.31329 0.412077 35
-2.65987 0.951749 0.541888 47
-2.67139 0.960018 0.343792 42
-1.37327 0.785837 0.0270076 8
-1.46939 0.53149 0.080074 4
-0.613542 0.350351 -0.0353131 53
-1.43332 0.519125 -0.0260041 4
-1.35004 0.773765 -0.186499 4
-0.626496 0.229653 -0.0552335 52
-1.16723 0.669306 -0.254273 3
-1.91419 0.689744 -0.317129 12
-0.941392 0.540346 -0.281282 4
-1.06812 0.386135 -0.25381 4
-2.27312 1.30706 0.596342 36
-2.64298 0.945795 0.741843 49
-2.27397 1.30703 0.408955 36
-2.66051 0.957217 0.542364 49
-2.66287 0.961696 0.342879 42
-1.3654 0.784492 0.0268767 8
-1.46856 0.533797 0.080074 4
-0.612929 0.351421 -0.0353131 53
-1.43006 0.520778 -0.0259605 4
-1.35958 0.78208 -0.18802 4
-0.626094 0.230746 -0.0552335 50
-1.16819 0.672569 -0.254749 3
-1.90601 0.690577 -0.315954 12
-0.940447 0.541989 -0.281282 4
-1.06981 0.388634 -0.254372 4
-2.25151 1.31036 0.592411 36
-2.63588 0.958338 0.741197 47
-2.25216 1.31022 0.406223 36
-2.65563 0.97067 0.542364 49
-2.24126 1.30336 0.223772 36
-2.6578 0.975626 0.342879 41
-1.45871 0.538905 0.0796815 4
-0.615395 0.35714 -0.0355757 53
-1.42975 0.528869 -0.0260041 4
-0.624877 0.234021 -0.0552335 49
-1.17113 0.682186 -0.256177 3
-1.90005 0.699699 -0.315563 12
-0.935607 0.545522 -0.280636 4
-1.06776 0.39423 -0.254372 4
-2.2303 1.30321 0.587358 36
-2.63421 0.962937 0.741197 47
-2.23282 1.30418 0.403102 36
-2.64916 0.974081 0.541411 49
-2.23468 1.30476 0.223337 35
-2.64911 0.977698 0.341966 38
-1.46479 0.544037 0.080074 4
-0.612616 0.356952 -0.0354444 53
-1.42648 0.5305 -0.0259605 4
-0.617457 0.232529 -0.0545811 47
-1.16782 0.682988 -0.255701 3
-1.90346 0.704718 -0.316346 12
-0.938723 0.549764 -0.281929 4
-1.07165 0.397769 -0.255495 3
-2.21692 1.31154 0.585673 36
-2.62669 0.976338 0.740551 47
-2.20873 1.30618 0.39998 35
-2.64862 0.989649 0.542364 50
-2.21044 1.30668 0.221593 35
-2.63448 0.988545 0.340749 36
-1.46183 0.551954 0.080074 4
-0.621478 0.366517 -0.0361008 50
-1.41891 0.536457 -0.0258732 4
-0.618563 0.236632 -0.0547986 47
-1.16833 0.691801 -0.256653 3
-1.89731 0.714142 -0.315954 12
-0.935831 0.554672 -0.281929 4
-1.06263 0.40101 -0.25381 4
-2.19392 1.30257 0.580058 35
-2.62499 0.980921 0.740551 47
-2.19159 1.3012 0.397248 35
-2.64689 0.99427 0.542364 49
-2.19745 1.30418 0.220504 36
-2.61881 0.98791 0.338924 33
-1.4632 0.555383 0.0802048 4
-0.618692 0.366325 -0.0359695 47
-1.42733 0.542455 -0.0260477 4
-0.618149 0.237711 -0.0547986 45
-1.15869 0.688814 -0.254749 3
-1.88912 0.714848 -0.31478 12
-0.941083 0.560017 -0.283869 4
-1.07105 0.406282 -0.256056 3
-2.17246 1.30525 0.576127 35
-2.62225 0.995048 0.741197 47
-2.17439 1.30591 0.395297 36
-2.64182 1.00765 0.542364 49
-2.17375 1.30502 0.218761 38
-2.59986 0.995851 0.337098 32
-1.45337 0.56011 0.0798123 4
-0.621044 0.372134 -0.0362321 42
-1.42223 0.54878 -0.0260041 4
-0.621549 0.242723 -0.0552335 45
-1.15518 0.69467 -0.254749 3
-1.88317 0.72352 -0.314388 12
-0.938236 0.564773 -0.283869 4
-1.06671 0.410832 -0.255495 3
-2.15349 1.29896 0.571635 36
-2.61825 0.998766 0.740551 47
-2.1552 1.29949 0.392175 36
-2.64218 1.0136 0.542841 49
-2.15654 1.2998 0.217236 38
-2.58885 0.996837 0.335881 30
-1.46172 0.566225 0.0803357 4
-0.624667 0.375799 -0.0364946 36
-1.42594 0.553055 -0.0260913 4
-0.623449 0.2447 -0.0554509 45
-1.14977 0.694144 -0.253796 3
-1.88421 0.72769 -0.31478 12
-0.94128 0.569077 -0.285162 4
-1.06826 0.413563 -0.256056 4
-2.13189 1.3017 0.567704 36
-2.61506 1.01379 0.741197 47
-2.13339 1.30212 0.389444 36
-2.63226 1.02565 0.541888 49
-2.13248 1.30107 0.215493 39
-2.56261 1.00273 0.333143 30
-1.46096 0.575032 0.0804665 4
-1.42292 0.560762 -0.0260913 4
-0.622159 0.247962 -0.0554509 44
-1.15018 0.702919 -0.254749 3
-1.87808 0.736649 -0.314388 12
-0.936229 0.572735 -0.284516 4
-1.06828 0.420219 -0.256618 4
-2.11946 1.29868 0.564896 35
-2.61329 1.01835 0.741197 47
-2.1166 1.29643 0.386712 38
-2.63275 1.03113 0.542364 49
-2.11959 1.29828 0.214403 39
-2.55641 1.00494 0.332535 29
-1.46005 0.577326 0.0804665 4
-1.41961 0.562331 -0.0260477 4
-0.619407 0.248137 -0.0552335 41
-1.14059 0.699782 -0.252844 3
-1.88139 0.741726 -0.315171 12
-0.933172 0.573102 -0.283869 4
-1.06535 0.421011 -0.256056 3
-2.09814 1.30076 0.560966 38
-2.61034 1.03245 0.741843 49
-2.09929 1.30099 0.384761 38
-2.62521 1.04354 0.541888 50
-2.09817 1.2998 0.212878 39
-2.53728 1.01282 0.330709 32
-1.71897 1.06501 0.0346867 12
-1.45701 0.584963 0.0804665 4
-1.41675 0.569509 -0.0260477 4
-0.627399 0.254954 -0.0561033 39
-1.14329 0.709435 -0.254273 3
-1.87289 0.749743 -0.314388 12
-0.930259 0.577818 -0.283869 3
-1.06766 0.428378 -0.257179 3
-2.08369 1.29633 0.557597 38
-2.61078 1.03789 0.742489 47
-2.08235 1.29551 0.38203 38
-2.62567 1.04903 0.542364 50
-2.08322 1.29556 0.211571 39
-2.54703 1.02185 0.33223 29
-1.70438 1.06007 0.0344249 12
-1.46062 0.58936 0.0807282 4
-1.42272 0.574768 -0.0261786 4
-0.622328 0.254198 -0.0556684 38
-1.13789 0.70883 -0.25332 3
-0.933344 0.582001 -0.285162 4
-1.06012 0.427536 -0.255495 3
-2.06428 1.29979 0.554227 38
-2.60531 1.05155 0.742489 49
-2.06927 1.30245 0.380859 38
-2.62014 1.06276 0.542364 49
-2.05955 1.29583 0.209827 38
-2.53014 1.03051 0.330709 26
-1.68823 1.06232 0.0342067 12
-1.45289 0.595121 0.0804665 4
-1.42663 0.585033 -0.0263095 4
-0.627865 0.260375 -0.0563208 35
-1.12586 0.709535 -0.251416 4
-0.932325 0.588171 -0.285809 3
-1.06013 0.433995 -0.256056 3
-2.04554 1.29297 0.549735 38
-2.60348 1.05609 0.742489 47
-2.05239 1.29681 0.378127 38
-2.6181 1.06779 0.542364 49
-2.04676 1.29277 0.208738 39
-2.53524 1.03773 0.331622 26
-1.66929 1.05487 0.0338577 12
-1.45878 0.600486 0.0808591 4
-1.42098 0.585632 -0.0262222 4
-0.629716 0.262412 -0.0565382 33
-1.12462 0.711499 -0.251416 3
-0.935271 0.592551 -0.287102 3
-1.05034 0.432175 -0.25381 4
-2.02826 1.29745 0.546928 38
-2.59772 1.07016 0.742489 47
-2.03078 1.29858 0.375396 38
-2.61247 1.08148 0.542364 49
-2.03134 1.29845 0.207866 39
-2.52958 1.05143 0.331622 26
-1.66164 1.06224 0.033814 11
-1.4509 0.606458 0.0805974 4
-1.4201 0.594269 -0.0262659 4
-1.11456 0.713597 -0.249987 4
-0.932155 0.597439 -0.287102 4
-1.05249 0.43971 -0.254933 3
-2.01187 1.29141 0.542997 36
-2.59585 1.07469 0.742489 49
-2.01835 1.29509 0.373445 39
-2.01441 1.29257 0.206341 41
-2.52564 1.05445 0.331318 26
-1.65347 1.06109 0.0336831 12
-1.44303 0.605858 0.0802048 4
-1.41906 0.596747 -0.0262659 4
-1.11537 0.71687 -0.250463 3
-0.931111 0.599065 -0.287102 4
-1.04505 0.438564 -0.253249 4
-1.99283 1.29396 0.539628 38
-2.00119 1.29892 0.371493 39
-1.99531 1.29461 0.205034 41
-1.64389 1.06672 0.0335959 12
-1.43984 0.613405 0.0802048 4
-1.40912 0.601001 -0.026135 4
-1.10967 0.721167 -0.249987 4
-1.47915 0.629439 -0.249396 9
-0.926045 0.602451 -0.286455 3
-1.04274 0.44403 -0.253249 4
-1.98036 1.29078 0.53682 38
-1.98444 1.29296 0.368762 39
-1.9847 1.29265 0.204162 41
-1.64603 1.07261 0.0336831 12
-1.44796 0.61982 0.0807282 4
-1.41957 0.608347 -0.0263531 4
-1.1002 0.71773 -0.248082 3
-1.4735 0.630092 -0.248613 8
-0.920846 0.601581 -0.285162 3
-1.04645 0.447746 -0.254372 3
-1.96319 1.29476 0.534012 39
-1.96505 1.29552 0.366421 38
-1.9652 1.29514 0.202855 41
-1.64456 1.08396 0.0337704 12
-1.44688 0.628632 0.0808591 4
-1.40708 0.612059 -0.0261786 4
-1.09834 0.725026 -0.248559 4
-1.47018 0.637798 -0.248613 8
-0.923723 0.610396 -0.287102 3
-1.04401 0.453402 -0.254372 3
-1.94897 1.28977 0.530643 38
-1.95067 1.29042 0.364079 39
-1.95048 1.29031 0.201548 42
-2.78175 1.2067 0.367522 14
-1.64475 1.08821 0.033814 12
-1.44589 0.630904 0.0808591 4
-1.40601 0.614514 -0.0261786 4
-1.0889 0.721511 -0.246654 4
-1.46906 0.640363 -0.248613 4
-0.928688 0.61602 -0.289042 3
-1.04777 0.45697 -0.255495 4
-1.93207 1.29317 0.527836 39
-1.93157 1.29237 0.361738 39
-2.86835 1.25724 0.601462 26
-1.93979 1.2974 0.201112 41
-2.76403 1.21627 0.366001 14
-1.43799 0.636459 0.0805974 4
-1.40745 0.623634 -0.0262659 4
-1.93377 1.2958 -0.281118 41
-1.08116 0.724277 -0.245702 4
-1.46343 0.647055 -0.248222 4
-0.925559 0.620712 -0.289042 3
-1.0476 0.463426 -0.256056 4
-1.9197 1.28975 0.525028 39
-2.85186 1.2501 0.823911 26
-1.92112 1.29023 0.360177 39
-2.83447 1.24894 0.59479 26
-1.92512 1.29245 0.199805 42
-2.76645 1.22309 0.36661 27
-1.43688 0.638968 0.0805974 4
-1.40408 0.62508 -0.0262222 4
-1.92327 1.29363 -0.279901 42
-1.07379 0.722048 -0.244273 4
-1.46908 0.652595 -0.249396 4
-0.930369 0.626543 -0.290982 3
-1.03563 0.460354 -0.253249 4
-1.90263 1.29326 0.52222 39
-2.81635 1.2528 0.81551 26
-1.90186 1.29227 0.357836 41
-2.79874 1.25079 0.588594 24
-1.90368 1.29304 0.198279 41
-2.72354 1.22185 0.361742 27
-1.43796 0.648773 0.0808591 4
-1.40296 0.633689 -0.0262659 4
-1.06784 0.726464 -0.243797 4
-1.45662 0.656248 -0.24783 4
-0.931065 0.634129 -0.292275 3
-1.03758 0.467934 -0.254372 4
-1.88852 1.288 0.518851 39
-2.77224 1.23905 0.803232 24
-1.88963 1.28829 0.355884 39
-2.74727 1.23364 0.578109 26
-1.8932 1.29074 0.197408 41
-2.72615 1.22815 0.36235 15
-1.44149 0.653078 0.0811207 4
-1.40413 0.637163 -0.0263095 4
-1.06049 0.724168 -0.242368 4
-1.46449 0.662835 -0.249396 4
-0.925973 0.633022 -0.290982 3
-1.03239 0.467572 -0.253249 3
-1.86972 1.28957 0.515482 39
-2.74832 1.24513 0.798063 58
-1.87676 1.29396 0.354714 41
-2.74322 1.24854 0.578585 53
-1.87434 1.29182 0.1961 42
-2.67902 1.22392 0.356874 14
-1.87265 1.29114 0.0390934 41
-1.43578 0.659581 0.0809899 4
-1.39861 0.643224 -0.0262659 4
-1.06287 0.733716 -0.243797 4
-0.918787 0.63495 -0.289688 3
-1.03215 0.473979 -0.25381 4
-1.86146 1.28867 0.513797 39
-2.74174 1.24793 0.79677 41
-1.86232 1.28879 0.352372 39
-2.72295 1.24566 0.574773 32
-1.86389 1.28942 0.195229 42
-2.66108 1.22137 0.354744 14
-1.86606 1.29188 0.0390061 42
-1.44144 0.665204 0.0813824 4
-1.39976 0.646705 -0.0263095 4
-1.05755 0.73277 -0.242845 4
-1.03132 0.475779 -0.25381 4
-1.8405 1.28893 0.509867 39
-2.69984 1.2466 0.786431 24
-1.84521 1.29176 0.350421 39
-2.69189 1.24859 0.56953 26
-1.84057 1.28805 0.193486 42
-2.62967 1.22427 0.351398 14
-1.84494 1.29159 0.0387007 42
-1.43329 0.67089 0.0811207 4
-1.39624 0.654269 -0.0263095 4
-1.19109 0.834482 -0.174025 9
-1.05357 0.738481 -0.242845 4
-1.02652 0.480329 -0.253249 3
-1.82652 1.28341 0.506498 39
-2.67793 1.2422 0.780615 26
-1.83308 1.28756 0.34847 41
-2.66299 1.24089 0.563811 30
-1.83221 1.28696 0.192832 42
-2.59625 1.21374 0.347138 15
-1.83042 1.28618 0.0384389 41
-1.4345 0.674195 0.0812516 4
-1.40189 0.659878 -0.0264404 4
-1.19384 0.839209 -0.174634 11
-1.04627 0.736076 -0.241416 4
-1.02798 0.482968 -0.25381 4
-1.81184 1.2873 0.504251 41
-2.66286 1.25164 0.77803 52
-1.81625 1.28998 0.346519 41
-2.65667 1.25435 0.563811 58
-1.81553 1.289 0.191743 42
-2.58537 1.2252 0.34653 15
-1.81778 1.29108 0.038308 41
-1.42869 0.68063 0.0811207 4
-1.39401 0.664827 -0.0263531 4
-1.04453 0.742786 -0.241892 4
-1.01882 0.48523 -0.252126 4
-1.80386 1.2859 0.502567 41
-2.66723 1.25937 0.779969 56
-1.79993 1.28311 0.343788 41
-2.66114 1.26213 0.565241 58
-1.80111 1.28349 0.190435 42
-2.55632 1.21696 0.342879 24
-1.80535 1.28699 0.0380899 41
-1.42525 0.682052 0.0809899 4
-1.40188 0.671551 -0.0265277 4
-1.04323 0.744608 -0.241892 4
-1.02017 0.488049 -0.252687 3
-1.78678 1.28882 0.499759 41
-2.66037 1.27378 0.779969 56
-1.78696 1.28849 0.342617 42
-2.6587 1.27863 0.566194 58
-1.78404 1.28593 0.189346 44
-2.55864 1.23507 0.344096 26
-1.7862 1.28796 0.0378281 41
-1.42378 0.690836 0.0811207 4
-1.39597 0.678041 -0.026484 4
-1.00873 0.489346 -0.250441 4
-1.77292 1.28305 0.49639 41
-2.66032 1.27947 0.780615 58
-1.77293 1.28261 0.340276 41
-2.66088 1.28539 0.567147 59
-1.77373 1.2832 0.188474 44
-2.55894 1.24017 0.3444 26
-1.77585 1.28521 0.0376536 42
-1.42045 0.691985 0.0809899 4
-1.38804 0.677209 -0.0263531 4
-1.00577 0.489873 -0.24988 4
-1.76028 1.288 0.494706 41
-2.66033 1.29608 0.782554 59
-1.76021 1.28749 0.339105 41
-2.65876 1.301 0.5681 62
-1.76118 1.28774 0.187821 44
-2.55464 1.25464 0.344704 27
-1.76126 1.28827 0.037479 44
-1.41681 0.699413 0.0809899 4
-1.39133 0.687527 -0.026484 4
-1.76376 1.29199 -0.263776 44
-1.00757 0.49727 -0.251003 3
-1.74822 1.28385 0.491898 42
-2.66241 1.30284 0.783846 65
-1.75001 1.28471 0.337544 42
-2.65625 1.3061 0.5681 70
-1.74689 1.28197 0.186513 44
-2.56135 1.26347 0.345921 29
-1.75073 1.28573 0.0373045 42
-1.41558 0.701885 0.0809899 4
-1.3834 0.686641 -0.0263531 4
-1.74951 1.28624 -0.261951 45
-1.00232 0.496883 -0.24988 3
-1.73147 1.28602 0.48909 42
-2.66182 1.32043 0.785785 74
-1.7351 1.28827 0.335983 42
-2.65158 1.32108 0.568577 77
-1.73193 1.28546 0.185642 42
-2.55004 1.2751 0.345313 32
-1.73595 1.28891 0.03713 44
-1.41847 0.712877 0.0813824 4
-1.3819 0.695232 -0.0263968 4
-1.73656 1.29124 -0.261038 45
-1.01271 0.508804 -0.253249 4
-1.71969 1.28146 0.486283 42
-2.65302 1.32185 0.783846 59
-1.72318 1.28361 0.334032 42
-2.64707 1.32461 0.5681 53
-1.7217 1.28252 0.18477 42
-2.57023 1.2902 0.348355 23
-1.71967 1.28148 0.0368246 42
-1.41735 0.715104 0.0813824 4
-1.37845 0.696523 -0.0263531 4
-1.72658 1.28803 -0.259821 45
-1.95437 0.983211 -0.341403 12
-1.00755 0.508219 -0.252126 4
-1.70517 1.28457 0.484037 42
-2.62687 1.32551 0.77803 33
-1.70658 1.28518 0.332081 42
-2.61842 1.32693 0.563334 33
-1.70723 1.28522 0.183899 42
-2.55237 1.29803 0.346834 15
-1.70717 1.28565 0.0366937 42
-1.41804 0.724774 0.0816441 4
-1.38159 0.706886 -0.026484 4
-1.70793 1.28808 -0.257996 47
-1.96681 1.00236 -0.344535 12
-1.0027 0.512388 -0.251564 3
-1.69538 1.28137 0.48179 42
-2.60084 1.31812 0.770922 32
-1.69842 1.28369 0.33091 42
-2.59202 1.3193 0.558092 32
-1.69704 1.28219 0.183027 44
-2.53019 1.29236 0.344096 14
-1.70094 1.28561 0.0366064 44
-1.41232 0.724981 0.0813824 4
-1.6907 1.27832 -0.109615 23
-1.38036 0.709296 -0.026484 4
-1.69579 1.28356 -0.256475 47
-1.98046 1.01363 -0.347276 12
-0.995289 0.510829 -0.24988 3
-1.67682 1.28164 0.478421 42
-2.5767 1.32292 0.765752 30
-1.67991 1.28356 0.328569 42
-2.56543 1.32276 0.553802 30
-1.68041 1.28349 0.181938 45
-2.50354 1.29536 0.341358 15
-1.68426 1.2869 0.0363883 44
-1.41072 0.733511 0.0815132 4
-1.68597 1.28868 -0.109746 27
-1.38328 0.719956 -0.0266149 4
-1.97732 1.02512 -0.347667 14
-1.00127 0.52049 -0.252126 3
-1.66514 1.27686 0.475614 42
-2.5572 1.31859 0.760583 30
-1.67375 1.28348 0.327788 44
-2.54567 1.31824 0.54999 32
-1.66829 1.27884 0.180848 44
-2.49907 1.29859 0.341053 15
-1.6721 1.28223 0.0361701 44
-1.40501 0.733675 0.0812516 4
-1.6758 1.28553 -0.109221 30
-1.37759 0.720067 -0.0265277 4
-1.96895 1.02516 -0.346493 14
-0.998191 0.521119 -0.251564 4
-1.65436 1.28286 0.474491 42
-2.52883 1.32082 0.754121 30
-1.65726 1.28466 0.325837 44
-2.51698 1.32019 0.545224 32
-1.65567 1.28298 0.180194 45
-2.47465 1.30244 0.338619 21
-1.65747 1.28483 0.0359956 45
-1.40778 0.744503 0.0816441 4
-1.65919 1.28663 -0.108565 35
-1.37159 0.726107 -0.026484 4
-1.9375 1.02136 -0.341794 14
-1.00192 0.529726 -0.253249 4
-1.64081 1.27647 0.471121 44
-2.5094 1.31629 0.748951 30
-1.64355 1.27816 0.323496 42
-2.49511 1.31432 0.540934 30
-1.64361 1.27822 0.179105 44
-2.46821 1.30401 0.338011 26
-1.64733 1.28158 0.0358211 45
-1.40219 0.744385 0.0813824 4
-1.64906 1.28339 -0.10804 38
-1.36811 0.727333 -0.0264404 4
-1.92916 1.02129 -0.34062 14
-0.998935 0.530167 -0.252687 4
-1.62645 1.27902 0.468875 44
-2.48349 1.31881 0.743135 32
-1.62907 1.28063 0.321935 44
-2.46892 1.31657 0.536645 32
-1.62733 1.27882 0.178016 45
-2.44383 1.30759 0.335577 32
-1.631 1.28217 0.0356029 45
-1.40268 0.754068 0.0816441 4
-1.62859 1.28119 -0.107121 39
-1.36882 0.736604 -0.0265277 4
-1.91071 1.0244 -0.338271 14
-0.993994 0.534246 -0.252126 4
-1.62231 1.28034 0.468314 42
-2.46199 1.31295 0.737319 32
-1.62296 1.28041 0.321155 44
-2.45773 1.31669 0.534739 32
-1.61728 1.27548 0.177144 45
-2.43279 1.30717 0.33436 32
-1.62266 1.28065 0.035472 45
-1.62439 1.28248 -0.10699 41
-1.36312 0.736629 -0.0264404 4
-1.60801 1.27134 -0.390932 55
-1.89586 1.02074 -0.335922 14
-0.990912 0.534832 -0.251564 4
-1.60584 1.2815 0.465506 44
-2.43783 1.3171 0.73215 32
-1.60443 1.27993 0.318813 42
-2.43137 1.31904 0.530449 32
-1.60257 1.278 0.176272 45
-2.41041 1.31203 0.33223 32
-1.60812 1.28289 0.0352975 45
-1.60595 1.28162 -0.106202 44
-1.35912 0.743993 -0.0264404 4
-1.60686 1.28462 -0.392361 52
-1.88163 1.02627 -0.334356 14
-0.981576 0.536707 -0.24988 3
-1.59622 1.27792 0.46326 44
-2.42066 1.31331 0.727626 32
-1.59641 1.27809 0.317643 42
-2.40749 1.31158 0.525683 32
-1.59062 1.27301 0.175183 45
-2.39068 1.30675 0.329796 33
-1.59612 1.27788 0.0350793 45
-1.60177 1.28286 -0.106071 45
-1.36001 0.747561 -0.026484 4
-1.59313 1.2782 -0.389504 52
-1.86683 1.02247 -0.332007 14
-1.59166 1.27882 -0.537346 58
-0.987059 0.541909 -0.251564 3
-1.57793 1.27734 0.459891 45
-2.3968 1.3167 0.722457 32
-1.58011 1.27866 0.315691 44
-2.38768 1.31708 0.522824 33
-1.58006 1.27818 0.174747 47
-2.36642 1.30966 0.327363 32
-1.58747 1.28464 0.0350357 45
-1.58727 1.28494 -0.105546 45
-1.35608 0.754672 -0.026484 4
-1.5807 1.28189 -0.388075 53
-1.84847 1.02508 -0.329657 14
-1.57932 1.28257 -0.535406 58
-0.979939 0.544721 -0.250441 3
-1.57403 1.27828 0.459329 45
-2.37545 1.31042 0.716641 33
-1.57021 1.27518 0.314131 44
-2.36819 1.31176 0.519011 33
-1.5701 1.27465 0.173876 47
-2.35111 1.30658 0.325537 33
-1.57747 1.2811 0.0348612 45
-1.57728 1.28141 -0.105021 45
-1.35257 0.755825 -0.0264404 4
-1.56895 1.27689 -0.385694 52
-1.83372 1.02112 -0.327308 14
-1.5696 1.27922 -0.53282 58
-0.976855 0.545253 -0.24988 3
-1.55204 1.2744 0.454837 45
-2.35167 1.31344 0.711471 33
-1.55588 1.27712 0.31257 44
-2.34201 1.31337 0.514722 35
-1.55763 1.27811 0.173222 45
-2.32692 1.30917 0.323103 35
-1.56301 1.283 0.0346867 47
-1.56091 1.28172 -0.104364 47
-1.35732 0.767793 -0.0266149 4
-1.55467 1.27885 -0.38379 52
-1.81327 1.02226 -0.324568 14
-1.55543 1.28127 -0.530233 58
-0.982491 0.555117 -0.252126 4
-1.5444 1.27218 0.453153 45
-2.33461 1.3093 0.706948 33
-1.54794 1.27512 0.311399 44
-2.32472 1.30905 0.511386 36
-1.54963 1.27608 0.172568 45
-2.31165 1.30593 0.321278 35
-1.55113 1.27777 0.0344685 45
-1.55482 1.28126 -0.104102 47
-1.35162 0.767705 -0.0265277 4
-1.54487 1.2753 -0.381885 52
-1.79428 1.01573 -0.321436 14
-1.54389 1.27628 -0.527 59
-0.977272 0.554445 -0.251003 3
-1.53188 1.27584 0.451468 45
-2.31301 1.31319 0.702424 35
-1.53555 1.27846 0.310228 44
-2.3093 1.31636 0.509479 36
-1.53719 1.27939 0.171915 47
-2.28969 1.30942 0.319148 35
-1.53482 1.27787 0.0342503 45
-1.53828 1.28166 -0.103445 45
-1.35192 0.77725 -0.0266149 4
-1.53252 1.27865 -0.380456 53
-1.77392 1.01655 -0.318695 14
-1.53533 1.2828 -0.526354 59
-0.982827 0.56437 -0.253249 3
-1.52405 1.27382 0.449783 45
-2.29181 1.3065 0.696609 36
-1.52953 1.27797 0.309448 45
-2.28758 1.30985 0.50519 35
-1.5254 1.27408 0.170825 47
-2.27232 1.3048 0.317018 33
-1.53045 1.27921 0.0342067 45
-1.52838 1.27793 -0.10292 47
-1.52464 1.27659 -0.379028 53
-1.75071 1.00738 -0.31478 14
-1.52547 1.27953 -0.523767 59
-0.983956 0.567293 -0.25381 3
-1.50783 1.27418 0.446976 45
-2.27424 1.31286 0.693378 35
-1.51316 1.27825 0.307497 44
-2.26156 1.31077 0.5009 35
-1.50898 1.27427 0.169736 47
-2.2459 1.30588 0.31428 33
-1.5161 1.28075 0.0340322 47
-1.51595 1.28108 -0.102526 47
-1.50816 1.27583 -0.237916 47
-1.5121 1.28006 -0.377599 53
-1.726 1.0057 -0.311256 14
-1.51322 1.28281 -0.521827 59
-0.985091 0.575046 -0.254933 3
-1.50212 1.27339 0.445853 45
-2.25939 1.30958 0.6895 35
-1.50528 1.2761 0.306326 44
-2.24865 1.30857 0.498517 35
-1.50675 1.27691 0.169736 49
-2.2286 1.30107 0.312151 33
-1.50624 1.27692 0.0338577 47
-1.5023 1.27403 -0.101739 47
-1.50026 1.27364 -0.237003 50
-1.50425 1.27793 -0.376171 53
-1.7029 0.996292 -0.307341 14
-1.49812 1.27449 -0.517301 59
-0.979872 0.574319 -0.25381 3
-1.48988 1.27648 0.444168 45
-2.23605 1.31126 0.684331 35
-1.49131 1.27727 0.304765 44
-2.2293 1.31248 0.495658 36
-1.48893 1.27479 0.168428 49
-2.20701 1.30353 0.310021 35
-1.49406 1.27965 0.0337268 47
-1.49204 1.27836 -0.101476 47
-1.48626 1.27475 -0.235786 50
-1.49032 1.27913 -0.374266 55
-1.67656 0.992374 -0.303426 14
-1.48615 1.27733 -0.515361 59
-0.976952 0.579271 -0.25381 4
-1.48234 1.27405 0.442484 45
-2.21918 1.30661 0.679807 35
-1.48533 1.27665 0.303985 45
-2.20797 1.30517 0.491369 35
-1.48104 1.27251 0.167775 49
-2.1855 1.29602 0.307283 35
-1.48235 1.2741 0.0335086 47
-1.48224 1.27445 -0.100951 47
-1.48216 1.27572 -0.235482 52
-1.48437 1.27852 -0.373314 55
-1.65995 0.986506 -0.300685 14
-1.4821 1.27834 -0.514714 61
-0.980137 0.58345 -0.254933 4
-1.46439 1.27246 0.439114 45
-2.19361 1.30712 0.673991 35
-1.46931 1.2763 0.302034 47
-2.18424 1.30667 0.487556 35
-1.46308 1.27045 0.166467 47
-2.17017 1.30236 0.306066 35
-1.47 1.27692 0.0333777 47
-1.46779 1.27589 -0.100426 47
-1.46049 1.27043 -0.233048 52
-1.47025 1.27983 -0.371409 55
-1.64628 0.990114 -0.299119 14
-1.46629 1.27814 -0.511481 59
-0.9687 0.583581 -0.252687 4
-1.4585 1.27181 0.437991 45
-2.1768 1.3023 0.669468 36
-1.4615 1.27399 0.300863 45
-2.16909 1.3033 0.484696 36
-1.45898 1.27136 0.16625 49
-2.15938 1.30104 0.304849 35
-1.46378 1.27645 0.0332905 45
-1.45992 1.27352 -0.100032 49
-1.4564 1.27134 -0.232744 52
-1.46432 1.27916 -0.370457 55
-1.63185 0.98536 -0.29677 15
-1.45656 1.27459 -0.508895 64
-0.97813 0.59153 -0.255495 4
-1.44247 1.27162 0.435184 47
-2.15732 1.30658 0.665591 36
-1.44718 1.27535 0.299302 45
-2.14964 1.30701 0.481837 35
-1.44274 1.271 0.16516 49
-2.13534 1.3024 0.302415 35
-1.44958 1.27748 0.0331159 47
-1.44949 1.27785 -0.0997695 47
-1.44578 1.27591 -0.232135 52
-1.44819 1.27893 -0.368076 56
-1.62245 0.991327 -0.295987 15
-1.44445 1.2774 -0.506955 61
-0.974915 0.596814 -0.255495 3
-1.43682 1.27065 0.434061 47
-2.14057 1.30158 0.661067 38
-1.43593 1.26943 0.297351 44
-2.13897 1.30566 0.47993 36
-1.4312 1.26526 0.164071 49
-2.11846 1.29671 0.300285 35
-1.438 1.27172 0.0328978 47
-2.11329 1.29556 0.128092 35
-1.44165 1.27541 -0.0993756 49
-1.43449 1.26995 -0.230614 52
-1.43494 1.27168 -0.365219 56
-1.6165 0.991586 -0.295204 15
-1.43138 1.27029 -0.503075 59
-0.967733 0.594545 -0.25381 4
-1.4247 1.27328 0.432376 49
-2.11954 1.30357 0.656544 38
-1.42375 1.27199 0.29618 45
-2.1156 1.30619 0.476118 36
-1.42106 1.26916 0.163635 49
-2.09897 1.29997 0.29846 36
-1.42782 1.27565 0.0328105 49
-2.09373 1.29874 0.127307 35
-1.43309 1.28127 -0.0992444 49
-1.42043 1.27082 -0.229397 52
-1.423 1.27401 -0.363791 56
-1.61338 1.00133 -0.295595 15
-1.41955 1.27268 -0.501135 59
-0.968755 0.602158 -0.254933 4
-1.41342 1.26763 0.429568 47
-2.10697 1.30095 0.653313 39
-1.41785 1.27118 0.2954 45
-2.09848 1.30122 0.472781 35
-1.41885 1.27164 0.163635 49
-2.07982 1.29318 0.296026 36
-1.41607 1.27004 0.0325924 47
-2.07873 1.2945 0.126522 36
-1.42157 1.27543 -0.098588 49
-1.41083 1.26666 -0.22818 53
-1.41895 1.27485 -0.363315 55
-1.60954 1.00285 -0.295204 15
-1.40813 1.26732 -0.497902 59
-0.967703 0.603848 -0.254933 4
-1.39932 1.26871 0.427322 49
-2.08965 1.30595 0.650082 38
-1.40364 1.27219 0.293839 45
-2.07914 1.30439 0.469922 38
-1.40088 1.26926 0.162328 50
-2.06228 1.29783 0.294505 36
-1.4057 1.27408 0.0325051 49
-2.05689 1.29643 0.125606 36
-1.40933 1.27782 -0.0981942 49
-1.40396 1.27428 -0.22818 53
-1.40659 1.27756 -0.361886 56
-1.61054 1.01519 -0.296378 15
-1.39969 1.27305 -0.497256 59
-0.974748 0.615535 -0.257741 4
-1.39733 1.2709 0.427322 49
-2.07098 1.29936 0.644912 38
-1.39798 1.27107 0.293058 47
-2.06231 1.29889 0.466586 38
-1.39498 1.26835 0.161892 50
-2.04763 1.29314 0.292679 38
-1.39608 1.2698 0.0323306 47
-2.04429 1.29301 0.124952 36
-1.39971 1.27355 -0.0976691 49
-1.39279 1.26812 -0.226659 53
-1.39711 1.27339 -0.359981 56
-1.3939 1.27223 -0.495962 61
-0.971717 0.615771 -0.257179 4
-1.37632 1.265 0.42283 49
-2.05417 1.30338 0.641681 38
-1.38041 1.26834 0.290717 47
-2.04949 1.30537 0.465156 38
-1.37571 1.26359 0.160367 49
-2.03455 1.29985 0.291766 38
-1.38044 1.26838 0.0321124 49
-2.02907 1.29833 0.124429 39
-1.38406 1.27217 -0.0970127 49
-1.62217 1.0399 -0.0330287 15
-1.377 1.26699 -0.225138 55
-1.37621 1.26714 -0.356172 56
-1.37325 1.26616 -0.490789 61
-0.972592 0.623462 -0.258303 4
-1.37612 1.26881 0.423392 49
-2.03557 1.29661 0.636512 39
-1.38001 1.27242 0.291107 47
-2.02651 1.29577 0.46039 39
-1.37533 1.26768 0.160584 49
-2.01346 1.29138 0.289028 39
-1.37638 1.26909 0.0320688 49
-2.01418 1.2938 0.123644 39
-1.37634 1.2695 -0.0966189 49
-1.61614 1.04003 -0.0329414 14
-1.37479 1.26939 -0.225138 55
-1.37219 1.26787 -0.355696 56
-1.37104 1.26856 -0.490789 61
-0.963286 0.61992 -0.256056 4
-1.36211 1.26959 0.421145 49
-2.02063 1.30204 0.633927 38
-1.36069 1.26784 0.288376 47
-2.01351 1.30238 0.45896 39
-1.35957 1.26637 0.159495 49
-2.0025 1.29921 0.28842 39
-1.36424 1.27117 0.0319379 49
-1.9969 1.29755 0.122989 38
-1.36215 1.27011 -0.0960938 50
-1.62117 1.05527 -0.0331596 14
-1.36268 1.27149 -0.224225 55
-1.35478 1.26498 -0.352839 58
-1.35557 1.26746 -0.487556 61
-0.966169 0.628916 -0.257741 4
-1.351 1.26364 0.418338 50
-2.00008 1.29379 0.628111 39
-1.36208 1.27359 0.289156 47
-1.99452 1.29558 0.455147 38
-1.35554 1.26704 0.159277 49
-1.98982 1.29595 0.286899 39
-1.35815 1.27037 0.0318506 47
-1.98416 1.29423 0.122335 38
-1.35811 1.27078 -0.0959625 50
-1.35141 1.26538 -0.222704 55
-1.34899 1.26399 -0.351887 58
-1.35489 1.27172 -0.488203 59
-0.958935 0.62663 -0.256056 4
-1.34238 1.26926 0.417776 49
-1.98293 1.298 0.62488 39
-1.3462 1.27245 0.287205 49
-1.97949 1.30063 0.453241 39
-1.34324 1.26922 0.158623 49
-1.97033 1.29853 0.285073 38
-1.34785 1.27402 0.0317634 49
-1.9667 1.29809 0.121681 38
-1.346 1.27272 -0.0955686 50
-1.34275 1.27097 -0.2224 55
-1.34035 1.26958 -0.35141 58
-1.96255 1.29394 -0.367243 39
-1.33946 1.27048 -0.48497 59
-0.95553 0.631809 -0.256056 4
-1.33508 1.26633 0.416092 50
-1.96449 1.29089 0.61971 41
-1.33525 1.26606 0.285254 49
-1.96491 1.296 0.450381 39
-1.3356 1.26642 0.15797 49
-1.95171 1.29071 0.282639 39
-1.33475 1.26604 0.0315016 49
-1.95215 1.29294 0.120896 38
-1.34016 1.27163 -0.0953061 50
-1.33535 1.26794 -0.221487 55
-1.32569 1.26007 -0.348077 58
-1.95204 1.29193 -0.365677 39
-1.33374 1.26948 -0.483676 61
-0.958608 0.635986 -0.257179 4
-1.3214 1.26655 0.413846 50
-1.94786 1.29415 0.616479 41
-1.32504 1.26962 0.284473 47
-1.94606 1.29778 0.447522 39
-1.32199 1.26626 0.157098 49
-1.9346 1.29403 0.281118 39
-1.32652 1.27105 0.031458 49
-1.93497 1.29621 0.120242 38
-1.32628 1.27171 -0.094781 52
-1.32333 1.26976 -0.220574 55
-1.3193 1.26676 -0.348077 58
-1.93497 1.29528 -0.363719 38
-1.31316 1.26304 -0.478503 59
-0.955265 0.640996 -0.257179 4
-1.31217 1.2621 0.4116 50
-1.93934 1.29388 0.614541 41
-1.31748 1.26679 0.283303 47
-1.93335 1.29471 0.445139 41
-1.31058 1.26016 0.156009 49
-1.92202 1.29051 0.279597 39
-1.31687 1.26666 0.0312834 47
-1.92003 1.29159 0.119457 39
-1.31866 1.26883 -0.0943872 52
-1.31196 1.26368 -0.219053 56
-1.22413 0.825869 -0.125906 12
-1.30803 1.26077 -0.345696 58
-1.91629 1.28768 -0.360587 36
-1.31096 1.26533 -0.478503 59
-0.958084 0.645534 -0.258303 4
-1.29987 1.26431 0.409915 50
-1.92229 1.29762 0.61131 41
-1.30331 1.26723 0.281742 49
-1.91614 1.29829 0.442756 39
-1.30018 1.26376 0.155573 49
-1.90245 1.29289 0.277771 39
-1.30463 1.26854 0.0311525 49
-1.90681 1.29776 0.119064 39
-1.30463 1.26898 -0.0938621 50
-1.30155 1.2673 -0.218445 56
-1.21758 0.831083 -0.125689 12
-1.29768 1.2644 -0.344744 59
-1.89703 1.28972 -0.358238 36
-1.30064 1.26903 -0.47721 59
-0.95054 0.647981 -0.257179 4
-1.29788 1.26635 0.409915 52
-1.90601 1.29152 0.606786 41
-1.29602 1.2641 0.280571 45
-1.90168 1.29338 0.439896 41
-1.29441 1.26255 0.155137 49
-1.89221 1.2903 0.276554 41
-1.29705 1.26557 0.0310216 50
-1.88826 1.28952 0.118018 39
-1.30062 1.26951 -0.0937308 52
-1.87952 1.28502 -0.039137 35
-1.29424 1.26414 -0.217532 56
-1.22231 0.83741 -0.126341 11
-1.29372 1.26495 -0.344268 59
-1.29152 1.26454 -0.474624 59
-0.953554 0.652207 -0.258303 4
-1.2843 1.26628 0.407669 50
-1.88747 1.29299 0.602909 41
-1.28235 1.26393 0.27901 47
-1.88296 1.29467 0.437037 41
-1.28446 1.26558 0.154701 49
-1.86906 1.28895 0.27412 41
-1.28707 1.26861 0.0309344 50
-1.86914 1.29091 0.117233 39
-1.29241 1.27432 -0.0935995 50
-1.86476 1.28885 -0.0389625 36
-1.28583 1.26915 -0.217228 56
-1.27858 1.26285 -0.341887 59
-1.28168 1.26766 -0.47333 59
-0.946108 0.654436 -0.257179 4
-1.27539 1.26144 0.405423 50
-1.87724 1.29082 0.600324 42
-1.28388 1.26942 0.279791 49
-1.87058 1.29101 0.434654 42
-1.27517 1.26081 0.15383 49
-1.86294 1.28907 0.273512 41
-1.2813 1.26733 0.0308471 50
-1.85683 1.28675 0.116578 39
-1.27954 1.26603 -0.0928119 52
-1.85017 1.28358 -0.0387007 36
-1.27855 1.26593 -0.216315 56
-1.27289 1.26162 -0.340935 59
-1.26918 1.25968 -0.469451 59
-0.949093 0.658683 -0.258303 4
-1.26704 1.26637 0.404861 50
-1.85877 1.29206 0.596447 41
-1.26674 1.26565 0.277449 49
-1.85193 1.29206 0.431794 41
-1.26349 1.26197 0.153176 50
-1.84192 1.28888 0.271382 41
-1.26957 1.2685 0.0307162 49
-1.83983 1.28932 0.115924 38
-1.26782 1.26719 -0.092418 52
-1.83545 1.2872 -0.0385262 36
-1.2649 1.26558 -0.215098 56
-1.26302 1.26457 -0.339982 59
-1.26109 1.26438 -0.468804 59
-0.941631 0.660861 -0.257179 4
-1.25817 1.26146 0.402615 50
-1.84858 1.28979 0.593862 42
-1.2593 1.26261 0.276279 49
-1.84162 1.28967 0.429888 42
-1.25777 1.26064 0.15274 52
-1.83356 1.28783 0.27047 42
-1.2603 1.26363 0.0305417 49
-1.83349 1.28966 0.115662 41
-1.26209 1.26586 -0.0921555 52
-1.82501 1.28467 -0.0383517 36
-1.25919 1.26426 -0.214489 58
-1.25562 1.26155 -0.338554 59
-1.25208 1.25972 -0.466217 61
-0.948467 0.668082 -0.259426 4
-1.2462 1.26304 0.40093 50
-1.82796 1.28974 0.589339 44
-1.24921 1.26566 0.275498 50
-1.82281 1.29082 0.427028 42
-1.24415 1.26012 0.151869 50
-1.81666 1.29025 0.268948 41
-1.24665 1.26309 0.0303672 49
-1.81856 1.29347 0.115139 41
-1.24668 1.26356 -0.0914991 52
-1.81214 1.28987 -0.0382208 38
-1.24559 1.26377 -0.213272 58
-1.24383 1.26286 -0.337125 59
-1.23869 1.25936 -0.463631 61
-0.942965 0.671634 -0.258864 4
-1.24251 1.26326 0.400369 52
-1.81584 1.28597 0.586108 44
-1.24353 1.26432 0.274718 49
-1.81654 1.29116 0.426075 42
-1.23846 1.25873 0.151433 52
-1.80631 1.28767 0.267731 42
-1.23919 1.25991 0.0302363 50
-1.80409 1.28797 0.114354 41
-1.24447 1.26573 -0.0914991 53
-1.7997 1.28579 -0.0380026 38
-1.24164 1.26417 -0.212968 58
-1.23819 1.26152 -0.336173 59
-1.23481 1.2598 -0.462984 61
-0.937816 0.670461 -0.257741 4
-1.22887 1.26297 0.398123 52
-1.79925 1.28845 0.582877 44
-1.23001 1.26373 0.273157 49
-1.79978 1.29351 0.423692 42
-1.22665 1.25984 0.150779 52
-1.78947 1.28988 0.26621 42
-1.22909 1.2628 0.030149 49
-1.78515 1.28865 0.113569 39
-1.23261 1.26686 -0.0911053 50
-1.7828 1.2879 -0.0377845 38
-1.22637 1.26175 -0.211447 56
-1.22815 1.26446 -0.335221 59
-1.22987 1.26798 -0.463631 61
-0.944194 0.682457 -0.260549 4
-1.2218 1.25965 0.396438 52
-1.78914 1.28597 0.580292 45
-1.22265 1.26055 0.271986 50
-1.78954 1.29093 0.421786 42
-1.21925 1.25661 0.150126 52
-1.77513 1.2843 0.264385 42
-1.22514 1.26314 0.0301054 49
-1.7748 1.28593 0.113046 41
-1.22692 1.26542 -0.0908427 52
-1.77041 1.28369 -0.0375663 38
-1.21899 1.25853 -0.210534 56
-1.22083 1.26131 -0.333792 59
-1.22095 1.26317 -0.461044 59
-0.943002 0.684104 -0.260549 4
-1.21496 1.26624 0.396438 52
-1.7726 1.28824 0.577061 45
-1.21433 1.26515 0.271596 50
-1.77283 1.29307 0.419403 42
-1.21093 1.26118 0.149908 52
-1.76236 1.28919 0.263472 42
-1.2116 1.26232 0.0299309 49
-1.76199 1.29079 0.112653 41
-1.21337 1.26462 -0.0903176 53
-1.75559 1.28705 -0.0373918 38
-1.21066 1.26311 -0.21023 56
-1.75957 1.2895 -0.187446 39
-1.21251 1.26591 -0.333316 59
-1.20765 1.26256 -0.458458 59
-1.20456 1.25934 0.393631 52
-1.75862 1.28282 0.573184 45
-1.2053 1.26013 0.270035 50
-1.76065 1.28894 0.41702 42
-1.207 1.26149 0.14969 52
-1.75009 1.28495 0.261951 44
-1.20249 1.2572 0.0297564 50
-1.74765 1.28501 0.111868 39
-1.20944 1.26493 -0.0901864 53
-1.74326 1.28273 -0.0371736 38
-1.20675 1.26342 -0.209926 58
-1.74727 1.28521 -0.186359 39
-1.20183 1.25914 -0.330935 52
-1.19878 1.25767 -0.455871 56
-1.19606 1.26407 0.393069 53
-1.74799 1.28915 0.571891 45
-1.19698 1.26463 0.269645 50
-1.74598 1.29231 0.415114 42
-1.19525 1.26237 0.149036 52
-1.73336 1.28672 0.26043 44
-1.19589 1.26348 0.0297564 50
-1.73287 1.28821 0.111345 41
-1.19594 1.26398 -0.0896612 53
-1.72848 1.28589 -0.0369991 39
-1.195 1.26431 -0.209013 56
-1.7285 1.28545 -0.185054 39
-1.18512 1.25471 -0.328078 49
-1.1839 1.25514 -0.452638 56
-1.18906 1.26063 0.391385 53
-1.73407 1.28361 0.568014 45
-1.1897 1.26132 0.268474 50
-1.73188 1.28661 0.412254 44
-1.1828 1.25357 0.147729 52
-1.72115 1.28235 0.258908 45
-1.19197 1.26375 0.0297127 52
-1.71659 1.28081 0.110429 41
-1.1886 1.26062 -0.0892674 53
-1.71821 1.28294 -0.0368246 39
-1.186 1.25916 -0.207796 58
-1.71826 1.28253 -0.184184 41
-1.17789 1.25141 -0.32665 45
-1.17841 1.25368 -0.451345 52
-1.17724 1.26169 0.3897 53
-1.71764 1.28546 0.564783 45
-1.17803 1.26211 0.267304 52
-1.71726 1.28978 0.410348 44
-1.17622 1.25975 0.147729 52
-1.70647 1.28539 0.257692 45
-1.17852 1.26266 0.0295382 52
-1.70387 1.28528 0.110036 41
-1.18006 1.2652 -0.0891361 53
-1.70148 1.28441 -0.0366064 41
-1.17601 1.26172 -0.207188 59
-1.16965 1.25576 -0.326174 45
-1.16361 1.25099 -0.448112 47
-1.17172 1.26018 0.388577 53
-1.70766 1.28267 0.562198 45
-1.17414 1.26236 0.266913 50
-1.70693 1.28718 0.408441 44
-1.17232 1.25998 0.147511 52
-1.69233 1.27942 0.255866 44
-1.17099 1.25942 0.0294073 52
-1.69166 1.28074 0.109382 41
-1.17615 1.26543 -0.0890049 53
-1.69125 1.28136 -0.0364319 41
-1.17212 1.26195 -0.206883 59
-1.16245 1.2524 -0.324745 47
-1.15793 1.24968 -0.446819 45
-1.15994 1.26111 0.386892 53
-1.68913 1.28315 0.558321 45
-1.15894 1.2596 0.264962 50
-1.68843 1.2872 0.405582 44
-1.16043 1.2608 0.146857 50
-1.67551 1.28104 0.254345 45
-1.16269 1.26369 0.0293637 52
-1.67676 1.28382 0.108859 42
-1.16107 1.26238 -0.0883485 55
-1.67435 1.28291 -0.0362137 41
-1.16024 1.26279 -0.205971 59
-1.154 1.25686 -0.324269 49
-1.14974 1.25394 -0.446172 45
-1.15303 1.25754 0.385208 53
-1.67919 1.28026 0.555736 45
-1.15363 1.25777 0.264182 50
-1.67642 1.28271 0.403199 44
-1.1515 1.25548 0.145986 52
-1.6656 1.27765 0.253128 47
-1.1571 1.26203 0.0292764 50
-1.66879 1.28191 0.108466 42
-1.15887 1.2644 -0.0883485 55
-1.66616 1.28127 -0.0360828 41
-1.15323 1.25912 -0.205058 59
-1.14849 1.25525 -0.323317 55
-1.13778 1.24524 -0.442292 47
-1.14479 1.26176 0.384646 53
-1.66119 1.27992 0.551859 47
-1.14537 1.26197 0.263792 52
-1.66018 1.2837 0.400816 45
-1.14179 1.2576 0.14555 52
-1.65496 1.28332 0.252519 47
-1.14735 1.26417 0.0291891 53
-1.65218 1.28299 0.107812 42
-1.14888 1.26675 -0.0880859 55
-1.64977 1.28204 -0.0358647 41
-1.14329 1.26146 -0.204449 59
-1.13883 1.2574 -0.322364 55
-1.13632 1.25636 -0.444232 47
-1.13769 1.25833 0.382962 55
-1.65513 1.27988 0.550566 47
-1.13985 1.2603 0.263011 52
-1.65189 1.28238 0.399386 45
-1.13792 1.25774 0.145332 52
-1.6488 1.28317 0.251911 47
-1.13822 1.25895 0.0290146 53
-1.64205 1.27976 0.107289 42
-1.14165 1.26319 -0.0876921 55
-1.6416 1.28032 -0.0357338 41
-1.13776 1.25977 -0.203841 61
-1.12678 1.24845 -0.319507 59
-1.12422 1.24777 -0.440352 56
-1.12924 1.26265 0.3824 55
-1.63865 1.2814 0.547335 47
-1.12973 1.26276 0.262231 52
-1.63742 1.28497 0.39748 45
-1.12281 1.25459 0.144243 52
-1.62815 1.28136 0.249781 47
-1.12661 1.2593 0.0288837 53
-1.63117 1.28554 0.107027 42
-1.13336 1.26729 -0.0875608 58
-1.63072 1.2861 -0.0356465 42
-1.12598 1.26035 -0.202928 61
-0.954992 0.755436 -0.103291 9
-1.11674 1.25086 -0.318555 86
-1.12248 1.25905 -0.442292 90
-1.1224 1.25896 0.380715 55
-1.6288 1.27831 0.54475 47
-1.1261 1.26269 0.26184 52
-1.62744 1.28177 0.395573 45
-1.12227 1.25841 0.144461 52
-1.62419 1.28238 0.249477 47
-1.12441 1.26126 0.0288837 53
-1.61934 1.28038 0.106373 41
-1.1245 1.26181 -0.0870357 58
-1.62062 1.28276 -0.035472 42
-1.1207 1.25841 -0.20232 62
-0.949759 0.75402 -0.102856 9
-1.11619 1.25465 -0.319031 97
-1.11387 1.25378 -0.439706 91
-1.11096 1.25934 0.379031 55
-1.61283 1.27905 0.54152 49
-1.11294 1.26116 0.26028 53
-1.61516 1.28542 0.394143 45
-1.1093 1.2566 0.143589 53
-1.60579 1.28161 0.247652 47
-1.10975 1.25756 0.0286656 53
-1.6048 1.28263 0.105849 42
-1.11458 1.26393 -0.0867732 56
-1.60433 1.28316 -0.0352539 42
-1.11082 1.26053 -0.201711 65
-0.941901 0.755881 -0.102421 8
-1.10658 1.25659 -0.318079 90
-1.10751 1.2594 -0.439706 79
-1.10233 1.25395 0.376785 55
-1.60302 1.27587 0.538935 49
-1.10748 1.25939 0.259499 52
-1.60885 1.28546 0.39319 44
-1.10546 1.25666 0.143371 53
-1.59579 1.27822 0.246435 47
-1.10734 1.25969 0.0286656 53
-1.58695 1.27296 0.104803 41
-1.11073 1.264 -0.0866419 56
-1.59232 1.27816 -0.0350357 41
-1.10534 1.25873 -0.201103 67
-1.0963 1.24929 -0.315698 70
-1.1035 1.2597 -0.439059 61
-1.09394 1.25806 0.376223 55
-1.59044 1.28 0.536996 49
-1.09741 1.26163 0.258719 52
-1.59062 1.28464 0.390331 44
-1.09538 1.25887 0.142935 53
-1.57533 1.27594 0.244305 47
-1.09581 1.25981 0.0285347 55
-1.57809 1.27996 0.104672 42
-1.09918 1.26414 -0.0862481 55
-1.5776 1.28047 -0.0348612 41
-1.09526 1.26095 -0.200494 65
-1.09113 1.25706 -0.316174 61
-1.09057 1.25816 -0.436473 59
-1.08718 1.25425 0.374539 55
-1.57879 1.2752 0.533765 50
-1.0922 1.25962 0.257938 52
-1.58074 1.28125 0.388424 45
-1.08829 1.25513 0.142282 53
-1.56753 1.27373 0.243392 47
-1.09034 1.25794 0.0284474 53
-1.5625 1.27144 0.103756 41
-1.08881 1.25661 -0.0855917 56
-1.56566 1.27535 -0.034643 42
-1.09328 1.26267 -0.200494 65
-1.08252 1.25153 -0.314269 62
-1.08522 1.2564 -0.435179 61
-1.07743 1.25622 0.373416 55
-1.56669 1.27861 0.531826 50
-1.08077 1.2597 0.256768 53
-1.56282 1.27994 0.385565 45
-1.07706 1.25495 0.141628 53
-1.55508 1.27721 0.242479 47
-1.07908 1.25774 0.0283165 56
-1.55196 1.27644 0.103494 42
-1.08059 1.2604 -0.0854604 56
-1.55531 1.28009 -0.0345558 42
-1.08021 1.26083 -0.199277 65
-1.07458 1.25513 -0.313793 62
-1.07415 1.25637 -0.433239 58
-1.55061 1.27182 -0.454276 45
-1.07365 1.25624 0.372854 55
-1.5551 1.27372 0.528595 50
-1.07376 1.25595 0.255597 52
-1.55466 1.27827 0.384135 44
-1.07164 1.25304 0.141192 55
-1.54709 1.2752 0.241567 49
-1.07666 1.25981 0.0283165 53
-1.54587 1.27598 0.103233 44
-1.07353 1.25659 -0.0850666 56
-1.54535 1.27645 -0.0343812 44
-1.06996 1.25327 -0.197756 65
-1.0692 1.25327 -0.312841 71
-1.0686 1.25475 -0.431946 59
-1.54084 1.26835 -0.452029 45
-1.0637 1.25831 0.371731 55
-1.54259 1.2775 0.526657 50
-1.06536 1.25985 0.255207 53
-1.54038 1.28014 0.382228 45
-1.06163 1.25501 0.140757 55
-1.53253 1.27721 0.24035 49
-1.0636 1.25779 0.028142 55
-1.52742 1.27476 0.102448 44
-1.06372 1.25837 -0.0848041 56
-1.52881 1.27681 -0.0341631 44
-1.06476 1.26094 -0.19806 64
-1.50631 1.25768 -0.16831 18
-1.06083 1.25716 -0.312365 70
-1.0558 1.25294 -0.42936 59
-1.52833 1.27201 -0.450345 45
-1.05545 1.25252 0.369485 56
-1.53292 1.27404 0.524072 52
-1.05839 1.25604 0.254036 53
-1.53059 1.27656 0.380322 45
-1.05623 1.25305 0.140321 55
-1.52076 1.27195 0.238829 50
-1.0598 1.25773 0.0280984 55
-1.51752 1.27103 0.101924 44
-1.06313 1.26214 -0.0849353 56
-1.52082 1.27467 -0.0340322 45
-1.05777 1.2571 -0.197148 67
-1.51367 1.26828 -0.169397 35
-1.05548 1.25525 -0.311412 70
-1.5167 1.26949 -0.308124 44
-1.05516 1.25663 -0.430006 59
-1.52049 1.27 -0.44866 47
-1.04731 1.25616 0.368923 56
-1.52089 1.27713 0.522133 52
-1.04886 1.25759 0.253256 53
-1.51847 1.27956 0.378892 45
-1.0435 1.25072 0.139449 56
-1.51051 1.27644 0.23822 49
-1.04862 1.25732 0.0279675 55
-1.50916 1.27708 0.101793 45
-1.05034 1.25983 -0.0844102 56
-1.51053 1.27913 -0.0339449 45
-1.04663 1.25671 -0.196235 68
-1.49962 1.2695 -0.168527 35
-1.04597 1.2568 -0.31046 71
-1.50837 1.27556 -0.307732 47
-1.04416 1.25638 -0.428066 59
-1.50471 1.26985 -0.445853 45
-1.04067 1.25218 0.367239 56
-1.51126 1.27358 0.519549 52
-1.04508 1.25751 0.252865 53
-1.5106 1.27746 0.377463 45
