# .PCD v0.7 - Point Cloud Data file format
VERSION 0.7
FIELDS x y z intensity
SIZE 4 4 4 4
TYPE F F F F
COUNT 1 1 1 1
WIDTH 1584
HEIGHT 1
VIEWPOINT 0 0 0 1 0 0 0
POINTS 1584
DATA ascii
-1.2578 -2.22975 -0.220499 44
-1.15557 -1.40502 -0.346173 15
-1.25532 -2.22894 -0.40013 44
-1.24844 -2.22202 -0.579496 45
-3.1438 -5.61974 1.71373 32
-3.15485 -5.61429 1.24391 32
-3.16251 -5.61193 0.785548 32
-1.34327 -1.62995 0.0362574 12
-1.26146 -2.22899 0.13241 42
-1.28312 -1.55652 -0.104233 14
-1.26252 -2.22906 -0.044111 44
-1.24914 -1.51429 -0.236395 14
-1.26413 -2.23189 -0.220934 44
-1.15646 -1.40111 -0.345696 15
-1.26042 -2.22889 -0.400522 44
-1.2547 -2.22409 -0.580619 45
-3.17891 -5.61105 1.71632 30
-3.19269 -5.61263 1.24725 33
-3.19774 -5.60336 0.786765 32
-1.35339 -1.62482 0.036301 12
-1.27598 -2.22647 0.132672 44
-1.30085 -1.56128 -0.105021 14
-1.27828 -2.22871 -0.0442418 44
-1.26527 -1.51703 -0.237916 14
-1.28074 -2.23389 -0.221804 44
-1.1593 -1.38918 -0.344268 14
-1.27452 -2.22656 -0.401305 44
-1.84418 -2.20547 -0.760432 11
-1.27033 -2.22362 -0.582304 45
-4.56056 -5.45077 1.63011 11
-3.19347 -5.6139 1.7189 32
-4.56449 -5.45738 1.11877 11
-3.21342 -5.62624 1.25154 33
-4.59378 -5.49237 0.623381 11
-3.21023 -5.60479 0.787678 32
-1.36103 -1.6282 0.0364319 12
-1.28196 -2.2288 0.132933 44
-1.30518 -1.56092 -0.105152 14
-1.28217 -2.22648 -0.0442418 44
-1.27881 -1.52835 -0.240046 14
-1.2834 -2.22949 -0.221586 44
-1.16488 -1.39091 -0.34522 12
-1.28209 -2.23076 -0.40248 44
-1.84802 -2.20225 -0.760432 11
-1.27382 -2.22162 -0.582304 45
-4.63939 -5.48633 1.64808 9
-3.22786 -5.60813 1.72214 30
-4.65678 -5.50882 1.13438 12
-3.24553 -5.61628 1.25297 32
-4.65529 -5.50899 0.627957 14
-3.24575 -5.59864 0.789199 30
-1.38378 -1.63847 0.0368246 12
-1.29486 -2.22421 0.133064 42
-1.3214 -1.56359 -0.105808 14
-1.29593 -2.22428 -0.0443291 44
-1.29 -1.52543 -0.240654 14
-1.2988 -2.22921 -0.222239 44
-1.16556 -1.37751 -0.343316 14
-1.29746 -2.23042 -0.403654 44
-1.86071 -2.19471 -0.761079 9
-1.28909 -2.22125 -0.583988 44
-4.68207 -5.51723 1.65987 11
-3.24609 -5.61713 1.72666 29
-4.66959 -5.50445 1.13516 14
-3.26123 -5.61853 1.25487 32
-4.67134 -5.50845 0.628829 14
-3.25551 -5.59297 0.789199 26
-1.38854 -1.63772 0.0368682 12
-1.30251 -2.22842 0.133457 44
-1.32897 -1.56699 -0.106202 14
-1.30359 -2.2285 -0.04446 44
-1.30391 -1.53641 -0.242784 14
-1.30395 -2.22909 -0.222456 44
-1.16319 -1.36987 -0.341887 14
-1.30259 -2.23029 -0.404046 44
-1.86962 -2.19665 -0.763019 8
-1.29785 -2.22743 -0.586235 44
-4.71026 -5.48996 1.65931 12
-3.28252 -5.60992 1.72989 29
-4.71377 -5.49597 1.13867 14
-3.29061 -5.60138 1.25487 14
-4.69135 -5.47175 0.627521 12
-3.27314 -5.55389 0.786157 3
-1.40198 -1.63612 0.0369991 12
-1.31835 -2.2278 0.133849 45
-1.34204 -1.5657 -0.106596 14
-1.31943 -2.22787 -0.0445909 42
-1.3122 -1.52933 -0.242784 14
-1.31939 -2.22867 -0.223109 44
-1.16258 -1.35425 -0.339506 14
-1.31676 -2.22769 -0.404829 44
-1.88582 -2.19232 -0.764959 9
-1.31112 -2.22247 -0.586796 44
-4.72524 -5.48994 1.66156 11
-3.28498 -5.59168 1.72601 8
-4.71273 -5.47733 1.13633 12
-3.3066 -5.6062 1.25726 1
-4.70902 -5.47299 0.628611 12
-3.27303 -5.53378 0.784027 1
-1.41136 -1.64124 0.0371736 12
-1.32566 -2.23217 0.134242 45
-1.34803 -1.56714 -0.106858 14
-1.32459 -2.22771 -0.0446345 42
-1.32756 -1.5423 -0.245218 14
-1.32582 -2.23065 -0.223543 44
-1.16655 -1.35408 -0.339982 12
-1.3219 -2.22752 -0.40522 44
-1.88333 -2.18171 -0.762372 9
-1.31585 -2.22251 -0.587358 44
-4.75232 -5.46329 1.661 11
-3.28613 -5.52929 1.7118 1
-4.73811 -5.44886 1.13555 11
-3.3387 -5.59572 1.25869 1
-4.72522 -5.43594 0.627086 12
-3.24214 -5.41645 0.769728 1
-1.42293 -1.63785 0.0372609 12
-1.34246 -2.23377 0.134765 45
-1.36277 -1.56759 -0.107383 15
-1.33971 -2.22741 -0.0447654 42
-1.34051 -1.54094 -0.24613 14
-1.3362 -2.22154 -0.223326 44
-1.16532 -1.3389 -0.337602 14
-1.33861 -2.22904 -0.406786 44
-1.89911 -2.17761 -0.764312 11
-1.33121 -2.22186 -0.589042 44
-4.76826 -5.46232 1.66324 9
-3.31308 -5.55259 1.72084 2
-4.74923 -5.44244 1.13594 11
-3.33684 -5.56824 1.25392 2
-4.74452 -5.43894 0.628393 11
-3.30648 -5.50228 0.78281 3
-1.42607 -1.63512 0.0372609 12
-1.34378 -2.22714 0.134503 44
-1.37043 -1.57085 -0.107777 14
-1.34617 -2.22936 -0.0448527 42
-1.35137 -1.54794 -0.247652 14
-1.34649 -2.22987 -0.224413 42
-1.34377 -2.22882 -0.407178 42
-1.90488 -2.17578 -0.764959 11
-1.33634 -2.22163 -0.589604 44
-4.78968 -5.42732 1.66044 9
-3.33559 -5.52217 1.71697 14
-4.78351 -5.42222 1.13711 9
-3.38501 -5.58218 1.26107 2
-4.79036 -5.43186 0.630572 8
-3.39287 -5.57763 0.796197 11
-1.44123 -1.63512 0.0374354 12
-1.3597 -2.22623 0.134896 42
-1.38029 -1.56552 -0.107909 14
-1.35951 -2.22418 -0.0448963 42
-1.36301 -1.54433 -0.24826 14
-1.36074 -2.22705 -0.224848 42
-1.35927 -2.22808 -0.408352 42
-1.92585 -2.17662 -0.768838 12
-1.35086 -2.21853 -0.590727 44
-4.80143 -5.42343 1.66156 4
-3.32771 -5.48742 1.70792 14
-4.81494 -5.44058 1.14258 4
-3.40367 -5.59095 1.2644 11
-4.82624 -5.45333 0.634058 8
-3.38614 -5.54687 0.792546 12
-1.44408 -1.63261 0.0374354 12
-1.3645 -2.22623 0.135027 42
-1.38964 -1.57059 -0.108434 14
-1.366 -2.22607 -0.0449836 42
-1.36872 -1.5459 -0.248869 14
-1.36982 -2.23317 -0.225718 44
-1.36316 -2.22571 -0.408352 42
-1.92644 -2.16965 -0.767545 12
-1.35688 -2.22057 -0.59185 44
-4.87525 -5.44904 1.67728 3
-3.33653 -5.43961 1.69823 12
-4.91581 -5.49627 1.15975 8
-3.41394 -5.54438 1.25773 12
-4.9451 -5.53093 0.646042 9
-3.4008 -5.50583 0.789199 12
-1.46066 -1.63459 0.0376536 12
-1.38138 -2.22755 0.13555 41
-1.40617 -1.57259 -0.10909 14
-1.38119 -2.2255 -0.0451145 42
-1.38673 -1.5498 -0.250694 14
-1.3828 -2.22809 -0.225935 42
-1.37739 -2.22274 -0.409135 42
-1.94385 -2.16705 -0.770132 11
-1.3736 -2.22173 -0.594096 45
-4.98243 -5.54927 1.71097 12
-3.32831 -5.40498 1.68918 12
-4.98149 -5.55015 1.17301 11
-3.40781 -5.51067 1.25154 12
-4.97637 -5.54639 0.648874 11
-3.39996 -5.48301 0.786765 14
-1.46714 -1.6355 0.0377408 12
-1.38659 -2.22726 0.135681 39
-1.40892 -1.57013 -0.10909 14
-1.38639 -2.22521 -0.0451581 41
-1.39441 -1.55291 -0.251607 14
-1.38669 -2.22567 -0.225935 42
-1.38386 -2.22453 -0.409918 42
-1.94962 -2.16511 -0.770778 9
-1.37747 -2.21933 -0.594096 44
-5.0222 -5.53305 1.71434 11
-3.33454 -5.34998 1.67755 11
-5.02306 -5.53592 1.17575 9
-3.46262 -5.53438 1.26107 12
-5.0197 -5.53413 0.650618 11
-3.43485 -5.47295 0.787982 12
-1.47568 -1.6278 0.0377408 12
-1.40127 -2.22395 0.135943 38
-1.42383 -1.57013 -0.109615 14
-1.39974 -2.21979 -0.0452017 41
-1.40447 -1.54718 -0.251911 14
-1.40097 -2.2226 -0.22637 42
-1.39812 -2.22144 -0.410701 42
-1.96744 -2.16202 -0.773365 8
-1.39075 -2.21391 -0.594657 44
-5.03745 -5.53236 1.71659 12
-3.32596 -5.31548 1.6685 11
-5.04837 -5.54628 1.17965 9
-3.51009 -5.58862 1.27489 11
-5.0327 -5.52905 0.651053 11
-3.51608 -5.58308 0.804715 12
-1.48525 -1.63261 0.0379153 12
-1.40742 -2.22597 0.136204 36
-1.42657 -1.56764 -0.109615 14
-1.40627 -2.22158 -0.045289 41
-1.40883 -2.22647 -0.227023 42
-1.40594 -2.22527 -0.411876 42
-1.98098 -2.16927 -0.777245 3
-1.39811 -2.21791 -0.596342 44
-5.08945 -5.531 1.72445 9
-3.3296 -5.26182 1.65687 11
-5.08571 -5.52885 1.1816 9
-3.54096 -5.57493 1.27584 9
-5.08423 -5.52917 0.654104 11
-3.54127 -5.55831 0.803803 12
-1.49857 -1.63059 0.0380462 12
-1.41906 -2.21857 0.136204 33
-1.43814 -1.56382 -0.109878 14
-1.42288 -2.22286 -0.0454635 41
-1.42181 -2.22116 -0.22724 42
-1.42022 -2.22204 -0.412659 42
-1.99358 -2.16099 -0.777891 3
-1.41232 -2.21468 -0.597465 44
-5.11067 -5.53464 1.72838 9
-3.32068 -5.22745 1.64782 11
-5.10707 -5.53267 1.18433 11
-3.54243 -5.55363 1.27251 9
-5.11414 -5.54224 0.656718 11
-3.54696 -5.54585 0.80289 9
-1.50509 -1.63138 0.0381335 12
-1.42427 -2.2182 0.136335 30
-1.44256 -1.56314 -0.110009 14
-1.4281 -2.22248 -0.0455071 42
-1.42971 -2.22497 -0.227892 42
-1.42543 -2.22164 -0.413051 42
-1.99772 -2.15716 -0.777891 2
-1.41749 -2.21426 -0.598027 42
-5.16049 -5.52827 1.73512 9
-3.32543 -5.17282 1.63619 11
-5.16053 -5.53023 1.18979 11
-3.57013 -5.53294 1.27203 9
-5.15765 -5.52906 0.658462 12
-3.56614 -5.5099 0.800456 9
-1.51361 -1.62348 0.0381335 12
-1.44304 -2.22094 0.136989 29
-1.45925 -1.56469 -0.110665 14
-1.44418 -2.22102 -0.045638 42
-1.44405 -2.22164 -0.228327 42
-1.44106 -2.22037 -0.414225 42
-2.02055 -2.15901 -0.782418 2
-1.43209 -2.21065 -0.59915 42
-5.18915 -5.54149 1.74186 9
-3.31484 -5.13656 1.6265 11
-5.18608 -5.54014 1.1937 11
-3.56512 -5.50403 1.26679 8
-5.18261 -5.53641 0.660423 4
-3.56669 -5.4918 0.798631 8
-1.5267 -1.63178 0.0383953 12
-1.44652 -2.21867 0.136989 26
-1.46027 -1.56032 -0.110534 14
-1.44942 -2.22059 -0.0456817 41
-1.45335 -2.22747 -0.229197 42
-1.44762 -2.22199 -0.415008 42
-2.02762 -2.159 -0.783711 2
-1.43954 -2.21454 -0.600834 44
-5.23652 -5.53371 1.74803 1
-3.32102 -5.08936 1.6168 11
-5.24727 -5.54699 1.20111 1
-3.59025 -5.48181 1.26583 4
-5.19345 -5.49202 0.658244 9
-3.59853 -5.47991 0.799543 8
-1.45949 -2.21315 0.13712 23
-1.46471 -1.54928 -0.110272 12
-1.46339 -2.2174 -0.0457689 42
-1.46597 -2.22216 -0.229415 42
-1.45885 -2.21464 -0.415008 42
-2.05016 -2.16097 -0.788237 2
-1.4534 -2.2113 -0.601957 42
-5.22172 -5.50074 1.74017 8
-3.31007 -5.05324 1.60711 11
-5.21177 -5.49217 1.19096 9
-3.60385 -5.48169 1.26726 4
-5.19178 -5.47301 0.656936 9
-3.6722 -5.57104 0.813843 8
-1.46571 -2.21502 0.137382 21
-1.47237 -2.22344 -0.0459435 42
-1.47358 -2.22609 -0.230067 42
-1.17672 -1.239 -0.324745 14
-1.46407 -2.21415 -0.4154 42
-1.4626 -2.2169 -0.604203 44
-5.23094 -5.45491 1.734 9
-3.32008 -5.01484 1.6 11
-5.22241 -5.4479 1.18706 11
-3.70657 -5.57854 1.29395 4
-3.7086 -5.56478 0.815668 9
-1.47829 -2.20965 0.137513 18
-1.48638 -2.22012 -0.0460307 41
-1.48897 -2.22482 -0.230719 42
-1.17957 -1.22949 -0.323793 14
-1.48073 -2.21493 -0.416966 42
-1.47785 -2.21556 -0.605888 44
-3.30613 -4.97482 1.58902 11
-3.72174 -5.58023 1.29586 4
-3.70728 -5.54179 0.813234 8
-1.48631 -2.2133 0.137905 15
-1.49164 -2.2196 -0.0460743 42
-1.49285 -2.22222 -0.230719 42
-1.17831 -1.2239 -0.32284 14
-1.48871 -2.2185 -0.41814 41
-1.48712 -2.22108 -0.608134 44
-3.31147 -4.92478 1.57868 12
-3.74776 -5.55391 1.29443 8
-3.73304 -5.51548 0.812321 9
-1.50106 -2.20936 0.138167 15
-1.50503 -2.21357 -0.046118 42
-1.50764 -2.21824 -0.231154 42
-1.18834 -1.22102 -0.323793 12
-1.50208 -2.21246 -0.418532 41
-1.50184 -2.21704 -0.609257 44
-3.30251 -4.89296 1.57028 11
-3.75058 -5.53719 1.29205 4
-3.74266 -5.50896 0.812321 8
-1.50772 -2.21086 0.138429 14
-1.5117 -2.21507 -0.0462052 41
-1.51291 -2.21766 -0.231372 41
-1.18876 -1.21719 -0.323317 12
-1.5101 -2.21596 -0.419706 41
-1.50571 -2.21442 -0.609257 42
-3.24048 -3.28576 1.05567 2
-3.31313 -4.85364 1.56317 12
-3.77675 -5.51343 1.29109 4
-3.22193 -3.26921 0.39852 4
-3.75461 -5.46473 0.808671 9
-2.1406 -2.17192 0.052619 36
-1.51928 -2.20294 0.138429 14
-1.52611 -2.21125 -0.0462925 41
-1.52874 -2.21587 -0.232024 41
-1.18994 -1.20571 -0.321888 9
-1.52727 -2.21617 -0.421272 41
-1.51866 -2.20851 -0.609819 41
-3.22164 -3.25643 1.04781 3
-3.30114 -4.81795 1.55348 12
-3.22707 -3.26189 0.719573 8
-3.76969 -5.48255 1.28537 4
-3.20661 -3.24234 0.395905 12
-3.79651 -5.50517 0.815668 8
-2.17077 -2.19482 0.0532735 39
-1.52879 -2.20851 0.138952 14
-1.53543 -2.2173 -0.232459 41
-1.19377 -1.20537 -0.322364 9
-1.53113 -2.2135 -0.421272 41
-1.52941 -2.2159 -0.612626 44
-3.24094 -3.24067 1.04837 3
-3.30847 -4.77478 1.54508 12
-3.2441 -3.24494 0.719573 8
-3.82914 -5.50709 1.29586 4
-3.23235 -3.23431 0.396994 8
-3.86782 -5.54631 0.824795 9
-2.18753 -2.18873 0.0534044 39
-1.54747 -2.21071 0.139606 12
-1.55168 -2.21508 -0.233111 41
-1.19485 -1.19391 -0.320936 8
-1.55117 -2.21761 -0.423622 41
-1.54656 -2.21586 -0.614872 44
-3.29476 -4.73726 1.53474 12
-3.8776 -5.55408 1.30873 8
-3.87892 -5.54159 0.8251 9
-2.20059 -2.19335 0.0536225 38
-1.55276 -2.21005 0.139737 12
-1.55697 -2.21441 -0.233329 41
-1.20737 -1.2022 -0.323793 8
-1.55646 -2.21692 -0.424013 41
-1.55042 -2.21316 -0.614872 42
-3.30369 -4.69565 1.52698 12
-3.91652 -5.54775 1.31206 8
-3.90455 -5.51444 0.824187 9
-2.22094 -2.19057 0.0538407 39
-1.56325 -2.19958 0.139606 11
-1.55559 -1.53277 -0.263472 15
-1.21561 -1.19737 -0.324269 8
-1.56799 -2.2127 -0.617118 44
-5.50089 -5.40392 1.76937 12
-3.29657 -4.66816 1.51987 12
-5.48929 -5.39251 1.21048 12
-3.91911 -5.53089 1.30968 4
-5.48715 -5.39227 0.67001 14
-3.91273 -5.50559 0.823883 8
-2.22655 -2.18844 0.0538843 39
-1.56853 -2.19888 0.139737 11
-1.56535 -1.537 -0.264689 15
-1.21419 -1.19181 -0.323317 4
-1.57608 -2.21592 -0.618803 44
-5.60694 -5.44876 1.79408 11
-3.30134 -4.6233 1.51083 12
-5.59537 -5.43941 1.22765 11
-3.93945 -5.49831 1.30682 4
-5.61531 -5.46068 0.682212 12
-3.92559 -5.46285 0.820536 8
-2.24694 -2.18546 0.0541025 38
-1.58731 -2.20078 0.140391 9
-1.16969 -1.61842 -0.0342503 11
-1.57338 -1.52878 -0.264689 15
-1.2257 -1.19057 -0.324745 4
-1.58908 -2.20962 -0.619365 41
-5.64349 -5.46706 1.80306 12
-3.28833 -4.58807 1.50113 11
-5.6563 -5.47946 1.23896 12
-3.93187 -5.46751 1.3011 3
-5.54434 -5.37289 0.672407 1
-2.25973 -2.19023 0.0543206 38
-1.59407 -2.20205 0.140653 9
-1.1652 -1.60624 -0.0340322 12
-1.57961 -1.52948 -0.265298 15
-1.22425 -1.18501 -0.323793 4
-1.60004 -2.21673 -0.622172 44
-5.69585 -5.45836 1.81036 12
-3.29815 -4.55122 1.49467 11
-5.69205 -5.4566 1.24052 12
-5.68206 -5.44892 0.685698 14
-2.27838 -2.18528 0.0544951 38
-1.61293 -2.20376 0.141307 8
-1.17507 -1.60213 -0.0340758 12
-1.59298 -1.52634 -0.26621 15
-1.23753 -1.18537 -0.325697 4
-1.61593 -2.21423 -0.623857 44
-5.69561 -5.44099 1.80756 12
-3.29048 -4.52396 1.48756 4
-5.70156 -5.44666 1.24052 12
-5.69156 -5.43899 0.685698 14
-2.28581 -2.18476 0.0545824 36
-1.61972 -2.20497 0.141569 4
-1.17786 -1.60008 -0.0340758 12
-1.59923 -1.52698 -0.266819 14
-1.23782 -1.18152 -0.325221 8
-1.62266 -2.21534 -0.62498 44
-5.73205 -5.41679 1.8098 12
-3.29841 -4.48526 1.48045 4
-5.72462 -5.41164 1.23935 12
-5.72539 -5.41425 0.686351 12
-3.29662 -4.45355 0.675109 1
-2.3063 -2.18134 0.0548006 36
-1.63125 -2.19646 0.141569 3
-1.18325 -1.58987 -0.0339886 14
-1.24935 -1.18007 -0.32665 8
-1.15778 -1.55769 -0.302251 12
-1.63713 -2.21074 -0.626103 45
-5.74682 -5.41178 1.81149 12
-3.28761 -4.45422 1.47205 2
-5.73585 -5.40333 1.23974 12
-5.72939 -5.39912 0.685698 12
-3.29551 -4.43583 0.673284 1
-2.31959 -2.18548 0.0550187 36
-1.63657 -2.19562 0.1417 2
-1.18453 -1.5858 -0.0339449 14
-1.25141 -1.17789 -0.32665 8
-1.15903 -1.55368 -0.30186 14
-2.27014 -2.13151 -0.824448 11
-1.64534 -2.21375 -0.627787 44
-5.7778 -5.38227 1.81205 9
-3.303 -4.42474 1.46818 3
-5.77042 -5.37727 1.24091 9
-5.77674 -5.38502 0.687877 8
-2.34014 -2.18182 0.0552369 36
-1.64992 -2.18873 0.14183 3
-0.726222 -0.678159 -0.0504098 30
-1.19459 -1.58137 -0.0339886 14
-1.25776 -1.1711 -0.32665 9
-1.16715 -1.54759 -0.30186 14
-2.26711 -2.10645 -0.819275 8
-1.65875 -2.20677 -0.628349 44
-5.84873 -5.4312 1.8317 8
-3.28469 -4.38416 1.45655 14
-5.88562 -5.46734 1.26394 11
-5.88468 -5.46645 0.699643 11
-2.35311 -2.18624 0.055455 36
-1.65787 -2.19211 0.142223 2
-0.718255 -0.6684 -0.0497535 30
-1.19735 -1.57928 -0.0339886 14
-1.16133 -1.53206 -0.164831 11
-1.258 -1.16724 -0.326174 9
-1.16688 -1.54161 -0.301077 15
-2.27433 -2.10577 -0.820569 8
-1.6666 -2.21 -0.630034 44
-5.92374 -5.44335 1.8463 9
-3.29373 -4.35014 1.45073 14
-5.92326 -5.4448 1.26589 9
-5.90677 -5.43154 0.698989 11
-2.37519 -2.18445 0.0557168 36
-1.67688 -2.19333 0.142877 3
-0.723467 -0.666445 -0.0498847 30
-1.20685 -1.57519 -0.0340322 14
-1.15246 -1.50438 -0.162439 11
-1.26751 -1.16417 -0.327126 9
-1.17643 -1.53744 -0.301468 15
-2.27962 -2.08934 -0.818629 8
-5.93408 -5.43568 1.84686 9
-3.29256 -4.33284 1.44685 14
-5.92911 -5.43112 1.26511 9
-5.92726 -5.43131 0.700296 11
-2.38268 -2.18367 0.0558041 36
-0.717263 -0.658438 -0.0493596 30
-1.20959 -1.57308 -0.0340322 14
-1.1445 -1.48851 -0.160916 3
-1.26954 -1.16196 -0.327126 11
-1.17761 -1.53342 -0.301077 14
-2.28505 -2.08699 -0.819275 4
-5.95618 -5.39695 1.84462 9
-5.94832 -5.39171 1.26316 9
-5.93901 -5.38515 0.698335 11
-2.40705 -2.18292 0.0561095 36
-0.722666 -0.656224 -0.0494909 30
-1.22087 -1.57068 -0.0341195 14
-2.40777 -2.18052 -0.393991 36
-1.14187 -1.46851 -0.159394 3
-1.28471 -1.16352 -0.329507 9
-1.18864 -1.53115 -0.30186 14
-2.29415 -2.07338 -0.818629 4
-5.96197 -5.38329 1.84349 8
-5.95405 -5.37801 1.26238 9
-5.94471 -5.37144 0.6979 9
-2.4168 -2.18332 0.0562404 36
-0.716396 -0.648272 -0.0489658 30
-1.22821 -1.57447 -0.0342503 14
-2.4171 -2.1813 -0.394904 36
-1.13985 -1.46061 -0.158742 3
-1.28492 -1.15964 -0.329031 11
-1.19434 -1.53297 -0.302643 14
-2.29992 -2.07058 -0.819275 4
-2.43193 -2.17396 0.0563276 35
-0.721642 -0.646174 -0.0490971 33
-1.24134 -1.5737 -0.0343812 14
-2.43813 -2.17645 -0.396425 36
-1.13826 -1.44287 -0.157437 3
-1.2985 -1.1592 -0.330935 11
-1.20718 -1.53232 -0.303817 14
-2.31253 -2.06012 -0.819922 4
-1.73169 -2.20932 0.741843 9
-2.44879 -2.18135 0.0566331 35
-0.719039 -0.641595 -0.0488345 32
-1.24873 -1.57742 -0.0345121 14
-2.4512 -2.18043 -0.397946 36
-1.13615 -1.43501 -0.156785 3
-1.30052 -1.15693 -0.330935 12
-1.2068 -1.52633 -0.303034 14
-2.3089 -2.04967 -0.817335 8
-1.74623 -2.20401 0.743135 8
-6.57329 -5.79291 0.763484 3
-1.74346 -2.18646 0.338619 9
-2.46956 -2.17676 0.0568512 35
-0.722388 -0.637821 -0.0488345 30
-1.26475 -1.58064 -0.0347303 14
-2.46817 -2.17248 -0.398859 36
-1.1421 -1.42709 -0.156567 3
-1.31209 -1.15497 -0.332364 9
-1.21939 -1.52579 -0.304209 14
-2.32868 -2.04552 -0.820569 8
-6.45769 -5.6691 1.97265 3
-6.34315 -5.56857 1.32832 1
-6.59837 -5.79457 0.765227 3
-1.74263 -2.1776 0.337707 9
-2.47899 -2.17739 0.0569821 35
-0.721624 -0.634913 -0.0487033 32
-1.27219 -1.58428 -0.0348612 14
-2.48316 -2.17799 -0.400684 36
-1.13526 -1.41342 -0.155263 3
-1.31226 -1.15106 -0.331888 9
-1.22513 -1.52751 -0.304992 14
-2.32861 -2.03827 -0.819275 8
-6.4928 -5.64001 1.97433 3
-6.36939 -5.53477 1.32793 2
-6.59565 -5.73333 0.761523 3
-2.49753 -2.17137 0.0571566 35
-0.721058 -0.627979 -0.0484407 32
-1.28334 -1.58171 -0.0349484 14
-2.50352 -2.17352 -0.402206 36
-1.32919 -1.15405 -0.334745 9
-1.23749 -1.52706 -0.306166 12
-2.34255 -2.02962 -0.820569 9
-6.44087 -5.57718 1.9558 3
-6.40331 -5.54466 1.33301 1
-6.6113 -5.7267 0.762177 3
-2.50887 -2.17355 0.0573311 33
-0.720265 -0.625086 -0.0483094 32
-1.29239 -1.58724 -0.035123 14
-2.51857 -2.17888 -0.404031 36
-1.33306 -1.15333 -0.335221 9
-1.24482 -1.53066 -0.307341 12
-2.34243 -2.02237 -0.819275 9
-6.4728 -5.54384 1.95636 2
-6.44163 -5.51908 1.33496 2
-6.62984 -5.68228 0.76087 3
-2.53768 -2.17458 0.0577238 35
-0.71605 -0.614686 -0.0477843 32
-1.30096 -1.58022 -0.035123 14
-2.5356 -2.1705 -0.404944 33
-1.33742 -1.14451 -0.334745 11
-1.26376 -1.5375 -0.310082 12
-2.35701 -2.0128 -0.820569 9
-6.5047 -5.55151 1.9631 3
-6.45973 -5.51312 1.33652 1
-6.57254 -5.61134 0.753026 2
-2.54566 -2.17295 0.0578111 33
-0.722928 -0.618169 -0.0481782 32
-1.31352 -1.58931 -0.0353848 14
-2.5511 -2.17529 -0.406769 35
-1.34896 -1.14989 -0.337125 9
-1.26827 -1.53698 -0.310473 12
-2.36455 -2.0114 -0.821862 9
-6.57478 -5.54421 1.97433 8
-6.53479 -5.51244 1.34549 1
-6.58953 -5.56054 0.751283 2
-2.57113 -2.16997 0.0581165 35
-0.718734 -0.607686 -0.047653 32
-1.32557 -1.58579 -0.035472 14
-2.57308 -2.16855 -0.40829 35
-1.35348 -1.14076 -0.336649 11
-1.28342 -1.53724 -0.312039 12
-2.3739 -1.99661 -0.821215 9
-6.63011 -5.57306 1.98837 12
-6.57654 -5.52803 1.35213 1
-6.63354 -5.57788 0.755204 2
-4.5591 -5.46451 0.868302 12
-2.5864 -2.17513 0.0583783 35
-0.719793 -0.60643 -0.047653 32
-1.33314 -1.58923 -0.0356029 14
-2.58446 -2.17044 -0.409507 35
-1.36111 -1.14312 -0.338078 11
-1.28768 -1.5369 -0.312431 12
-2.37738 -1.99247 -0.821215 9
-1.1742 -1.40371 -0.413846 4
-6.68452 -5.55735 1.99567 14
-6.67375 -5.55035 1.36617 11
-4.58369 -5.45124 1.3764 11
-6.67031 -5.54944 0.756076 12
-4.64999 -5.51459 0.880167 11
-2.60736 -2.16955 0.0585965 35
-1.84305 -2.17817 0.147718 9
-0.711439 -0.593079 -0.0468654 32
-1.35273 -1.5956 -0.0359083 14
-2.60724 -2.16639 -0.411333 35
-1.36519 -1.13441 -0.337602 11
-1.3034 -1.5398 -0.314388 12
-2.38778 -1.97999 -0.821215 8
-1.17996 -1.39568 -0.413284 8
-6.70638 -5.55772 1.9996 15
-6.68437 -5.54144 1.36657 14
-4.66278 -5.5258 1.39737 11
-6.68957 -5.54574 0.757166 14
-4.66505 -5.51486 0.881384 12
-2.61884 -2.17137 0.058771 35
-1.84647 -2.17527 0.147718 4
-0.712473 -0.591836 -0.0468654 32
-1.35874 -1.59705 -0.0359956 14
-2.62211 -2.17178 -0.413158 35
-1.37095 -1.13516 -0.338554 11
-1.31724 -1.55072 -0.317129 14
-2.40054 -1.98351 -0.824448 8
-1.17116 -1.38079 -0.409353 8
-6.66002 -5.46076 1.97714 12
-6.69992 -5.4954 1.36383 14
-4.69705 -5.50961 1.39928 12
-6.6983 -5.49601 0.754987 14
-4.69386 -5.49036 0.881384 12
-2.6414 -2.1676 0.0590328 33
-1.86594 -2.17506 0.148372 4
-0.713528 -0.58664 -0.0467341 33
-1.37168 -1.59585 -0.0361265 14
-2.64113 -2.16431 -0.414375 35
-1.31634 -1.53169 -0.173311 12
-1.37478 -1.12665 -0.338078 11
-1.32667 -1.54591 -0.31752 14
-2.40868 -1.9698 -0.823802 8
-1.17679 -1.37279 -0.408792 9
-6.62897 -5.41792 1.96535 11
-6.63972 -5.42861 1.34979 12
-4.71463 -5.51073 1.40166 11
-6.68089 -5.46225 0.751936 12
-4.7041 -5.48486 0.881688 12
-2.65292 -2.16931 0.0592073 35
-1.87748 -2.1816 0.149027 3
-0.710684 -0.582235 -0.0464716 33
-1.37772 -1.59725 -0.0362137 14
-2.65606 -2.16957 -0.416201 35
-1.32712 -1.53884 -0.174399 12
-1.38245 -1.1289 -0.339506 11
-1.3358 -1.5511 -0.319086 14
-2.41399 -1.96712 -0.824448 8
-1.16944 -1.35983 -0.405423 9
-6.63452 -5.36476 1.95861 11
-6.63541 -5.36738 1.34315 12
-4.73605 -5.47936 1.39976 8
-6.66779 -5.39547 0.74736 12
-4.7295 -5.4564 0.88108 11
-2.67553 -2.16529 0.0594691 33
-0.717505 -0.58177 -0.0467341 33
-1.38907 -1.59403 -0.036301 14
-2.68283 -2.16811 -0.418635 35
-1.34305 -1.54151 -0.175486 14
-1.3977 -1.1296 -0.341887 12
-1.34848 -1.54991 -0.320261 14
-2.41639 -1.94882 -0.821862 8
-1.17177 -1.34816 -0.403738 9
-6.62776 -5.3421 1.95412 9
-6.62845 -5.34455 1.34003 12
-4.744 -5.46923 1.39928 8
-6.65392 -5.36507 0.744746 12
-4.74295 -5.45459 0.881993 11
-2.68903 -2.16846 0.0596872 33
-0.710742 -0.574252 -0.046209 33
-1.40169 -1.60292 -0.0365628 14
-2.69203 -2.16856 -0.419547 35
-1.35228 -1.54668 -0.176356 14
-1.39775 -1.12562 -0.341411 12
-1.35928 -1.55688 -0.322219 14
-2.4405 -1.96123 -0.828975 8
-1.15793 -1.32791 -0.398123 9
-6.68802 -5.33314 1.96366 9
-6.66213 -5.31439 1.3412 12
-4.77809 -5.45254 1.40119 8
-6.65958 -5.31424 0.742349 12
-4.76981 -5.42781 0.881688 9
-2.71365 -2.16573 0.0599926 33
-0.71364 -0.570648 -0.046209 32
-1.41144 -1.59768 -0.0366064 14
-2.71305 -2.16216 -0.421069 35
-1.39383 -1.11089 -0.33903 12
-1.36552 -1.54812 -0.321827 14
-2.43905 -1.93984 -0.825095 8
-1.15844 -1.3145 -0.395877 4
-6.71547 -5.33778 1.96928 9
-6.6898 -5.31928 1.3451 12
-4.78274 -5.43866 1.39976 8
-6.68054 -5.31191 0.743656 12
-4.81112 -5.45756 0.887773 4
-2.72721 -2.16876 0.0602108 35
-0.710725 -0.566296 -0.0459465 33
-1.41753 -1.59896 -0.0366937 14
-2.732 -2.17024 -0.423502 35
-1.14603 -1.29621 -0.390823 3
-6.76247 -5.31761 1.97489 8
-3.30903 -3.73543 1.32601 1
-6.75444 -5.31318 1.35252 12
-4.84115 -5.44926 1.40881 4
-6.76802 -5.32576 0.750411 11
-4.88086 -5.47865 0.895379 4
-2.74995 -2.1642 0.0604726 35
-0.711717 -0.561024 -0.0458152 32
-1.42727 -1.59363 -0.0367373 14
-2.76284 -2.17123 -0.426545 32
-1.14147 -1.27745 -0.386892 4
-6.9712 -5.46202 2.03329 9
-3.29952 -3.71158 1.31955 3
-6.91921 -5.42323 1.38374 11
-4.91526 -5.51143 1.4274 8
-4.94165 -5.5275 0.904811 9
-2.76197 -2.16508 0.0606471 33
-0.706798 -0.555164 -0.0454214 32
-1.44005 -1.60231 -0.0369991 14
-2.77053 -2.16946 -0.427153 17
-1.13235 -1.26272 -0.382962 3
-3.30181 -3.6739 1.31244 4
-4.99659 -5.54399 1.44265 11
-5.00973 -5.54305 0.911808 9
-2.78512 -2.15978 0.0609089 33
-0.713643 -0.554513 -0.0456839 33
-1.4487 -1.5945 -0.0369991 14
-1.14569 -1.26382 -0.385208 4
-3.28883 -3.64659 1.30469 4
-5.01942 -5.54983 1.44646 12
-5.02676 -5.54437 0.913329 9
-2.80274 -2.16561 0.0612143 33
-0.70868 -0.54869 -0.0452901 32
-1.45484 -1.59567 -0.0370864 14
-1.14277 -1.2566 -0.383523 4
-3.2845 -3.60488 1.29564 4
-2.86429 -2.19009 0.564264 2
-5.05902 -5.53705 1.4498 11
-2.85851 -2.18645 0.3118 9
-5.06409 -5.52713 0.91485 9
-2.81763 -2.15443 0.0613016 44
-0.713528 -0.546487 -0.0454214 33
-1.46966 -1.59566 -0.0372609 14
-1.15427 -1.25599 -0.385208 3
-2.85544 -2.17467 0.819268 9
-3.28591 -3.59379 1.2937 8
-2.874 -2.18958 0.565435 2
-5.08456 -5.54361 1.45409 11
-2.84251 -2.16637 0.309621 11
-5.09555 -5.54204 0.918806 9
-2.83569 -2.15961 0.061607 38
-0.710506 -0.542218 -0.0451588 32
-1.47413 -1.59493 -0.0373045 14
-1.14987 -1.24679 -0.382962 4
-2.85938 -2.15333 0.817022 9
-2.85424 -2.15023 0.559191 11
-5.13019 -5.53492 1.45885 8
-2.84822 -2.14646 0.308967 14
-5.14572 -5.53621 0.922457 9
-2.85095 -2.14774 0.0616943 26
-0.709346 -0.535488 -0.0448963 32
-1.48955 -1.59425 -0.037479 14
-1.15826 -1.24234 -0.383523 12
-2.86665 -2.15176 0.818145 8
-2.86947 -2.15464 0.561533 17
-5.1482 -5.53495 1.46124 9
-2.85595 -2.14448 0.309403 20
-5.16794 -5.54265 0.92489 9
-2.8427 -2.13376 0.0614325 11
-0.704287 -0.529757 -0.0445024 30
-1.49574 -1.5953 -0.0375663 14
-1.15689 -1.23695 -0.3824 12
-2.87592 -2.13527 0.817584 2
-2.89261 -2.14841 0.563874 1
-5.19462 -5.52851 1.46648 8
-2.85477 -2.12109 0.308096 1
-5.19859 -5.51732 0.925195 2
-2.87353 -2.13424 0.0618688 2
-0.706959 -0.526185 -0.0445024 30
-1.50723 -1.59135 -0.0376536 14
-1.15668 -1.22377 -0.380154 14
-2.87144 -2.12496 0.815338 2
-2.89834 -2.14483 0.564264 1
-5.23454 -5.55159 1.47506 1
-2.8925 -2.14128 0.3118 2
-5.19799 -5.49742 0.923369 11
-2.88931 -2.13814 0.0621306 2
-0.705869 -0.523467 -0.0443712 30
-1.51344 -1.59235 -0.0377408 14
-0.869164 -0.642094 -0.279989 45
-1.15045 -1.21289 -0.377346 14
-2.89076 -2.11514 0.817584 2
-2.91351 -2.13254 0.565045 2
-5.2297 -5.48855 1.46553 8
-2.88759 -2.11434 0.310057 1
-5.20957 -5.45217 0.920327 8
-2.88836 -2.11413 0.0618688 1
-0.710706 -0.521113 -0.0445024 30
-1.52175 -1.5844 -0.0377408 14
-0.871065 -0.637847 -0.128085 41
-0.862039 -0.630801 -0.200466 41
-0.866659 -0.633267 -0.278049 42
-1.15175 -1.20156 -0.375662 14
-2.94697 -2.14832 0.0630468 17
-0.711615 -0.519872 -0.0445024 30
-1.52798 -1.58535 -0.0378281 14
-0.868164 -0.633405 -0.127477 41
-0.855198 -0.623522 -0.198561 41
-0.863964 -0.628765 -0.276756 41
-1.14879 -1.19427 -0.373977 14
-2.98657 -2.15331 0.0636576 21
-1.54001 -1.58065 -0.0379153 14
-0.873592 -0.630148 -0.127781 41
-0.860552 -0.620319 -0.199037 41
-0.867245 -0.624233 -0.276756 41
-1.15354 -1.18628 -0.373416 14
-3.00454 -2.1583 0.0639631 20
-1.548 -1.58333 -0.0380462 14
-0.868531 -0.624437 -0.126868 41
-0.859638 -0.617387 -0.198561 41
-0.870297 -0.624123 -0.277403 42
-1.15201 -1.18097 -0.372293 14
-3.02358 -2.14886 0.0641376 18
-0.697553 -0.496691 -0.0431897 26
-1.556 -1.57547 -0.0380462 14
-0.865716 -0.615575 -0.125955 42
-1.5225 -1.5414 -0.186141 15
-0.862752 -0.613028 -0.198561 42
-0.865559 -0.614131 -0.274816 42
-1.15307 -1.1697 -0.370608 14
-3.0907 -2.18764 0.864752 2
-3.20663 -3.2698 1.21616 2
-3.08978 -2.18778 0.592751 3
-3.20942 -3.26016 0.881699 1
-3.07088 -2.17519 0.32618 9
-3.21221 -3.25508 0.556455 9
-3.05015 -2.15892 0.0646175 27
-0.694342 -0.492591 -0.0429271 26
-1.5605 -1.57453 -0.0380899 14
-0.870843 -0.616927 -0.126564 41
-1.52519 -1.53874 -0.186141 15
-0.859811 -0.60869 -0.197609 42
-1.52862 -1.54433 -0.339054 14
-0.862789 -0.609686 -0.273523 41
-1.15681 -1.16943 -0.37117 14
-3.08253 -2.15692 0.859137 2
-3.2005 -3.22836 1.20711 1
-3.10157 -2.17103 0.592751 9
-3.19705 -3.21371 0.873597 1
-3.07648 -2.15427 0.325527 11
-3.24728 -3.25524 0.559498 8
-3.06141 -2.14292 0.0646175 29
-1.57429 -1.57138 -0.0382208 14
-0.868065 -0.607944 -0.125651 41
-1.53498 -1.53249 -0.186359 15
-0.861079 -0.602625 -0.197133 42
-1.54017 -1.53981 -0.339837 14
-0.863988 -0.60378 -0.272876 42
-1.16312 -1.16315 -0.37117 14
-3.07991 -2.1479 0.857452 9
-3.24526 -3.26219 1.22197 4
-3.08674 -2.15344 0.589239 9
-3.07411 -2.14462 0.324873 12
-3.07335 -2.14329 0.0647921 12
-1.57703 -1.56863 -0.0382208 14
-0.866982 -0.605162 -0.125347 42
-1.54294 -1.53509 -0.187011 15
-0.856084 -0.596918 -0.195704 42
-1.54809 -1.54236 -0.341011 14
-0.859089 -0.598139 -0.270936 42
-1.15979 -1.15615 -0.369485 14
-3.09714 -2.13589 0.859137 8
-3.09594 -2.13585 0.588848 8
-3.08697 -2.13045 0.325091 12
-3.08416 -2.12771 0.0647921 11
-0.857875 -0.592172 -0.123522 42
-1.55423 -1.53077 -0.187446 15
-0.857072 -0.591187 -0.195228 41
-1.56317 -1.54118 -0.342577 14
-0.868077 -0.597885 -0.272876 42
-1.16756 -1.15177 -0.370046 14
-3.11454 -2.14068 0.863067 2
-3.11188 -2.13883 0.59119 2
-3.09479 -2.12788 0.325527 2
-5.48908 -5.41379 0.941015 12
-3.09405 -2.12657 0.064923 2
-0.858907 -0.590674 -0.123522 42
-1.56045 -1.53155 -0.187881 15
-0.860128 -0.591077 -0.195704 42
-1.56937 -1.54192 -0.343361 14
-0.867127 -0.595005 -0.27223 42
-1.16264 -1.14288 -0.3678 14
-3.1281 -2.12516 0.863629 2
-5.49872 -5.40049 2.05299 11
-3.12508 -2.1239 0.59158 2
-5.52323 -5.40575 1.49412 12
-3.11413 -2.11724 0.326398 2
-5.54398 -5.41099 0.945579 12
-3.10927 -2.11315 0.0650102 2
-0.855826 -0.581991 -0.122609 41
-1.5738 -1.52858 -0.188533 15
-0.857115 -0.582435 -0.194276 42
-1.57212 -1.5285 -0.342186 12
-0.860229 -0.583691 -0.268996 42
-1.1686 -1.13678 -0.3678 15
-3.14556 -2.1298 0.86756 2
-5.53401 -5.41624 2.06269 11
-3.14514 -2.12951 0.594702 2
-5.61518 -5.4767 1.51652 11
-3.13638 -2.12437 0.328359 4
-5.63341 -5.47921 0.95927 14
-3.13366 -2.12173 0.0654465 11
-0.852728 -0.577718 -0.122 41
-1.57825 -1.52756 -0.188751 15
-0.858131 -0.580939 -0.194276 42
-1.56771 -1.51887 -0.34062 11
-0.863249 -0.583538 -0.269643 42
-1.17407 -1.13814 -0.368923 15
-3.15703 -2.11275 0.86756 2
-5.66285 -5.4847 2.10017 8
-3.1542 -2.11164 0.594311 4
-5.67202 -5.47451 1.52415 12
-3.15367 -2.11207 0.329013 11
-5.67453 -5.46169 0.961399 14
-3.15927 -2.11502 0.0657519 15
-0.855742 -0.573246 -0.122 41
-1.58828 -1.52073 -0.188968 15
-0.850954 -0.569625 -0.191895 41
-1.5703 -1.5055 -0.339445 11
-0.858254 -0.573654 -0.267057 42
-1.17826 -1.13028 -0.368362 15
-3.16882 -2.11264 0.869806 3
-5.69846 -5.49999 2.10986 11
-3.17637 -2.11845 0.597824 4
-5.68959 -5.47041 1.52605 12
-3.1615 -2.10933 0.329449 3
-5.68047 -5.44834 0.960791 14
-3.16124 -2.10756 0.0657083 2
-0.854675 -0.570377 -0.121696 41
-1.59993 -1.52657 -0.190055 15
-0.851947 -0.568139 -0.191895 42
-1.56224 -1.4925 -0.337096 11
-0.863379 -0.574675 -0.26835 42
-1.18199 -1.12992 -0.368923 15
-3.18835 -2.10082 0.872052 3
-5.74385 -5.48409 2.11567 11
-3.18985 -2.1026 0.598214 3
-5.72882 -5.4507 1.52891 12
-3.1791 -2.0963 0.330102 4
-5.72066 -5.42778 0.962616 12
-3.1618 -2.08411 0.0654901 9
-2.31052 -2.18372 -0.0548878 35
-0.855675 -0.564381 -0.121392 41
-1.61151 -1.5216 -0.19049 15
-0.852957 -0.562174 -0.191419 42
-1.56108 -1.4758 -0.335139 11
-0.862338 -0.567497 -0.267057 42
-1.18632 -1.12182 -0.368362 15
-5.74992 -5.47073 2.11438 11
-5.7312 -5.43394 1.52701 12
-3.15569 -2.07298 0.32727 3
-5.75621 -5.44438 0.96718 12
-3.14871 -2.06761 0.0651411 3
-2.3216 -2.18655 -0.0550623 35
-0.850334 -0.558955 -0.120479 41
-1.61779 -1.5222 -0.190925 15
-0.851884 -0.55934 -0.190942 42
-1.56545 -1.47477 -0.33553 11
-0.859284 -0.563349 -0.265763 42
-1.19162 -1.12331 -0.369485 15
-5.77753 -5.44156 2.11438 9
-5.76221 -5.40822 1.52796 11
-3.16405 -2.05563 0.327052 3
-5.77196 -5.40229 0.96505 9
-3.16543 -2.05573 0.065272 2
-2.33994 -2.1816 -0.0552369 35
-0.855332 -0.555845 -0.120783 41
-1.63119 -1.51882 -0.191578 14
-0.852644 -0.553687 -0.190466 42
-1.56774 -1.46149 -0.334356 11
-0.858068 -0.55637 -0.26447 42
-1.19748 -1.11706 -0.369485 15
-5.79406 -5.43808 2.11697 9
-5.77617 -5.4005 1.52891 9
-3.17182 -2.05281 0.327488 2
-5.82491 -5.43285 0.972352 9
-3.16307 -2.04558 0.0651411 1
-2.35106 -2.18433 -0.0554114 35
-0.852131 -0.55166 -0.120175 41
-1.64659 -1.52785 -0.1931 14
-0.849484 -0.549538 -0.189514 42
-1.56487 -1.4537 -0.333181 11
-0.855073 -0.552108 -0.263177 44
-1.20121 -1.11663 -0.370046 15
-5.86408 -5.44447 2.13183 8
-5.89978 -5.45858 1.55417 11
-3.18708 -2.0383 0.327923 2
-5.89796 -5.44167 0.979654 11
-3.17374 -2.02899 0.0651411 2
-2.37571 -2.18344 -0.0557168 35
-0.857195 -0.548375 -0.120479 41
-1.65274 -1.51752 -0.192882 14
-0.854514 -0.546253 -0.18999 42
-1.58153 -1.45386 -0.335139 11
-0.862027 -0.550216 -0.26447 44
-1.20723 -1.11011 -0.370046 15
-5.9657 -5.51957 2.16543 12
-5.91291 -5.4516 1.55513 9
-3.16962 -2.01936 0.325745 9
-5.8992 -5.42567 0.978437 11
-3.1604 -2.01272 0.0647921 12
-0.626996 -0.400467 -0.0372823 14
-2.38504 -2.18436 -0.0558477 35
-0.851773 -0.543035 -0.119566 41
-1.66089 -1.51969 -0.193535 4
-0.851322 -0.54213 -0.189038 42
-1.58044 -1.44775 -0.334356 11
-0.856867 -0.544832 -0.26253 42
-1.20898 -1.10822 -0.370046 14
-6.01314 -5.50726 2.17254 12
-5.94224 -5.42326 1.5556 9
-5.9367 -5.40307 0.979958 8
-3.17478 -1.99936 0.0648793 21
-0.631197 -0.398508 -0.0374136 14
-2.40346 -2.17899 -0.0560222 35
-0.852504 -0.537248 -0.119262 41
-0.845741 -0.532594 -0.187133 41
-1.58434 -1.43613 -0.333573 11
-0.857568 -0.539205 -0.261884 42
-1.21476 -1.10187 -0.370046 14
-6.05127 -5.52282 2.18288 12
-5.95264 -5.41184 1.5556 9
-5.93326 -5.38102 0.977828 8
-3.1659 -1.98529 0.0646175 24
-0.636124 -0.400056 -0.0376761 14
-2.41652 -2.18318 -0.0562404 35
-0.851337 -0.534443 -0.118958 41
-0.846669 -0.531117 -0.187133 41
-1.58685 -1.43337 -0.333573 11
-0.856553 -0.536279 -0.261237 42
-1.21668 -1.09975 -0.370046 14
-6.08644 -5.49485 2.18482 11
-7.31169 -4.52979 1.35369 41
-5.97178 -5.37239 1.55322 9
-7.42191 -4.59982 0.76087 36
-3.17201 -1.96606 0.0645303 24
-0.636087 -0.395406 -0.0375448 15
-2.4376 -2.17842 -0.0564585 35
-0.852105 -0.528524 -0.118654 41
-0.849531 -0.526529 -0.187133 41
-1.5909 -1.42146 -0.33279 11
-0.86346 -0.534323 -0.26253 44
-1.22443 -1.09478 -0.370608 14
-7.31475 -4.51405 1.97321 35
-6.11755 -5.50362 2.19257 9
-7.31118 -4.51183 1.35213 42
-7.4045 -4.57117 0.758255 32
-3.16692 -1.95527 0.0643557 26
-0.632526 -0.391674 -0.0372823 15
-2.447 -2.17916 -0.0565894 35
-0.853026 -0.527036 -0.118654 41
-0.850448 -0.525045 -0.187133 41
-1.59706 -1.42197 -0.333573 11
-0.854103 -0.526493 -0.259297 42
-1.23541 -1.10077 -0.373416 14
-2.70425 0.806242 0.642387 50
-2.85454 0.319057 0.75929 47
-2.71479 0.808887 0.442124 52
-2.87283 0.326093 0.554756 49
-2.73787 0.815269 0.246869 55
-2.8842 0.331405 0.351702 47
-2.74764 0.818706 0.0494339 50
-2.89145 0.334254 0.150728 45
-0.629494 0.186693 -0.0326876 58
-0.642589 0.0782619 -0.0534938 90
-0.791975 0.094805 -0.120979 58
-0.767395 0.0912413 -0.170143 53
-2.70284 0.81096 0.642387 50
-2.85158 0.323771 0.758644 47
-2.71574 0.814335 0.442514 55
-2.8722 0.331607 0.554756 49
-2.73406 0.81933 0.246651 53
-2.88115 0.336155 0.351398 49
-2.89086 0.3393 0.150728 49
-0.626777 0.187072 -0.0325564 58
-0.644925 0.0796704 -0.0537113 90
-0.791808 0.0961871 -0.120979 58
-0.769655 0.0928572 -0.170704 52
-2.70307 0.827 0.64351 49
-2.84738 0.338913 0.757998 47
-2.70893 0.828293 0.442124 56
-2.86555 0.346061 0.553802 47
-2.7272 0.833381 0.246433 52
-2.87436 0.351145 0.350789 49
-2.88899 0.354936 0.150728 49
-0.628176 0.191083 -0.0326876 58
-0.644499 0.0830461 -0.0537113 90
-0.793745 0.100627 -0.12137 58
-0.769142 0.09702 -0.170704 52
-2.70176 0.831245 0.64351 49
-2.84679 0.343882 0.757998 49
-2.70999 0.833274 0.442514 50
-2.86251 0.350768 0.553326 49
-2.72574 0.83814 0.246433 55
-2.86641 0.354758 0.349876 49
-2.88099 0.358561 0.150335 47
-0.625455 0.191443 -0.0325564 56
-0.63941 0.0835621 -0.0532764 90
-0.791117 0.101713 -0.120979 58
-0.768988 0.0982281 -0.170704 52
-2.6997 0.846109 0.644072 50
-2.83782 0.357393 0.756059 49
-2.70559 0.847452 0.442514 49
-2.85826 0.364945 0.552849 50
-2.72622 0.853416 0.246869 73
-2.86944 0.370388 0.350485 49
-2.88403 0.374275 0.150597 49
-0.629242 0.196102 -0.0328189 58
-0.638979 0.0867973 -0.0532764 90
-0.793023 0.106166 -0.12137 58
-0.768463 0.102253 -0.170704 52
-2.69837 0.850349 0.644072 52
-2.83719 0.362346 0.756059 49
-2.70646 0.852916 0.442904 49
-2.85762 0.369933 0.552849 50
-2.72473 0.858173 0.246869 128
-2.86387 0.37476 0.349876 49
-2.87842 0.378665 0.150335 49
-0.63128 0.197952 -0.0329502 58
-0.643766 0.0885548 -0.0537113 90
-0.792837 0.10755 -0.12137 56
-0.773116 0.104215 -0.171827 52
-2.69836 0.866428 0.645195 53
-2.83526 0.377196 0.756059 50
-2.70431 0.867831 0.443295 49
-2.85078 0.384243 0.551896 49
-2.71071 0.86938 0.245997 56
-2.85941 0.389419 0.349572 47
-2.86897 0.392728 0.149943 47
-0.627858 0.20049 -0.0328189 58
-0.640825 0.0915902 -0.0534938 90
-0.792263 0.1117 -0.12137 58
-0.767731 0.107615 -0.170704 52
-2.69236 0.869166 0.644072 50
-2.83699 0.382463 0.756706 50
-2.70279 0.87255 0.443295 47
-2.8501 0.389218 0.551896 49
-2.85872 0.394409 0.349572 47
-2.86581 0.397396 0.149812 47
-0.627507 0.201586 -0.0328189 58
-0.640664 0.0927085 -0.0534938 90
-0.787174 0.112414 -0.120587 56
-0.765128 0.108628 -0.170143 52
-2.68762 0.88372 0.644072 50
-2.82777 0.396319 0.754767 49
-2.70522 0.889006 0.444465 50
-2.84559 0.403795 0.551419 47
-2.85662 0.409372 0.349572 47
-2.85875 0.411692 0.14955 44
-0.628814 0.20565 -0.0329502 58
-0.64017 0.0960617 -0.0534938 90
-0.786574 0.116534 -0.120587 56
-0.766961 0.112973 -0.170704 52
-2.67929 0.885644 0.642387 49
-2.83186 0.401924 0.756059 49
-2.69898 0.892174 0.443685 55
-2.84246 0.408416 0.550943 47
-2.85099 0.413653 0.348964 47
-0.628454 0.206747 -0.0329502 58
-0.637536 0.0968233 -0.0532764 90
-0.788814 0.118258 -0.120979 58
-0.766762 0.114311 -0.170704 52
-2.67215 0.899349 0.641826 47
-2.82493 0.41605 0.754767 47
-2.70129 0.908659 0.444856 56
-2.83542 0.422578 0.54999 47
-2.84142 0.42748 0.348051 47
-2.63111 0.398059 0.137644 90
-0.629692 0.210942 -0.0330815 58
-0.639466 0.10064 -0.0534938 90
-0.785742 0.122023 -0.120587 58
-0.768563 0.118681 -0.171266 52
-2.67058 0.904011 0.641826 47
-2.8242 0.42098 0.754767 47
-2.69268 0.910994 0.443685 50
-2.83703 0.428383 0.550466 47
-2.83821 0.432069 0.347747 47
-2.63041 0.40265 0.137644 90
-0.636827 0.101383 -0.0532764 90
-0.780644 0.122657 -0.119804 55
-0.770764 0.120383 -0.171827 52
-2.65644 0.915268 0.63958 47
-2.81472 0.43516 0.752828 47
-2.68771 0.92555 0.443685 47
-2.83233 0.442857 0.54999 49
-2.83584 0.447419 0.347747 47
-2.81071 0.44549 0.147326 38
-0.638748 0.105102 -0.0534938 90
-0.78487 0.127505 -0.120587 55
-0.770102 0.124552 -0.171827 52
-2.6527 0.918642 0.639018 47
-2.80919 0.439334 0.751536 47
-2.68159 0.928153 0.442904 47
-2.82912 0.44742 0.549513 50
-2.83268 0.451486 0.347442 49
-2.77795 0.444828 0.145625 38
-0.620752 0.213973 -0.0326876 56
-0.641023 0.106607 -0.0537113 90
-0.782208 0.128489 -0.120196 55
-0.769905 0.125761 -0.171827 52
-2.65015 0.933329 0.63958 49
-2.80693 0.453546 0.751536 49
-2.67203 0.940538 0.442124 45
-2.81955 0.460559 0.548083 49
-2.82783 0.465913 0.347138 50
-2.82979 0.468243 0.148503 49
-0.619661 0.217113 -0.0326876 55
-0.638018 0.109447 -0.0534938 90
-0.781524 0.132583 -0.120196 55
-0.771641 0.130181 -0.172389 52
-2.64638 0.936677 0.639018 49
-2.80375 0.458059 0.75089 49
-2.66573 0.94355 0.441344 45
-2.81632 0.465084 0.547607 49
-2.82211 0.47004 0.34653 49
-2.83389 0.473997 0.148765 53
-0.621634 0.219028 -0.0328189 55
-0.640283 0.110968 -0.0537113 90
-0.781292 0.133947 -0.120196 55
-0.766604 0.130738 -0.171266 52
-2.63669 0.949328 0.637895 50
-2.80369 0.473131 0.751536 47
-2.65843 0.956658 0.440953 45
-2.81627 0.480232 0.548083 50
-2.81717 0.484394 0.346225 50
-1.44428 0.51907 0.0261786 8
-2.83629 0.48967 0.149027 53
-0.622827 0.223127 -0.0329502 56
-1.42665 0.513833 -0.181631 4
-0.637238 0.113899 -0.0534938 89
-0.785448 0.138866 -0.120979 55
-0.761106 0.133936 -0.170143 50
-2.63749 0.954299 0.638457 50
-2.80048 0.477622 0.75089 49
-2.65676 0.961296 0.440953 49
-2.81301 0.484734 0.547607 50
-2.81632 0.48931 0.346225 53
-1.44807 0.523293 0.0262659 4
-2.83051 0.493769 0.148765 55
-0.624784 0.225065 -0.0330815 56
-1.42575 0.516322 -0.181631 4
-0.637039 0.115011 -0.0534938 89
-0.782771 0.139818 -0.120587 55
-0.772876 0.137321 -0.17295 50
-2.63 0.967713 0.637895 50
-2.79318 0.49145 0.749597 49
-2.64706 0.973487 0.440173 49
-2.80801 0.499031 0.54713 50
-2.81616 0.504483 0.34653 53
-1.45 0.532596 0.0263531 4
-2.82543 0.508145 0.148634 55
-0.628282 0.23006 -0.033344 58
-1.43234 0.527218 -0.182848 4
-0.641331 0.119219 -0.0539288 88
-0.782028 0.143914 -0.120587 55
-0.767349 0.140518 -0.171827 52
-2.62848 0.971843 0.637895 50
-2.79232 0.496324 0.749597 49
-2.64535 0.978105 0.440173 50
-2.80472 0.503501 0.546653 50
-2.81527 0.509397 0.34653 53
-1.44204 0.532522 0.0262222 4
-2.82454 0.513076 0.148634 53
-0.627879 0.231156 -0.033344 58
-1.43607 0.531443 -0.183457 4
-0.641122 0.120338 -0.0539288 85
-0.781776 0.145279 -0.120587 55
-1.00868 0.374013 -0.278696 4
-0.767102 0.141857 -0.171827 52
-2.6209 0.985191 0.637333 49
-2.78493 0.510076 0.748305 50
-2.63788 0.991073 0.439783 50
-2.80205 0.51818 0.546653 50
-2.80769 0.52323 0.345921 50
-1.43689 0.539185 0.0261786 4
-2.81936 0.527403 0.148503 53
-0.621947 0.23279 -0.0330815 56
-1.42398 0.535453 -0.18224 4
-0.638013 0.123351 -0.0537113 80
-0.776148 0.148472 -0.119804 53
-1.00445 0.378435 -0.278049 4
-0.761557 0.14499 -0.170704 52
-2.62145 0.990627 0.637895 50
-2.78404 0.514936 0.748305 50
-2.63384 0.994802 0.439392 52
-2.80105 0.523558 0.546653 50
-2.80433 0.527675 0.345617 50
-1.44053 0.543712 0.0262659 4
-2.81844 0.532323 0.148503 55
-0.628544 0.236527 -0.0334753 58
-0.691601 0.13454 -0.0116931 8
-1.43232 0.541456 -0.183457 4
-0.637797 0.124464 -0.0537113 79
-1.31126 0.496082 -0.265224 4
-0.78317 0.151187 -0.120979 55
-1.00823 0.382081 -0.279342 4
-0.768489 0.147654 -0.172389 50
-2.61606 1.0048 0.637895 50
-2.78596 0.530887 0.749597 50
-2.62612 1.00815 0.439002 52
-2.79345 0.537299 0.5457 47
-1.4768 0.565997 0.135309 4
-2.79656 0.541904 0.345008 49
-1.43766 0.551247 0.0262659 4
-2.81306 0.547092 0.148372 55
-0.629627 0.240711 -0.0336066 58
-0.690863 0.13828 -0.0116931 8
-1.42937 0.549198 -0.183457 4
-0.639582 0.128274 -0.0539288 79
-0.777491 0.154489 -0.120196 55
-1.00397 0.386484 -0.278696 4
-0.772464 0.152725 -0.173512 52
-2.60993 1.00715 0.636772 50
-2.78028 0.534844 0.748305 49
-2.62205 1.01184 0.438612 52
-2.79733 0.5431 0.546653 50
-1.4851 0.572163 0.136181 4
-2.80048 0.547728 0.345617 50
-1.44136 0.555557 0.0263531 4
-2.81455 0.552477 0.148503 59
-0.631534 0.24271 -0.0337378 56
-0.685714 0.138529 -0.0116058 4
-1.42147 0.549003 -0.182544 4
-0.636912 0.128914 -0.0537113 79
-0.774796 0.155375 -0.119804 53
-1.00779 0.389984 -0.279989 4
-0.762628 0.152225 -0.171266 52
-2.60689 1.02169 0.637333 50
-2.77754 0.54891 0.748305 49
-2.61919 1.026 0.439002 52
-2.78973 0.5563 0.5457 49
-1.48219 0.579673 0.136181 4
-2.79768 0.561896 0.345617 50
-1.44551 0.565584 0.026484 4
-2.81417 0.567205 0.148634 62
-0.630255 0.246013 -0.0337378 58
-0.689906 0.14298 -0.0116931 4
-1.41405 0.554375 -0.181936 4
-0.641113 0.133224 -0.0541462 76
-0.776421 0.159777 -0.120196 52
-0.999064 0.392423 -0.278049 4
-0.761848 0.156083 -0.171266 50
-2.60737 1.02713 0.637895 50
-2.77658 0.553757 0.748305 49
-2.61969 1.03148 0.439392 52
-2.79106 0.562136 0.546177 50
-1.48117 0.582259 0.136181 4
-2.80642 0.568733 0.346834 55
-1.43977 0.566524 0.0263968 4
-2.81807 0.573103 0.148896 89
-0.627502 0.246196 -0.0336066 58
-0.684755 0.143194 -0.0116058 4
-1.41539 0.557754 -0.18224 4
-0.638438 0.13385 -0.0539288 73
-0.773721 0.160645 -0.119804 53
-0.993819 0.39256 -0.276756 3
-0.766352 0.158369 -0.172389 52
-2.59725 1.03941 0.636772 50
-2.77354 0.568771 0.748305 49
-2.6072 1.04288 0.438222 52
-2.78567 0.576249 0.5457 50
-1.48262 0.592115 0.136617 4
-2.8033 0.583909 0.346834 59
-1.43911 0.574984 0.0264404 4
-2.81493 0.588342 0.148896 97
-0.626205 0.249479 -0.0336066 58
-1.41466 0.566328 -0.182544 4
-0.63529 0.136685 -0.0537113 74
-0.770451 0.164194 -0.119413 53
-0.98727 0.395954 -0.275463 4
-0.770256 0.163495 -0.173512 52
-2.60239 1.04622 0.638457 50
-2.77254 0.573611 0.748305 50
-2.60327 1.04606 0.437832 53
-2.77986 0.580115 0.544747 49
-1.47235 0.590983 0.135745 4
-2.80238 0.588311 0.346834 61
-1.43347 0.575628 0.0263531 4
-2.80667 0.591231 0.148503 100
-0.625768 0.250571 -0.0336066 58
-1.41607 0.569478 -0.182848 4
-0.637488 0.138304 -0.0539288 71
-0.77258 0.166043 -0.119804 53
-0.991055 0.399488 -0.276756 4
-2.59688 1.05983 0.638457 50
-2.76724 0.58714 0.747659 50
-2.59775 1.05967 0.437832 53
-2.77929 0.594687 0.545224 50
-1.47395 0.600311 0.136181 4
-2.80169 0.603495 0.347138 68
-1.43979 0.586657 0.0265277 4
-2.8011 0.605395 0.148372 107
-0.626758 0.254789 -0.0337378 58
-1.41306 0.576884 -0.182848 4
-0.63432 0.141117 -0.0537113 70
-0.776529 0.171119 -0.120587 52
-0.98902 0.404499 -0.276756 4
-2.59052 1.06251 0.637333 49
-2.76385 0.591467 0.747013 50
-2.5959 1.0642 0.437832 53
-2.77814 0.600022 0.545224 50
-1.47059 0.601937 0.135963 4
-2.79578 0.607339 0.34653 62
-1.43404 0.587521 0.0264404 4
-2.80491 0.611338 0.148634 90
-0.628622 0.256832 -0.0338691 58
-1.41894 0.582182 -0.183761 4
-0.634073 0.142224 -0.0537113 67
-0.771402 0.171432 -0.119804 52
-0.992706 0.40824 -0.278049 4
-0.761684 0.168542 -0.171827 52
-2.59148 1.07932 0.639018 49
-2.76061 0.606412 0.747013 49
-2.5901 1.07823 0.437832 53
-2.77736 0.615087 0.5457 50
-1.47191 0.6118 0.136399 4
-2.78761 0.621385 0.345921 55
-1.43325 0.595983 0.026484 4
-2.804 0.627046 0.148765 70
-0.624964 0.259158 -0.0337378 58
-1.41806 0.590807 -0.184065 4
-0.635751 0.146082 -0.0539288 67
-0.768083 0.174935 -0.119413 52
-0.9861 0.411566 -0.276756 3
-0.765519 0.17371 -0.17295 52
-2.7619 0.611748 0.747659 50
-2.58841 1.0823 0.437832 53
-2.77388 0.619402 0.545224 50
-1.47314 0.61533 0.136617 4
-2.78421 0.625223 0.345617 50
-1.43682 0.600415 0.0265713 4
-2.80058 0.630905 0.148634 65
-0.626814 0.261214 -0.0338691 58
-1.42628 0.596873 -0.185282 3
-0.635495 0.147191 -0.0539288 65
-0.775006 0.177889 -0.120587 52
-0.983155 0.41235 -0.276109 3
-0.762867 0.174384 -0.172389 50
-2.75406 0.624659 0.746366 49
-2.58725 1.09777 0.438612 52
-2.77311 0.633977 0.5457 50
-1.46084 0.618885 0.135745 4
-2.7809 0.639793 0.345617 53
-1.44066 0.610612 0.0267022 4
-2.79967 0.646118 0.148765 88
-0.625437 0.264492 -0.0338691 58
-1.42314 0.604333 -0.185282 4
-0.639571 0.15163 -0.0543637 64
-0.76925 0.180844 -0.119804 50
-0.987718 0.420165 -0.278049 3
-0.764319 0.178916 -0.17295 50
-2.74825 0.628396 0.745074 49
-2.5876 1.10325 0.439002 52
-2.77188 0.6393 0.5457 52
-1.46663 0.624366 0.136399 4
-2.78461 0.645758 0.346225 64
-1.44178 0.614359 0.0267458 8
-2.79854 0.651003 0.148765 90
-0.624975 0.265583 -0.0338691 58
-1.42892 0.609744 -0.186195 4
-0.639305 0.152746 -0.0543637 64
-0.768933 0.182186 -0.119804 52
-0.982471 0.420156 -0.276756 4
-0.764006 0.18025 -0.17295 50
-2.74717 0.643803 0.74572 49
-2.76133 0.652125 0.544271 49
-1.45637 0.629322 0.135745 4
-2.77625 0.659676 0.345617 73
-1.42937 0.617924 0.0265713 4
-2.78283 0.663261 0.148111 114
-0.625866 0.269845 -0.0340004 58
-1.41878 0.614501 -0.185282 4
-0.638496 0.156092 -0.0543637 64
-0.765533 0.185776 -0.119413 50
-0.9869 0.428187 -0.278696 3
-0.767762 0.185496 -0.174073 50
-2.74369 0.648046 0.745074 45
-2.76496 0.658071 0.545224 52
-1.47126 0.63882 0.13727 4
-2.7775 0.665094 0.345921 76
-1.43746 0.624409 0.0267458 8
-2.78409 0.668696 0.148242 103
-0.625394 0.270937 -0.0340004 58
-1.4177 0.616977 -0.185282 4
-0.6358 0.156628 -0.0541462 65
-0.76761 0.187684 -0.119804 52
-0.990576 0.431844 -0.279989 4
-0.769808 0.187397 -0.174635 50
-2.84684 1.25644 0.709209 27
-2.74261 0.662966 0.74572 45
-2.72056 1.20008 0.464367 15
-2.76148 0.67254 0.545224 50
-1.46106 0.643498 0.136617 4
-2.77398 0.679628 0.345921 73
-1.42274 0.626878 0.0265277 4
-2.78541 0.684448 0.148503 99
-0.626251 0.275217 -0.0341317 58
-1.43034 0.63142 -0.187412 4
-0.639811 0.161136 -0.0545811 62
-0.769049 0.19215 -0.120196 52
-0.981679 0.434086 -0.278049 4
-0.766449 0.190851 -0.174073 50
-2.81591 1.24806 0.701909 29
-2.74379 0.66832 0.746366 33
-2.71867 1.20435 0.464367 11
-2.7603 0.677358 0.545224 52
-1.46221 0.647056 0.136835 4
-2.77773 0.685165 0.34653 56
-1.42621 0.631388 0.0266149 4
-2.77705 0.687036 0.148111 91
-0.623488 0.275297 -0.0340004 58
-1.42481 0.631651 -0.186804 4
-0.634692 0.161063 -0.0541462 62
-1.27918 0.56773 -0.264748 3
-0.766315 0.192904 -0.119804 52
