# .PCD v0.7 - Point Cloud Data file format
VERSION 0.7
FIELDS x y z intensity
SIZE 4 4 4 4
TYPE F F F F
COUNT 1 1 1 1
WIDTH 1602
HEIGHT 1
VIEWPOINT 0 0 0 1 0 0 0
POINTS 1602
DATA ascii
-0.629323 0.212041 -0.0330815 58
-0.6835 0.108568 -0.011475 4
-0.63929 0.101756 -0.0534938 90
-0.778203 0.122289 -0.119413 55
-0.773173 0.120744 -0.172389 52
-2.6566 0.914805 0.63958 47
-2.81002 0.433939 0.751536 47
-2.68787 0.92508 0.443685 47
-2.82513 0.441238 0.54856 50
-2.83101 0.446159 0.347138 49
-2.81572 0.445772 0.147587 44
-0.630564 0.216147 -0.0332127 58
-0.685411 0.112414 -0.0115186 4
-0.638748 0.105102 -0.0534938 90
-0.777552 0.126362 -0.119413 55
-0.774938 0.125164 -0.17295 52
-2.6527 0.918642 0.639018 49
-2.81165 0.439212 0.752182 47
-2.67926 0.927344 0.442514 45
-2.82427 0.446661 0.54856 50
-2.82778 0.450713 0.346834 49
-2.82727 0.452639 0.148242 44
-0.625469 0.215611 -0.0329502 58
-0.690151 0.114394 -0.0116058 4
-0.638564 0.106217 -0.0534938 90
-0.784647 0.128875 -0.120587 56
-0.769905 0.125761 -0.171827 52
-2.64539 0.93217 0.638457 50
-2.80685 0.454036 0.751536 49
-2.66954 0.940183 0.441734 45
-2.81947 0.461051 0.548083 50
-2.8204 0.465207 0.346225 50
-2.83956 0.470352 0.149027 80
-0.624331 0.218883 -0.0329502 58
-0.689522 0.118126 -0.0116058 4
-0.637999 0.109559 -0.0534938 90
-0.779064 0.132321 -0.119804 55
-0.771618 0.130315 -0.172389 50
-2.64392 0.936324 0.638457 50
-2.80367 0.458549 0.75089 49
-2.6679 0.944841 0.441734 45
-2.81624 0.465575 0.547607 50
-2.82693 0.471341 0.347138 55
-2.83627 0.474899 0.148896 104
-0.623948 0.219972 -0.0329502 58
-0.689315 0.119329 -0.0116058 4
-0.640264 0.11108 -0.0537113 90
-0.781268 0.134083 -0.120196 55
-0.766581 0.130872 -0.171266 52
-2.63194 0.948135 0.636772 49
-2.79884 0.472824 0.750244 49
-2.65827 0.957122 0.440953 45
-2.81135 0.479906 0.54713 50
-2.82687 0.486553 0.347442 59
-1.4536 0.522714 0.0263531 4
-2.84359 0.491428 0.149419 91
-0.62044 0.222388 -0.0328189 58
-0.688681 0.122937 -0.0116058 4
-1.42422 0.513239 -0.181327 4
-0.639673 0.114431 -0.0537113 90
-0.778146 0.137621 -0.119804 55
-0.770689 0.135699 -0.172389 50
-2.63503 0.953929 0.637895 50
-2.79563 0.477306 0.749597 49
-2.65444 0.960455 0.440563 49
-2.81292 0.485225 0.547607 50
-2.82854 0.491413 0.347747 71
-1.44563 0.522694 0.0262222 4
-2.84036 0.495469 0.149288 97
-0.622397 0.224322 -0.0329502 58
-0.688465 0.124139 -0.0116058 8
-1.43041 0.518017 -0.18224 4
-0.641927 0.115972 -0.0539288 90
-0.775471 0.138559 -0.119413 55
-0.768074 0.136498 -0.171827 50
-2.63229 0.968555 0.638457 50
-2.79318 0.49145 0.749597 49
-2.64474 0.972633 0.439783 49
-2.8056 0.498605 0.546653 52
-2.82838 0.50665 0.348051 73
-1.45 0.532596 0.0263531 4
-2.83526 0.509896 0.149157 97
-0.618872 0.226715 -0.0328189 56
-0.685367 0.127182 -0.0115622 9
-1.43234 0.527218 -0.182848 4
-0.636407 0.118456 -0.0534938 86
-0.779597 0.143482 -0.120196 55
-0.762551 0.13967 -0.170704 52
-2.63059 0.973148 0.638457 49
-2.79232 0.496324 0.749597 49
-2.64535 0.978105 0.440173 50
-2.80464 0.503991 0.546653 50
-2.8226 0.51071 0.347442 68
-1.44429 0.533642 0.0262659 8
-2.83191 0.514402 0.149027 61
-0.623157 0.22953 -0.0330815 56
-0.690064 0.129265 -0.0116495 8
-1.43374 0.53058 -0.183153 4
-0.63865 0.120008 -0.0537113 86
-1.30319 0.482642 -0.262844 4
-0.781776 0.145279 -0.120587 55
-1.01314 0.375876 -0.279989 4
-0.771899 0.142713 -0.17295 50
-2.62529 0.987366 0.638457 50
-2.78722 0.510993 0.748951 49
-2.64002 0.992404 0.440173 50
-2.79954 0.518226 0.546177 50
-2.81736 0.525524 0.347138 59
-1.44616 0.542958 0.0263531 4
-2.82172 0.52835 0.148634 58
-0.61961 0.23191 -0.0329502 56
-0.686897 0.13254 -0.0116058 8
-1.42853 0.537454 -0.182848 4
-0.638013 0.123351 -0.0537113 80
-1.29826 0.488819 -0.262367 4
-0.77372 0.148023 -0.119413 52
-1.00212 0.377756 -0.277403 4
-0.771115 0.146887 -0.17295 50
-2.62601 0.992351 0.639018 50
-2.7887 0.516293 0.749597 50
-2.63384 0.994802 0.439392 52
-2.80346 0.524005 0.54713 52
-1.48207 0.559138 0.135527 8
-2.81409 0.529494 0.346834 53
-1.44287 0.544596 0.0263095 4
-2.82334 0.533241 0.148765 56
-0.623874 0.234759 -0.0332127 56
-0.691578 0.134661 -0.0116931 8
-1.43 0.540576 -0.183153 4
-0.637797 0.124464 -0.0537113 79
-1.30888 0.495439 -0.264748 4
-0.775888 0.149826 -0.119804 53
-1.00146 0.379504 -0.277403 3
-0.768489 0.147654 -0.172389 52
-2.61623 1.00434 0.637895 50
-2.78367 0.529953 0.748951 50
-2.62629 1.00769 0.439002 52
-2.79595 0.53727 0.546177 50
-1.48387 0.568418 0.135963 4
-2.8064 0.543286 0.346225 53
-1.44243 0.552789 0.0263531 4
-2.81561 0.547073 0.148503 56
-0.625008 0.238809 -0.033344 56
-0.690888 0.13816 -0.0116931 8
-1.42947 0.548948 -0.183457 4
-0.64205 0.128633 -0.0541462 79
-1.29719 0.498527 -0.262844 4
-0.775093 0.153887 -0.119804 53
-0.995022 0.382828 -0.276109 3
-0.767705 0.151676 -0.172389 52
-2.61465 1.00845 0.637895 50
-2.78275 0.534811 0.748951 50
-2.62453 1.01228 0.439002 52
-2.79983 0.543075 0.54713 50
-1.47823 0.569213 0.135527 8
-2.80545 0.548183 0.346225 50
-1.44146 0.555306 0.0263531 4
-2.81465 0.551986 0.148503 61
-0.629248 0.2417 -0.0336066 58
-0.690645 0.139365 -0.0116931 8
-1.42619 0.550547 -0.183153 4
-0.636935 0.128802 -0.0537113 79
-1.30547 0.504337 -0.264748 3
-0.772399 0.154769 -0.119413 53
-0.998854 0.386312 -0.277403 4
-0.769831 0.153477 -0.17295 50
-2.61125 1.02392 0.638457 50
-2.78455 0.550788 0.750244 50
-2.61671 1.02556 0.438612 53
-2.79444 0.55774 0.546653 50
-1.47513 0.577203 0.135527 4
-2.80244 0.563354 0.346225 53
-1.44076 0.56401 0.0263968 4
-2.81897 0.568676 0.148896 68
-0.623283 0.243276 -0.033344 58
-0.689881 0.1431 -0.0116931 4
-1.4255 0.559163 -0.183457 4
-0.641113 0.133224 -0.0541462 76
-1.29588 0.508696 -0.26332 4
-0.771551 0.158946 -0.119413 53
-0.987764 0.388166 -0.274816 3
-0.76421 0.156691 -0.171827 52
-2.60737 1.02713 0.637895 49
-2.77885 0.55471 0.748951 49
-2.61722 1.03103 0.439002 52
-2.79347 0.562616 0.546653 52
-1.47875 0.581604 0.135963 8
-2.80389 0.568734 0.34653 55
-1.44442 0.568358 0.026484 4
-2.82042 0.574089 0.149027 90
-0.62518 0.24528 -0.0334753 58
-0.68718 0.143809 -0.0116495 4
-1.42222 0.560738 -0.183153 4
-0.638438 0.13385 -0.0539288 73
-1.29955 0.512763 -0.264272 3
-0.778534 0.161755 -0.120587 55
-0.98484 0.388999 -0.274169 4
-0.771102 0.15946 -0.173512 50
-2.59951 1.04032 0.637333 50
-2.77354 0.568771 0.748305 49
-2.61408 1.04564 0.439392 53
-2.78808 0.576742 0.546177 50
-1.478 0.590264 0.136181 4
-2.80087 0.583407 0.34653 61
-1.44607 0.577772 0.0265713 4
-2.81737 0.588848 0.149027 96
-0.628522 0.250407 -0.0337378 58
-0.683971 0.146896 -0.0116058 3
-1.42847 0.571874 -0.18437 4
-0.642606 0.138203 -0.0543637 73
-1.29912 0.520475 -0.264748 4
-0.775287 0.165194 -0.120196 53
-0.98279 0.39415 -0.274169 4
-0.765484 0.162513 -0.172389 52
-2.59787 1.0444 0.637333 50
-2.77254 0.573611 0.748305 50
-2.61014 1.04882 0.439002 52
-2.78466 0.58111 0.5457 50
-1.47004 0.590053 0.135527 4
-2.80481 0.588817 0.347138 64
-1.44042 0.578428 0.026484 4
-2.814 0.592763 0.148896 91
-0.6304 0.252437 -0.0338691 58
-0.683713 0.14809 -0.0116058 3
-1.42757 0.574117 -0.18437 4
-0.639926 0.138814 -0.0541462 71
-1.29821 0.522742 -0.264748 4
-0.77258 0.166043 -0.119804 53
-0.9821 0.395865 -0.274169 4
-0.762842 0.163221 -0.171827 52
-2.59688 1.05983 0.638457 50
-2.76724 0.58714 0.747659 50
-2.59775 1.05967 0.437832 53
-2.77929 0.594687 0.545224 50
-1.46934 0.598428 0.135745 8
-2.79926 0.602977 0.346834 68
-1.4421 0.587602 0.0265713 4
-2.81086 0.607488 0.148896 94
-0.622137 0.252899 -0.0334753 58
-0.680511 0.151024 -0.0115622 3
-1.42225 0.580644 -0.184065 4
-0.636755 0.14164 -0.0539288 70
-1.29555 0.529306 -0.264748 4
-0.774115 0.170602 -0.120196 52
-0.984552 0.402665 -0.275463 3
-0.761977 0.167213 -0.171827 52
-2.59503 1.06436 0.638457 50
-2.76621 0.591968 0.747659 50
-2.60275 1.06702 0.439002 53
-2.78294 0.60105 0.546177 52
-1.4752 0.603828 0.136399 4
-2.79336 0.606816 0.346225 59
-1.44328 0.591319 0.0266149 4
-2.80736 0.611866 0.148765 82
-0.624004 0.254934 -0.0336066 58
-0.690018 0.154328 -0.0117367 4
-1.42582 0.585014 -0.184674 4
-0.641375 0.143805 -0.0543637 68
-1.29917 0.533435 -0.265701 3
-0.771402 0.171432 -0.119804 53
-0.981545 0.403633 -0.274816 3
-0.766448 0.169565 -0.17295 50
-2.59148 1.07932 0.639018 49
-2.76061 0.606412 0.747013 50
-2.59466 1.08013 0.438612 53
-2.77736 0.615087 0.5457 50
-1.47651 0.613716 0.136835 4
-2.78519 0.620849 0.345617 53
-1.44248 0.59983 0.0266585 4
-2.79425 0.624883 0.148242 56
-0.627269 0.260119 -0.0338691 58
-0.684293 0.156974 -0.0116495 3
-1.42951 0.595589 -0.185587 4
-0.640614 0.147162 -0.0543637 67
-1.28041 0.53383 -0.262367 4
-0.770494 0.175469 -0.119804 52
-0.983873 0.410633 -0.276109 3
-0.765519 0.17371 -0.17295 52
-2.75954 0.611229 0.747013 50
-2.59524 1.08516 0.439002 52
-2.77628 0.619933 0.5457 50
-1.47544 0.616292 0.136835 4
-2.78179 0.624683 0.345313 49
-1.44143 0.602347 0.0266585 4
-2.79327 0.629271 0.148242 55
-0.622209 0.259284 -0.0336066 58
-0.684018 0.158168 -0.0116495 3
-1.41942 0.593993 -0.18437 4
-0.637925 0.147735 -0.0541462 65
-1.28174 0.537014 -0.262844 3
-0.770187 0.176813 -0.119804 52
-0.972026 0.407665 -0.272876 4
-0.770002 0.175968 -0.174073 52
-2.75642 0.625189 0.747013 49
-2.58952 1.09874 0.439002 52
-2.77071 0.633434 0.545224 50
-1.4723 0.623752 0.136835 4
-2.7809 0.639793 0.345617 50
-1.43606 0.608657 0.0266149 4
-2.78994 0.643888 0.148242 55
-0.616248 0.260584 -0.033344 58
-0.680772 0.161069 -0.0116058 3
-1.42314 0.604333 -0.185282 4
-0.639571 0.15163 -0.0543637 65
-1.28804 0.547343 -0.264748 4
-0.76925 0.180844 -0.119804 52
-0.96995 0.412579 -0.272876 3
-0.759568 0.177835 -0.171827 49
-2.75532 0.629999 0.747013 50
-2.58987 1.10422 0.439392 52
-2.76949 0.638752 0.545224 50
-1.46434 0.623388 0.136181 4
-2.77977 0.644645 0.345617 55
-1.43259 0.610431 0.0265713 8
-2.78881 0.648757 0.148242 58
-0.629566 0.267546 -0.0341317 58
-0.682926 0.162821 -0.0116495 3
-1.42208 0.606816 -0.185282 4
-0.644158 0.153868 -0.0547986 64
-1.2758 0.54476 -0.262367 4
-0.768933 0.182186 -0.119804 50
-0.982471 0.420156 -0.276756 4
-0.764006 0.18025 -0.17295 50
-2.74717 0.643803 0.74572 49
-2.76372 0.652685 0.544747 50
-1.47008 0.635262 0.137052 4
-2.78591 0.661954 0.346834 67
-1.43396 0.619912 0.0266585 4
-2.79498 0.666135 0.148765 89
-0.623576 0.268852 -0.0338691 58
-1.42333 0.616478 -0.185891 4
-0.643343 0.157239 -0.0547986 64
-1.28183 0.555568 -0.264272 4
-0.767969 0.186209 -0.119804 50
-0.975829 0.423366 -0.275463 3
-2.74604 0.648597 0.74572 49
-2.76735 0.658636 0.5457 52
-1.46441 0.635839 0.136617 4
-2.77762 0.664609 0.345921 62
-1.42371 0.618422 0.026484 4
-2.78664 0.668789 0.148372 102
-0.627683 0.271934 -0.0341317 58
-1.41099 0.613754 -0.18437 4
-0.640646 0.157784 -0.0545811 64
-1.27861 0.556822 -0.263796 3
-0.765241 0.186978 -0.119413 50
-0.975089 0.425068 -0.275463 4
-2.84483 1.25496 0.708647 27
-2.74742 0.663614 0.747013 44
-2.72077 1.19961 0.464367 15
-2.76637 0.67321 0.546177 52
-1.468 0.646259 0.13727 4
-2.77893 0.680316 0.34653 67
-1.42971 0.629658 0.0266585 4
-2.7831 0.68337 0.148372 100
-0.623967 0.274208 -0.0340004 58
-1.40548 0.620129 -0.184065 4
-0.64223 0.161727 -0.0547986 62
-1.287 0.568254 -0.266177 4
-0.764251 0.190982 -0.119413 50
-0.972925 0.429998 -0.275463 3
-0.768849 0.191291 -0.174635 50
-2.81814 1.24905 0.702471 29
-2.74391 0.667841 0.746366 33
-2.72318 1.20636 0.465147 11
-2.76269 0.677939 0.5457 52
-1.4646 0.647811 0.137052 4
-2.78255 0.686345 0.347138 73
-1.4285 0.632402 0.0266585 4
-2.7819 0.688227 0.148372 103
-0.618924 0.273271 -0.0337378 58
-1.40667 0.623589 -0.18437 4
-0.639528 0.162252 -0.0545811 62
-1.28152 0.568505 -0.265224 3
-0.761519 0.191728 -0.119021 50
-0.967686 0.429899 -0.274169 3
-0.766148 0.192055 -0.174073 49
-2.75359 1.23828 0.687871 24
-2.73791 0.682097 0.74572 49
-2.71662 1.22107 0.465147 12
-2.7591 0.692395 0.5457 52
-1.46334 0.656747 0.13727 4
-2.77399 0.700184 0.34653 68
-1.43428 0.643976 0.0268331 8
-2.7854 0.705094 0.148765 90
-0.619761 0.277532 -0.0338691 58
-1.40553 0.632211 -0.184674 4
-0.641085 0.166206 -0.0547986 62
-1.27843 0.57543 -0.265224 4
-0.767689 0.197515 -0.120196 50
-0.972024 0.437944 -0.276109 4
-0.765098 0.196198 -0.174073 50
-2.73832 1.23658 0.684502 55
-2.73906 0.687458 0.746366 47
-2.73045 1.23246 0.467879 17
-2.75789 0.69721 0.5457 52
-1.45992 0.658274 0.137052 4
-2.77048 0.703933 0.346225 59
-1.4286 0.644418 0.0267458 8
-2.78429 0.709468 0.148765 90
-0.6261 0.281701 -0.0342629 58
-1.41132 0.637488 -0.185587 4
-0.635966 0.166101 -0.0543637 59
-1.28413 0.580701 -0.266653 3
-0.767343 0.198854 -0.120196 50
-0.969059 0.438641 -0.275463 3
-0.764788 0.197399 -0.174073 50
-2.73624 1.25293 0.685625 45
-2.73554 0.701313 0.746366 45
-2.71722 1.24365 0.466708 52
-2.74719 0.709331 0.544271 49
-1.45657 0.665655 0.137052 4
-2.76916 0.719049 0.34653 70
-1.42532 0.651641 0.0267458 4
-2.77812 0.723412 0.148634 90
-0.626885 0.286016 -0.0343942 56
-1.40345 0.642799 -0.184978 4
-0.637498 0.170053 -0.0545811 59
-1.27894 0.586168 -0.266177 4
-0.766292 0.202869 -0.120196 50
-0.96902 0.444551 -0.276109 3
-0.768463 0.202614 -0.175197 50
-2.70307 1.24344 0.677763 29
-2.73432 0.706086 0.746366 42
-2.69037 1.23703 0.462416 32
-2.75058 0.715832 0.545224 52
-1.45993 0.670279 0.137488 4
-2.76309 0.722633 0.345921 73
-1.42634 0.655422 0.0267894 4
-2.77444 0.72763 0.148503 98
-0.62185 0.28502 -0.0341317 58
-1.40909 0.648365 -0.185891 4
-0.634791 0.170537 -0.0543637 58
-1.27792 0.588399 -0.266177 4
-0.763547 0.203585 -0.119804 50
-0.968165 0.44641 -0.276109 3
-0.76575 0.203344 -0.174635 50
-2.66761 1.24464 0.670464 27
-2.72812 0.720258 0.74572 45
-2.68812 1.25366 0.463196 30
-2.75154 0.731477 0.546177 52
-1.45854 0.679221 0.137706 4
-2.76154 0.738209 0.346225 67
-1.41836 0.660766 0.0267022 4
-2.76322 0.740704 0.148111 114
-0.62035 0.288272 -0.0341317 58
-1.40781 0.657031 -0.186195 4
-0.636296 0.1745 -0.0545811 58
-1.28138 0.598427 -0.267605 4
-0.762434 0.207713 -0.119804 50
-0.965814 0.451473 -0.276109 4
-0.762284 0.206861 -0.174073 49
-2.65242 1.24262 0.667094 53
-2.72919 0.725635 0.746366 49
-2.66133 1.24681 0.458904 32
-2.74788 0.735648 0.5457 52
-1.44834 0.677537 0.136835 4
-2.75785 0.742387 0.345921 53
-1.41946 0.664302 0.0267458 4
-2.76193 0.745525 0.148111 111
-0.624366 0.291475 -0.0343942 58
-1.4134 0.662653 -0.187108 4
-0.638396 0.176256 -0.0547986 56
-1.27367 0.597529 -0.266177 4
-0.76207 0.209043 -0.119804 49
-0.96284 0.452129 -0.275463 4
-0.768983 0.210074 -0.175758 49
-2.65445 1.26114 0.669341 59
-2.72303 0.739286 0.74572 44
-2.65031 1.25861 0.458123 58
-2.74163 0.749382 0.545224 50
-1.46501 0.694732 0.138796 4
-2.74914 0.75551 0.345313 50
-1.41371 0.670652 0.0267022 8
-2.76521 0.761954 0.148503 80
-0.622831 0.294741 -0.0343942 58
-1.40543 0.66791 -0.186499 4
-0.635062 0.178938 -0.0545811 56
-1.26831 0.603133 -0.265701 4
-0.964818 0.459246 -0.276756 3
-0.763171 0.212817 -0.174635 49
-2.65687 1.26741 0.670464 61
-2.72173 0.744037 0.74572 47
-2.65033 1.2643 0.458513 58
-2.74031 0.754166 0.545224 49
-1.45481 0.692996 0.137924 4
-2.75499 0.76228 0.346225 55
-1.4193 0.67635 0.0268331 4
-2.76387 0.766779 0.148503 62
-0.626821 0.29798 -0.0346568 58
-1.40426 0.670362 -0.186499 4
-0.63715 0.180708 -0.0547986 56
-1.26504 0.604286 -0.265224 4
-0.961838 0.459884 -0.276109 4
-0.760449 0.213505 -0.174073 49
-2.65436 1.28389 0.671587 61
-2.71314 0.756988 0.744428 49
-2.65035 1.28139 0.459684 59
-2.73633 0.768504 0.545224 50
-1.44892 0.699519 0.137706 4
-2.75335 0.777365 0.34653 73
-1.40899 0.680505 0.0267022 4
-2.75982 0.78124 0.148503 58
-0.623005 0.30017 -0.0345255 58
-1.39626 0.67554 -0.185891 4
-0.636195 0.184042 -0.0547986 56
-1.26186 0.610901 -0.265224 3
-0.955073 0.462802 -0.274816 4
-0.756975 0.216827 -0.173512 47
-2.65453 1.28912 0.672148 64
-2.70949 0.761073 0.743782 49
-2.65477 1.28925 0.460855 61
-2.73498 0.773279 0.545224 50
-1.44769 0.702047 0.137706 4
-2.74722 0.78082 0.345921 70
-1.4168 0.687335 0.0268767 4
-2.76086 0.786736 0.148634 61
-0.620235 0.300165 -0.0343942 58
-1.40624 0.683409 -0.187412 4
-0.635872 0.185152 -0.0547986 56
-1.24976 0.607725 -0.262844 3
-0.956434 0.465528 -0.275463 4
-2.65648 1.30731 0.674394 71
-2.70793 0.775438 0.744428 49
-2.65264 1.30485 0.461635 67
-2.73103 0.787112 0.545224 50
-1.44859 0.711565 0.138142 4
-2.74085 0.794029 0.345617 55
-1.41106 0.693393 0.0268331 4
-2.75924 0.801392 0.148765 90
-0.620894 0.304512 -0.0345255 58
-1.38718 0.682833 -0.185282 4
-0.637287 0.18917 -0.055016 56
-1.24887 0.61513 -0.26332 3
-0.958394 0.472505 -0.276756 4
-2.65638 1.31302 0.674956 82
-2.70657 0.780163 0.744428 49
-2.65478 1.31167 0.462416 77
-2.7248 0.790993 0.544271 49
-1.44512 0.712989 0.137924 4
-2.72992 0.796049 0.3444 49
-1.4142 0.698318 0.0269203 4
-2.76023 0.806903 0.148896 97
-0.620362 0.305595 -0.0345255 58
-1.39933 0.691863 -0.187108 4
-0.634564 0.189586 -0.0547986 55
-1.25 0.618399 -0.263796 3
-0.955323 0.473269 -0.276109 4
-2.65141 1.32847 0.675517 86
-2.70463 0.795473 0.745074 47
-2.65206 1.32823 0.463196 88
-2.72298 0.805942 0.544747 52
-1.44124 0.720797 0.137924 4
-2.73033 0.812214 0.345008 49
-1.40382 0.702352 0.0267894 4
-2.75583 0.821825 0.148896 83
-0.625448 0.312197 -0.0349193 58
-1.39557 0.699424 -0.187108 4
-0.631175 0.192198 -0.0545811 55
-1.24005 0.621846 -0.262367 3
-0.954989 0.47935 -0.276756 4
-2.62104 1.31839 0.668217 36
-2.70787 0.801555 0.746366 47
-2.63233 1.32351 0.460074 44
-2.72156 0.810693 0.544747 50
-1.43553 0.721072 0.137488 4
-2.72668 0.815795 0.344704 49
-1.41376 0.710423 0.0270076 4
-2.74257 0.822587 0.148242 53
-0.622672 0.312165 -0.034788 56
-1.39225 0.700498 -0.186804 4
-0.633225 0.194012 -0.0547986 53
-1.24335 0.626222 -0.26332 3
-0.951996 0.479927 -0.276109 4
-2.59457 1.32213 0.663164 33
-2.70378 0.815251 0.746366 45
-2.60336 1.32606 0.456172 35
-2.71743 0.824458 0.544747 49
-1.42964 0.727197 0.13727 4
-2.72949 0.832219 0.345617 55
-1.40124 0.713027 0.0268331 4
-0.625477 0.317691 -0.0350506 58
-1.39077 0.708907 -0.187108 4
-0.632201 0.197325 -0.0547986 53
-1.23798 0.63139 -0.262844 3
-0.953853 0.486941 -0.277403 4
-2.57274 1.31666 0.65811 32
-2.70466 0.820666 0.747013 47
-2.57907 1.31934 0.45227 33
-2.71349 0.82896 0.544271 49
-1.42615 0.728556 0.137052 4
-2.72091 0.83481 0.344704 90
-1.40431 0.717995 0.0269203 8
-0.618256 0.315366 -0.0346568 56
-1.38512 0.709068 -0.186499 4
-0.636618 0.199886 -0.0552335 53
-1.23469 0.632428 -0.262367 3
-0.950769 0.487666 -0.276756 4
-2.54829 1.32158 0.653618 33
-2.70018 0.835287 0.747013 49
-2.54778 1.32076 0.447977 33
-2.70677 0.842431 0.543794 47
-1.42661 0.738556 0.137488 4
-2.71873 0.850256 0.345008 50
-1.39388 0.721884 0.0267894 8
-0.621028 0.320899 -0.0349193 58
-1.38346 0.717696 -0.186804 4
-0.630808 0.201733 -0.0547986 55
-1.22254 0.634568 -0.260463 3
-0.956769 0.497102 -0.279342 4
-2.52677 1.31544 0.648564 33
-2.70103 0.840712 0.747659 50
-2.52599 1.31449 0.444465 32
-2.70998 0.848613 0.544747 45
-1.4209 0.738743 0.137052 4
-2.71976 0.855266 0.345313 49
-1.39927 0.727782 0.0269203 8
-0.620467 0.321983 -0.0349193 58
-1.38013 0.718721 -0.186499 4
-0.630455 0.202834 -0.0547986 53
-1.22361 0.637837 -0.260939 3
-1.9851 0.626382 -0.324568 14
-0.958039 0.499891 -0.279989 4
-2.50045 1.31842 0.64351 33
-2.69674 0.854373 0.747659 49
-2.50597 1.32079 0.442124 33
-2.71267 0.864542 0.546177 49
-1.42375 0.749411 0.137706 4
-2.71524 0.869495 0.345313 47
-1.38893 0.731355 0.0267894 4
-0.618772 0.325227 -0.0349193 56
-1.37416 0.724778 -0.186195 4
-1.21819 0.642875 -0.260463 4
-1.97944 0.636017 -0.324176 12
-0.955497 0.504734 -0.279989 4
-2.47878 1.31251 0.638457 35
-2.69524 0.859078 0.747659 49
-2.48185 1.3136 0.438222 33
-2.71334 0.870494 0.546653 50
-2.71608 0.87499 0.345617 47
-1.39415 0.737533 0.0269203 4
-0.622615 0.328646 -0.0351819 56
-1.37727 0.729502 -0.186804 4
-1.21273 0.642697 -0.25951 3
-1.97127 0.637209 -0.323002 14
-0.956658 0.507702 -0.280636 4
-2.45232 1.31553 0.633403 35
-2.68826 0.872906 0.747013 45
-2.4573 1.31766 0.4351 33
-2.70408 0.883174 0.5457 50
-2.71131 0.889672 0.345617 47
-1.38367 0.741275 0.0267894 8
-0.616487 0.329539 -0.0349193 56
-1.37549 0.738118 -0.187108 4
-0.625563 0.209747 -0.0545811 38
-1.21356 0.651575 -0.260463 3
-1.96321 0.645989 -0.322219 14
-0.956112 0.513851 -0.281282 4
-2.4331 1.31013 0.628911 35
-2.67984 0.875359 0.745074 44
-2.43783 1.31215 0.431978 35
-2.70953 0.890178 0.54713 50
-2.71462 0.895477 0.346225 49
-1.38897 0.747248 0.0269203 8
-0.618108 0.3318 -0.0350506 56
-1.37652 0.741456 -0.187412 4
-0.634658 0.213953 -0.0554509 36
-1.20379 0.649025 -0.258558 3
-1.95974 0.648645 -0.321827 14
-0.957337 0.516668 -0.281929 4
-2.41124 1.31468 0.62498 36
-2.67079 0.887397 0.743782 45
-2.41576 1.31661 0.429247 35
-2.698 0.901559 0.5457 49
-2.70754 0.908893 0.345921 49
-1.37639 0.749479 0.0267458 4
-0.618553 0.336228 -0.0351819 56
-1.36608 0.745083 -0.186499 4
-0.628806 0.215691 -0.055016 30
-1.21341 0.662176 -0.261415 3
-1.95632 0.658897 -0.321827 14
-0.948356 0.518026 -0.279989 4
-2.39399 1.31069 0.621049 35
-2.66694 0.891295 0.743135 45
-2.3983 1.31252 0.426515 35
-2.69161 0.905181 0.544747 45
-2.71536 0.916776 0.347138 90
-1.37495 0.75212 0.0267458 4
-0.620155 0.338508 -0.0353131 56
-1.36696 0.74866 -0.186804 4
-0.630789 0.217583 -0.0552335 24
-1.20149 0.658385 -0.259034 3
-1.94814 0.65995 -0.320653 14
-0.949476 0.52101 -0.280636 4
-2.37195 1.31535 0.617118 35
-2.66208 0.905712 0.743135 49
-2.37173 1.31469 0.423003 35
-2.68684 0.919261 0.544747 45
-2.70332 0.929047 0.346225 50
-1.36881 0.758096 0.0267022 4
-0.616191 0.340538 -0.0351819 56
-1.36722 0.758457 -0.187412 4
-0.631997 0.221691 -0.0554509 30
-1.19791 0.664876 -0.259034 3
-1.93298 0.666146 -0.318695 12
-0.946735 0.525974 -0.280636 4
-2.35286 1.30958 0.612626 36
-2.65821 0.909579 0.742489 49
-2.35024 1.3076 0.419491 33
-2.67826 0.921566 0.543317 44
-2.70186 0.933292 0.346225 47
-1.36748 0.760484 0.0267022 4
-0.613415 0.340397 -0.0350506 56
-1.4301 0.498315 -0.0258296 4
-1.3682 0.761812 -0.187716 4
-0.631609 0.222793 -0.0554509 30
-1.19461 0.665769 -0.258558 3
-1.92948 0.668716 -0.318303 12
-0.939493 0.524088 -0.278696 4
-2.32475 1.30992 0.607011 36
-2.65129 0.922232 0.741843 49
-2.33476 1.31504 0.41793 35
-2.66661 0.932691 0.541888 42
-2.69225 0.945789 0.345617 45
-1.37015 0.771079 0.0268331 8
-0.615973 0.346059 -0.0353131 53
-1.42756 0.505547 -0.0258296 4
-1.36851 0.771407 -0.188325 4
-0.628084 0.225273 -0.0552335 49
-1.19336 0.673015 -0.259034 3
-1.92595 0.678809 -0.318303 12
-0.941031 0.531216 -0.279989 4
-2.30974 1.30677 0.603642 38
-2.64968 0.926858 0.741843 49
-2.31312 1.30816 0.414418 35
-2.66945 0.93943 0.542841 45
-2.68591 0.948841 0.345008 44
-0.619712 0.349595 -0.0355757 55
-1.42432 0.507207 -0.0257859 4
-0.632387 0.228025 -0.0556684 52
-1.18791 0.672673 -0.258082 3
-1.92243 0.68135 -0.317912 12
-0.94001 0.533022 -0.279989 4
-2.28574 1.30955 0.59915 36
-2.64235 0.940374 0.741197 47
-2.28887 1.31083 0.411296 35
-2.66218 0.952572 0.542364 47
-2.68074 0.963359 0.345008 42
-1.46469 0.529806 0.0798123 4
-0.613542 0.350351 -0.0353131 53
-1.43097 0.518281 -0.0259605 4
-0.626496 0.229653 -0.0552335 52
-1.18426 0.679091 -0.258082 3
-1.90954 0.688081 -0.316346 12
-0.941392 0.540346 -0.281282 4
-1.06812 0.386135 -0.25381 4
-2.2689 1.30463 0.595219 36
-2.6407 0.944985 0.741197 47
-2.26969 1.30457 0.408175 36
-2.66051 0.957217 0.542364 49
-2.66988 0.964213 0.343792 42
-1.46856 0.533797 0.080074 4
-0.615093 0.352667 -0.0354444 56
-1.42771 0.51993 -0.0259168 4
-0.626094 0.230746 -0.0552335 52
-1.17457 0.67625 -0.256177 4
-1.91066 0.692248 -0.316737 12
-0.934175 0.538363 -0.279342 4
-1.0744 0.390278 -0.255495 4
-2.2473 1.3079 0.591288 36
-2.63815 0.95916 0.741843 49
-2.25216 1.31022 0.406223 36
-2.66025 0.972347 0.543317 50
-2.23911 1.30211 0.223554 36
-2.66246 0.977328 0.343487 42
-1.46809 0.542337 0.0802048 4
-0.611081 0.354625 -0.0353131 53
-1.42741 0.528009 -0.0259605 4
-0.624877 0.234021 -0.0552335 49
-1.17113 0.682186 -0.256177 4
-1.90005 0.699699 -0.315563 12
-0.941861 0.54918 -0.282576 4
-1.06547 0.393396 -0.25381 4
-2.2324 1.30444 0.587919 36
-2.64102 0.965413 0.743135 49
-2.23068 1.30293 0.402711 36
-2.65377 0.975767 0.542364 50
-2.23468 1.30476 0.223337 35
-2.64911 0.977698 0.341966 38
-1.46011 0.542313 0.0798123 4
-0.612616 0.356952 -0.0354444 53
-1.41945 0.527908 -0.0258296 4
-0.629142 0.236833 -0.0556684 47
-1.16782 0.682988 -0.255701 4
-1.89883 0.703015 -0.315563 12
-0.93664 0.548541 -0.281282 4
-1.06478 0.395255 -0.25381 4
-2.21064 1.30781 0.583988 36
-2.62896 0.977176 0.741197 47
-2.21085 1.30743 0.40037 35
-2.64862 0.989649 0.542364 50
-2.21044 1.30668 0.221593 35
-2.63913 0.990281 0.341358 36
-1.46884 0.554578 0.0804665 4
-0.617182 0.363972 -0.0358382 50
-1.42593 0.539087 -0.0260041 4
-0.627893 0.240124 -0.0556684 47
-1.15567 0.684286 -0.253796 3
-1.89731 0.714142 -0.315954 12
-0.933755 0.553438 -0.281282 4
-1.06035 0.40016 -0.253249 4
-2.19392 1.30257 0.580058 35
-2.62951 0.982604 0.741843 47
-2.19371 1.30246 0.397638 35
-2.64919 0.995129 0.542841 49
-2.19531 1.30291 0.220286 36
-2.62113 0.988782 0.339228 33
-1.47021 0.55802 0.0805974 4
-0.620838 0.367601 -0.0361008 47
-1.42499 0.541575 -0.0260041 4
-0.625142 0.240342 -0.0554509 45
-1.1629 0.691327 -0.255701 4
-1.88912 0.714848 -0.31478 12
-0.939009 0.558779 -0.283222 4
-1.05965 0.40201 -0.253249 4
-2.1662 1.30148 0.574442 36
-2.62902 0.997606 0.743135 49
-2.17228 1.30464 0.394907 36
-2.64412 1.00852 0.542841 49
-2.17375 1.30502 0.218761 38
-2.60218 0.996735 0.337402 32
-1.46037 0.562782 0.0802048 4
-0.621044 0.372134 -0.0362321 42
-1.41989 0.547888 -0.0259605 4
-0.616896 0.240944 -0.0547986 47
-1.14468 0.688335 -0.252368 3
-1.8901 0.72616 -0.315563 12
-0.934101 0.562277 -0.282576 4
-1.06215 0.4091 -0.254372 4
-2.15141 1.2977 0.571073 36
-2.62051 0.999623 0.741197 47
-2.15943 1.30204 0.392956 36
-2.63988 1.01272 0.542364 49
-2.15654 1.2998 0.217236 36
-2.58654 0.995949 0.335577 30
-1.45939 0.56533 0.0802048 4
-0.626804 0.37709 -0.0366259 36
-1.42594 0.553055 -0.0260913 4
-0.618799 0.242914 -0.055016 45
-1.14557 0.691603 -0.252844 3
-1.88191 0.726806 -0.314388 12
-0.93302 0.564069 -0.282576 4
-1.05461 0.408344 -0.252687 3
-2.12981 1.30043 0.567143 36
-2.61731 1.01466 0.741843 47
-2.13128 1.30083 0.389054 36
-2.63683 1.02742 0.542841 50
-2.1346 1.30237 0.21571 38
-2.56955 1.00543 0.334056 27
-1.46096 0.575032 0.0804665 4
-1.42292 0.560762 -0.0260913 4
-0.622159 0.247962 -0.0554509 44
-1.13553 0.693945 -0.251416 3
-1.88268 0.738442 -0.315171 12
-0.930054 0.568947 -0.282576 4
-1.05239 0.414044 -0.252687 4
-2.1153 1.29613 0.563773 36
-2.61779 1.02009 0.742489 49
-2.1166 1.29643 0.386712 38
-2.63504 1.03202 0.542841 50
-2.11746 1.29697 0.214185 38
-2.55872 1.00585 0.332839 27
-1.4647 0.579148 0.0807282 4
-1.42892 0.565984 -0.0262222 4
-0.621725 0.249047 -0.0554509 42
-1.88139 0.741726 -0.315171 12
-0.935228 0.574368 -0.284516 4
-1.054 0.416582 -0.253249 3
-2.09814 1.30076 0.560966 38
-2.61034 1.03245 0.741843 47
-2.09929 1.30099 0.384761 38
-2.62978 1.04534 0.542841 50
-2.09817 1.2998 0.212878 39
-2.54189 1.01465 0.331318 29
-1.45933 0.585886 0.0805974 4
-1.42604 0.573209 -0.0262222 4
-0.622727 0.253221 -0.0556684 39
-1.87518 0.750655 -0.31478 12
-0.92616 0.575264 -0.282576 4
-1.05407 0.422993 -0.25381 3
-2.08346 1.29669 0.557597 38
-2.60405 1.03523 0.740551 47
-2.08445 1.29682 0.38242 38
-2.62321 1.04858 0.541888 50
-2.08533 1.29688 0.211788 39
-2.53781 1.01817 0.331013 29
-1.69359 1.05376 0.0342067 12
-1.46062 0.58936 0.0807282 4
-1.432 0.578485 -0.0263531 4
-0.622284 0.254307 -0.0556684 38
-0.925054 0.577041 -0.282576 4
-1.05333 0.424832 -0.25381 3
-2.06405 1.30015 0.554227 38
-2.60513 1.052 0.742489 49
-2.06695 1.30149 0.380469 38
-2.61768 1.0623 0.541888 50
-2.06143 1.29752 0.210045 38
-2.54146 1.03561 0.33223 29
-1.67747 1.05595 0.0339886 12
-1.45047 0.594435 0.0803357 4
-1.42422 0.584341 -0.0262659 4
-0.625558 0.259437 -0.0561033 36
-0.92406 0.583168 -0.283222 4
-1.04876 0.429611 -0.253249 3
-2.04554 1.29297 0.549735 36
-2.60105 1.05564 0.741843 49
-2.04821 1.29417 0.377347 38
-2.61582 1.06686 0.541888 50
-2.04443 1.29179 0.20852 39
-2.52834 1.03492 0.330709 29
-1.66718 1.05353 0.033814 11
-1.45416 0.598599 0.0805974 4
-1.42782 0.588717 -0.0263531 4
-0.625104 0.260529 -0.0561033 35
-0.921003 0.583485 -0.282576 3
-1.0526 0.433092 -0.254372 3
-2.02848 1.29709 0.546928 38
-2.60014 1.07062 0.743135 49
-2.03309 1.29956 0.375786 39
-2.61039 1.08009 0.541888 49
-2.03157 1.2981 0.207866 39
-2.53435 1.05289 0.33223 29
-1.65761 1.05926 0.0337268 11
-1.4487 0.605249 0.0804665 4
-1.42482 0.595936 -0.0263531 4
-0.928196 0.594666 -0.285809 4
-1.05032 0.438598 -0.254372 3
-2.01802 1.29536 0.544681 38
-2.59604 1.07424 0.742489 47
-2.0142 1.29242 0.372664 39
-2.01463 1.29222 0.206341 39
-2.54168 1.06112 0.333447 30
-1.65347 1.06109 0.0336831 12
-1.45456 0.610655 0.0808591 4
-1.42378 0.598422 -0.0263531 4
-0.925024 0.595138 -0.285162 3
-1.04955 0.44043 -0.254372 4
-1.99464 1.29563 0.540189 38
-1.99682 1.29657 0.370713 39
-1.99508 1.29496 0.205034 41
-1.64999 1.07109 0.0337268 12
-1.45123 0.618516 0.0808591 4
-1.5955 1.03606 -0.0981942 14
-1.41592 0.604169 -0.0262659 4
-0.929984 0.605252 -0.287749 3
-1.04041 0.443267 -0.252687 4
-1.98036 1.29078 0.53682 38
-1.98238 1.29161 0.368372 39
-1.98239 1.29163 0.203944 41
-1.64812 1.07397 0.0337268 12
-1.45256 0.62177 0.0809899 4
-1.60832 1.0484 -0.0991131 14
-1.41946 0.608595 -0.0263531 4
-0.924886 0.604228 -0.286455 3
-1.0442 0.446798 -0.25381 3
-1.96341 1.29442 0.534012 39
-1.96528 1.29517 0.366421 39
-1.96543 1.2948 0.202855 41
-1.64058 1.08092 0.0336831 12
-1.44699 0.62838 0.0808591 4
-1.40948 0.612803 -0.0262222 4
-0.927856 0.612902 -0.288395 3
-1.03737 0.450338 -0.252687 3
-1.94897 1.28977 0.530643 38
-1.95067 1.29042 0.364079 39
-1.95071 1.28997 0.201548 42
-2.78859 1.20965 0.368435 14
-1.45276 0.633879 0.0812516 4
-1.41299 0.617249 -0.0263095 4
-0.920645 0.61067 -0.286455 3
-1.0433 0.455041 -0.254372 3
-1.93184 1.29351 0.527836 39
-1.9293 1.29133 0.361348 39
-2.86813 1.25774 0.601462 26
-1.93749 1.29635 0.200894 42
-2.77518 1.22173 0.367522 14
-1.44245 0.638718 0.0808591 4
-1.40506 0.622873 -0.0262222 4
-1.9356 1.29753 -0.281422 41
-0.917435 0.615482 -0.286455 3
-1.03636 0.458726 -0.253249 3
-1.91566 1.28703 0.523905 39
-2.85385 1.25156 0.824557 26
-1.92112 1.29023 0.360177 39
-2.83672 1.24992 0.595266 26
-1.92076 1.29 0.199369 41
-2.77326 1.22609 0.367522 27
-1.44602 0.642998 0.0811207 4
-1.40625 0.626335 -0.0262659 4
-1.92327 1.29363 -0.279901 42
-1.07163 0.720863 -0.243797 4
-0.922364 0.621137 -0.288395 3
-1.03786 0.461334 -0.25381 3
-1.90285 1.29293 0.52222 41
-2.82098 1.25426 0.816803 27
-1.90617 1.29471 0.358616 41
-2.80345 1.2523 0.589547 24
-1.90391 1.29271 0.198279 41
-2.75321 1.23452 0.365697 23
-1.43807 0.648522 0.0808591 4
-1.40535 0.634466 -0.0263095 4
-1.06391 0.723513 -0.242845 4
-0.915219 0.623074 -0.287102 3
-1.03543 0.466761 -0.25381 3
-1.89053 1.28938 0.519413 41
-2.77245 1.23857 0.803232 24
-1.89167 1.28968 0.356275 39
-2.74055 1.23063 0.576679 24
-1.89342 1.29041 0.197408 41
-2.73067 1.23019 0.362959 15
-1.88535 1.28587 0.0392243 35
-1.43239 0.648984 0.0805974 4
-1.4088 0.638968 -0.0263968 4
-1.06467 0.726755 -0.243321 4
-0.918005 0.627561 -0.288395 3
-1.03684 0.469563 -0.254372 4
-1.86749 1.28851 0.514921 39
-2.7481 1.2456 0.798063 56
-1.8745 1.29288 0.354324 39
-2.74524 1.25003 0.579062 53
-1.87412 1.29215 0.1961 42
-2.6901 1.22952 0.358395 14
-1.87654 1.2943 0.0391806 41
-1.43794 0.660867 0.0811207 4
-1.40532 0.646581 -0.0263968 4
-1.05265 0.726917 -0.241416 4
-0.910737 0.629607 -0.287102 3
-1.03207 0.474159 -0.25381 4
-1.85746 1.28589 0.512674 39
-2.74372 1.2494 0.797417 41
-1.86029 1.28739 0.351982 39
-2.71849 1.24363 0.573819 32
-1.85958 1.28691 0.194793 41
-2.66108 1.22137 0.354744 14
-1.86401 1.29046 0.0389625 42
-1.43009 0.660007 0.0807282 4
-1.39964 0.64695 -0.0263095 4
-1.05541 0.731554 -0.242368 4
-0.923513 0.640851 -0.291628 3
-1.03354 0.47679 -0.254372 4
-1.84272 1.29 0.510428 39
-2.70225 1.24714 0.787077 26
-1.84544 1.29144 0.350421 41
-2.68988 1.24709 0.569053 26
-1.84488 1.29059 0.193922 41
-2.62988 1.22381 0.351398 14
-1.84722 1.2927 0.0387443 41
-1.43114 0.669588 0.0809899 4
-1.40315 0.657185 -0.0264404 4
-1.21155 0.848528 -0.177068 8
-1.04567 0.732655 -0.24094 4
-0.920258 0.645517 -0.291628 3
-1.02439 0.479128 -0.252687 3
-1.82851 1.28481 0.507059 39
-2.67814 1.24173 0.780615 26
-1.83308 1.28756 0.34847 41
-2.66744 1.24295 0.564764 30
-1.82836 1.28378 0.192396 42
-2.60075 1.21584 0.347747 15
-1.83451 1.28906 0.0385262 42
-1.42771 0.67103 0.0808591 4
-1.39974 0.658576 -0.0263968 4
-1.20804 0.849212 -0.176764 9
-1.05241 0.740135 -0.242845 4
-1.03018 0.483994 -0.254372 4
-1.81161 1.28762 0.504251 41
-2.66045 1.25108 0.777384 50
-1.81402 1.28887 0.346129 41
-2.6609 1.2569 0.564764 58
-1.8153 1.28932 0.191743 42
-2.55374 1.21082 0.34227 26
-1.81959 1.29285 0.0383517 41
-1.42406 0.678745 0.0808591 4
-1.3939 0.66507 -0.0263531 4
-1.04839 0.745818 -0.242845 4
-1.02755 0.489561 -0.254372 4
-1.80166 1.2848 0.502005 41
-2.65826 1.25572 0.777384 56
-1.80774 1.28916 0.345348 41
-2.6587 1.26154 0.564764 58
-1.80494 1.2867 0.190871 42
-2.55387 1.21634 0.342575 24
-1.80309 1.28585 0.0380462 41
-1.42738 0.683372 0.0811207 4
-1.3995 0.670722 -0.026484 4
-1.0411 0.743362 -0.241416 4
-1.02449 0.490311 -0.25381 4
-1.78503 1.28709 0.499198 41
-2.66059 1.27332 0.779969 56
-1.78918 1.28963 0.343007 42
-2.65892 1.27816 0.566194 58
-1.78629 1.28708 0.189564 44
-2.57004 1.24 0.345617 27
-1.78845 1.28911 0.0378717 41
-1.43065 0.693836 0.0815132 4
-1.39609 0.677797 -0.026484 4
-1.022 0.495491 -0.25381 4
-1.77314 1.28274 0.49639 41
-2.66055 1.279 0.780615 58
-1.77893 1.28695 0.341446 42
-2.65669 1.2828 0.566194 59
-1.77799 1.28581 0.18891 44
-2.57235 1.24664 0.346225 26
-1.77608 1.2849 0.0376536 42
-1.42494 0.694158 0.0812516 4
-1.39041 0.678055 -0.0263968 4
-1.01016 0.491987 -0.251003 3
-1.75635 1.28512 0.493583 41
-2.66033 1.29608 0.782554 59
-1.75822 1.28603 0.338715 41
-2.65655 1.29992 0.567624 61
-1.76118 1.28774 0.187821 42
-2.56132 1.25791 0.345617 29
-1.76327 1.28975 0.0375227 44
-1.42577 0.703807 0.0815132 4
-1.39357 0.688627 -0.0265277 4
-1.75976 1.28906 -0.263168 44
-1.00976 0.498339 -0.251564 4
-1.74451 1.28066 0.490775 41
-2.66241 1.30284 0.783846 65
-1.74603 1.28179 0.336764 42
-2.66089 1.30779 0.569053 70
-1.75291 1.28639 0.187167 44
-2.54131 1.25362 0.343183 29
-1.75296 1.2869 0.0373481 42
-1.41558 0.701885 0.0809899 4
-1.38564 0.687746 -0.0263968 4
-1.75151 1.28771 -0.262255 44
-1.0067 0.499028 -0.251003 3
-1.72778 1.28281 0.487967 42
-2.65988 1.3189 0.785139 73
-1.73335 1.28649 0.335593 42
-2.65401 1.32171 0.569053 79
-1.73216 1.28516 0.185642 44
-2.5547 1.27686 0.345921 33
-1.73416 1.28712 0.0370864 44
-1.42083 0.713743 0.0815132 4
-1.38426 0.696107 -0.0264404 4
-1.73479 1.28946 -0.260734 44
-1.00625 0.505376 -0.251564 3
-1.72186 1.28261 0.486844 42
-2.65108 1.32032 0.7832 59
-1.72318 1.28361 0.334032 42
-2.6495 1.32524 0.568577 52
-1.72392 1.28371 0.184988 44
-2.56801 1.28909 0.348051 21
-1.7239 1.28416 0.0369118 42
-1.41958 0.716222 0.0815132 4
-1.38304 0.698522 -0.0264404 4
-1.7226 1.28506 -0.259213 45
-1.00319 0.506043 -0.251003 4
-1.70128 1.28164 0.482913 42
-2.62903 1.32659 0.778677 33
-1.70658 1.28518 0.332081 42
-2.62061 1.32804 0.563811 33
-1.70922 1.28672 0.184117 44
-2.56122 1.30252 0.348051 15
-1.70717 1.28565 0.0366937 42
-1.41358 0.722515 0.0813824 4
-1.38828 0.710281 -0.0266149 4
-1.71189 1.29107 -0.258604 47
-1.96681 1.00236 -0.344535 12
-1.0027 0.512388 -0.251564 3
-1.69128 1.27873 0.480667 42
-2.60084 1.31812 0.770922 32
-1.69252 1.27922 0.329739 42
-2.59398 1.32086 0.558568 30
-1.69506 1.28069 0.182809 44
-2.52798 1.29123 0.343792 15
-1.69673 1.28289 0.0365192 44
-1.41232 0.724981 0.0813824 4
-1.69645 1.28314 -0.110009 23
-1.3759 0.707025 -0.0263968 4
-1.69777 1.28506 -0.256779 47
-1.97606 1.01139 -0.346493 12
-0.999633 0.513035 -0.251003 3
-1.67853 1.28341 0.478983 42
-2.57432 1.32227 0.765106 30
-1.68165 1.28535 0.328959 42
-2.56302 1.32209 0.553326 29
-1.68019 1.28379 0.181938 44
-2.50331 1.2958 0.341358 15
-1.68404 1.2872 0.0363883 44
-1.40616 0.731467 0.0812516 4
-1.68178 1.28593 -0.109484 27
-1.38094 0.719049 -0.0265713 4
-1.97952 1.02625 -0.348059 14
-0.996842 0.518436 -0.251003 3
-1.66685 1.27863 0.476175 42
-2.55482 1.31794 0.759937 30
-1.66984 1.28047 0.327008 44
-2.54326 1.31756 0.549513 32
-1.674 1.28368 0.181502 45
-2.49466 1.29631 0.340445 15
-1.67386 1.28404 0.0362137 44
-1.40944 0.735972 0.0815132 4
-1.67557 1.28583 -0.109221 32
-1.37303 0.718004 -0.0264404 4
-1.97115 1.0263 -0.346884 14
-0.991698 0.517765 -0.24988 3
-1.65436 1.28286 0.474491 42
-2.52669 1.31971 0.753475 30
-1.65531 1.28314 0.325447 44
-2.51481 1.31905 0.544747 30
-1.6537 1.28145 0.179977 44
-2.48564 1.3082 0.340141 21
-1.65747 1.28483 0.0359956 45
-1.40557 0.743342 0.0815132 4
-1.66093 1.28845 -0.108696 35
-1.3738 0.72727 -0.0265277 4
-1.94169 1.02399 -0.342577 14
-0.999766 0.528597 -0.252687 4
-1.64059 1.27676 0.471121 42
-2.5094 1.31629 0.748951 32
-1.64332 1.27844 0.323496 42
-2.49706 1.31589 0.541411 30
-1.64361 1.27822 0.179105 44
-2.47238 1.30676 0.338619 27
-1.64317 1.2788 0.0357338 45
-1.40427 0.745794 0.0815132 4
-1.64687 1.28214 -0.107909 38
-1.37916 0.733166 -0.0266585 4
-1.93553 1.02508 -0.341794 14
-0.990216 0.525809 -0.250441 4
-1.62983 1.2826 0.469998 44
-2.4809 1.31855 0.742489 30
-1.63056 1.28273 0.322325 44
-2.47063 1.31858 0.537122 32
-1.62884 1.28093 0.178233 45
-2.4587 1.31661 0.337707 32
-1.62859 1.28119 0.0355593 45
-1.39581 0.751028 0.0812516 4
-1.62837 1.28148 -0.107121 39
-1.37517 0.740617 -0.0266585 4
-1.90835 1.02357 -0.337879 14
-0.987356 0.531158 -0.250441 4
-1.61826 1.2776 0.467191 44
-2.46366 1.31494 0.737966 32
-1.61692 1.2761 0.319984 44
-2.45317 1.3148 0.533785 32
-1.61683 1.27605 0.177144 47
-2.43913 1.3111 0.335273 33
-1.62047 1.27938 0.0354284 45
-1.40123 0.756759 0.0816441 4
-1.62417 1.28277 -0.10699 42
-1.37168 0.741834 -0.0266149 4
-1.60564 1.27038 -0.390456 55
-1.90004 1.0234 -0.336705 14
-0.992967 0.536153 -0.252126 4
-1.60203 1.27846 0.464383 44
-2.43783 1.3171 0.73215 33
-1.60443 1.27993 0.318813 42
-2.43353 1.3202 0.530926 32
-1.60257 1.278 0.176272 47
-2.4126 1.31321 0.332535 32
-1.60616 1.28133 0.0352539 45
-1.6118 1.2863 -0.106596 44
-1.3679 0.748767 -0.0266149 4
-1.60877 1.28616 -0.392837 52
-1.88163 1.02627 -0.334356 14
-0.985861 0.539026 -0.251003 4
-1.59242 1.27488 0.462137 44
-2.42066 1.31331 0.727626 32
-1.59449 1.27655 0.317252 42
-2.4118 1.31392 0.526637 32
-1.59645 1.27768 0.175837 45
-2.39286 1.30793 0.330101 33
-1.59807 1.27944 0.035123 47
-1.59787 1.27973 -0.105808 45
-1.36221 0.748759 -0.0265277 4
-1.86899 1.02365 -0.332398 14
-1.5973 1.28337 -0.539286 58
-0.984918 0.540746 -0.251003 3
-1.57982 1.27887 0.460452 45
-2.3968 1.3167 0.722457 32
-1.58011 1.27866 0.315691 44
-2.38768 1.31708 0.522824 33
-1.582 1.27975 0.174965 47
-2.37077 1.31206 0.327971 33
-1.58553 1.28307 0.0349921 45
-1.58511 1.28364 -0.105414 45
-1.3517 0.752255 -0.0263968 4
-1.85064 1.02627 -0.330049 14
-1.58119 1.28409 -0.536053 58
-0.977805 0.543547 -0.24988 3
-1.57003 1.27548 0.458206 44
-2.37545 1.31042 0.716641 32
-1.57213 1.27674 0.314521 44
-2.37226 1.31454 0.519964 35
-1.57203 1.27622 0.174094 47
-2.35328 1.30778 0.325841 33
-1.57531 1.2798 0.0348176 45
-1.57899 1.28326 -0.105152 45
-1.35913 0.759463 -0.0265713 4
-1.56895 1.27689 -0.385694 52
-1.83372 1.02112 -0.327308 14
-1.5675 1.27796 -0.532173 59
-0.985384 0.549965 -0.252126 3
-1.5537 1.27621 0.455399 44
-2.35566 1.3162 0.712764 33
-1.55757 1.27896 0.31296 44
-2.34606 1.31617 0.515675 35
-1.55741 1.27839 0.173222 45
-2.32885 1.31079 0.323407 35
-1.55893 1.28009 0.0345994 45
-1.56454 1.28516 -0.104627 47
-1.34411 0.760683 -0.0263531 4
-1.55444 1.27912 -0.38379 52
-1.81327 1.02226 -0.324568 14
-1.5552 1.28154 -0.530233 58
-0.980268 0.554099 -0.251564 4
-1.54418 1.27245 0.453153 45
-2.33438 1.30971 0.706948 33
-1.54794 1.27512 0.311399 44
-2.3245 1.30946 0.511386 36
-1.54557 1.27318 0.172133 47
-2.30949 1.30472 0.320973 35
-1.55284 1.27963 0.0345121 45
-1.54882 1.27677 -0.103708 47
-1.34495 0.764256 -0.0263968 4
-1.54843 1.2787 -0.382837 52
-1.79212 1.01452 -0.321044 14
-1.54552 1.27809 -0.527647 59
-0.979397 0.555638 -0.251564 3
-1.53375 1.2774 0.452029 45
-2.31091 1.312 0.701778 35
-1.53745 1.28004 0.310618 44
-2.30717 1.31515 0.509003 36
-1.53528 1.27779 0.171697 47
-2.29184 1.31065 0.319452 35
-1.53482 1.27787 0.0342503 45
-1.53828 1.28166 -0.103445 45
-1.34324 0.772293 -0.0264404 4
-1.5344 1.28023 -0.380933 53
-1.76748 1.01288 -0.31752 14
-1.53348 1.28125 -0.525707 59
-0.976474 0.560758 -0.251564 3
-1.52218 1.27225 0.449222 45
-2.29391 1.30769 0.697255 35
-1.52574 1.2748 0.308667 44
-2.28545 1.30864 0.504713 35
-1.5254 1.27408 0.170825 47
-2.27447 1.30603 0.317323 33
-1.52661 1.276 0.0341195 45
-1.52647 1.27633 -0.102789 49
-1.33755 0.77215 -0.0263531 4
-1.52464 1.27659 -0.379028 53
-1.75499 1.00983 -0.315563 14
-1.52547 1.27953 -0.523767 59
-0.977609 0.56367 -0.252126 3
-1.50783 1.27418 0.446976 45
-2.27424 1.31286 0.693378 35
-1.51316 1.27825 0.307497 45
-2.26369 1.312 0.501377 35
-1.50898 1.27427 0.169736 47
-2.25019 1.30837 0.314889 33
-1.518 1.28236 0.0340758 45
-1.51405 1.27947 -0.102395 47
-1.50816 1.27583 -0.237916 47
-1.51022 1.27848 -0.377123 53
-1.72814 1.00694 -0.311648 14
-1.51322 1.28281 -0.521827 61
-0.976654 0.57017 -0.252687 3
-1.50212 1.27339 0.445853 45
-2.2573 1.30838 0.688854 35
-1.50528 1.2761 0.306326 44
-2.24653 1.30734 0.498041 35
-1.50295 1.27368 0.1693 49
-2.23289 1.30356 0.312759 33
-1.50433 1.2753 0.033814 47
-1.5061 1.27726 -0.102001 47
-1.49837 1.27203 -0.236699 50
-1.50425 1.27793 -0.376171 53
-1.7029 0.996292 -0.307341 14
-1.49812 1.27449 -0.517301 59
-0.979872 0.574319 -0.25381 3
-1.48433 1.27172 0.442484 45
-2.23397 1.31004 0.683685 35
-1.49131 1.27727 0.304765 44
-2.22506 1.31 0.494705 36
-1.49271 1.27803 0.168864 49
-2.20915 1.30478 0.310325 35
-1.49027 1.27639 0.0336395 47
-1.49182 1.27862 -0.101476 47
-1.49218 1.28073 -0.374743 55
-1.67869 0.993626 -0.303817 14
-1.48798 1.2789 -0.516008 61
-0.97065 0.575571 -0.252126 4
-1.47657 1.26954 0.440799 45
-2.21501 1.30417 0.678515 35
-1.48533 1.27665 0.303985 45
-2.20563 1.30431 0.490892 35
-1.48292 1.27414 0.167993 49
-2.18978 1.29854 0.307891 35
-1.48213 1.27436 0.0335086 47
-1.48202 1.27471 -0.100951 49
-1.48065 1.27532 -0.372362 55
-1.66207 0.987762 -0.301077 14
-1.4837 1.28018 -0.515361 59
-0.973841 0.579738 -0.253249 3
-1.46601 1.27431 0.439676 45
-2.19131 1.30627 0.673345 35
-1.46909 1.27656 0.302034 47
-2.18612 1.3083 0.488032 35
-1.46849 1.2756 0.167121 49
-2.16781 1.30146 0.305761 35
-1.47167 1.27882 0.0334214 47
-1.47155 1.27917 -0.100688 47
-1.46027 1.27068 -0.233048 52
-1.47003 1.28008 -0.371409 55
-1.64628 0.990114 -0.299119 14
-1.46424 1.27681 -0.510835 61
-0.97069 0.584999 -0.253249 4
-1.45483 1.2686 0.436868 47
-2.17865 1.30392 0.670114 38
-1.4615 1.27399 0.300863 45
-2.16698 1.30204 0.48422 36
-1.45688 1.26998 0.166032 47
-2.15725 1.29976 0.304545 35
-1.4619 1.27481 0.0332468 47
-1.45804 1.27188 -0.0999007 49
-1.45827 1.27297 -0.233048 52
-1.45486 1.27133 -0.368076 55
-1.63397 0.986631 -0.297161 15
-1.45656 1.27459 -0.508895 64
-0.96768 0.585271 -0.252687 4
-1.44452 1.27298 0.435745 47
-2.15134 1.30246 0.663652 38
-1.44741 1.27509 0.299302 45
-2.14987 1.30664 0.481837 36
-1.44296 1.27074 0.16516 49
-2.13769 1.30331 0.302719 35
-1.44793 1.27558 0.0330723 47
-1.44949 1.27785 -0.0997695 47
-1.44043 1.27073 -0.231223 52
-1.45025 1.28031 -0.368552 55
-1.61823 0.988763 -0.295204 15
-1.44286 1.27554 -0.506308 61
-0.960436 0.587805 -0.251564 4
-1.435 1.26904 0.433499 49
-2.13667 1.29871 0.659775 38
-1.43593 1.26943 0.297351 45
-2.13477 1.30311 0.478977 36
-1.43515 1.26831 0.164506 49
-2.1227 1.29929 0.300894 35
-1.43987 1.27338 0.0329414 49
-2.11329 1.29556 0.128092 35
-1.44165 1.27541 -0.0993756 49
-1.43449 1.26995 -0.230614 52
-1.43883 1.27469 -0.366172 55
-1.6165 0.991586 -0.295204 15
-1.42958 1.26869 -0.502428 59
-0.967733 0.594545 -0.25381 4
-1.42448 1.27353 0.432376 49
-2.11725 1.30268 0.655898 38
-1.42352 1.27224 0.29618 45
-2.11747 1.30784 0.476594 38
-1.4227 1.27107 0.163853 49
-2.09874 1.30033 0.29846 35
-1.42759 1.2759 0.0328105 47
-2.0935 1.2991 0.127307 35
-1.43495 1.28294 -0.0993756 49
-1.42021 1.27107 -0.229397 53
-1.42644 1.27754 -0.364743 55
-1.60918 0.998739 -0.294812 15
-1.41393 1.26808 -0.499195 61
-0.956205 0.594662 -0.251564 4
-1.4116 1.266 0.429007 47
-2.1088 1.30258 0.653959 39
-1.41969 1.27283 0.29579 45
-2.0943 1.29865 0.471828 36
-1.41306 1.2669 0.162981 49
-2.08615 1.2971 0.296939 36
-1.41793 1.27171 0.032636 49
-2.08085 1.29581 0.126653 35
-1.42342 1.2771 -0.0987193 49
-1.41268 1.26832 -0.228484 53
-1.41508 1.27182 -0.362362 55
-1.60954 1.00285 -0.295204 15
-1.40993 1.26893 -0.498549 59
-0.961486 0.600006 -0.253249 4
-1.39954 1.26846 0.427322 49
-2.08578 1.30303 0.648789 38
-1.40569 1.27361 0.294229 45
-2.07937 1.30403 0.469922 38
-1.40479 1.27236 0.162763 50
-2.0625 1.29747 0.294505 38
-1.40777 1.27551 0.0325487 49
-2.05923 1.2974 0.125737 36
-1.40563 1.27446 -0.0979316 49
-1.40234 1.27236 -0.227876 53
-1.40136 1.27236 -0.360458 56
-1.61472 1.01782 -0.297161 15
-1.4017 1.27443 -0.497902 59
-0.958332 0.605032 -0.253249 4
-1.39193 1.26598 0.425638 49
-2.07121 1.299 0.644912 39
-1.39433 1.26775 0.292278 47
-2.06231 1.29889 0.466586 38
-1.39704 1.26978 0.16211 50
-2.04973 1.29446 0.292983 38
-1.39608 1.2698 0.0323306 47
-2.04429 1.29301 0.124952 36
-1.39971 1.27355 -0.0976691 50
-1.39279 1.26812 -0.226659 53
-1.3937 1.26984 -0.359029 56
-1.38855 1.26734 -0.494022 61
-0.959337 0.607999 -0.25381 4
-1.3761 1.26524 0.42283 49
-2.05394 1.30373 0.641681 39
-1.37837 1.26691 0.290327 47
-2.04512 1.3031 0.464203 38
-1.37916 1.2672 0.160802 49
-2.03433 1.3002 0.291766 38
-1.38205 1.27032 0.0321561 49
-2.02884 1.29869 0.124429 39
-1.382 1.27072 -0.0968814 49
-1.61777 1.03749 -0.0329414 15
-1.37861 1.26891 -0.225442 53
-1.37779 1.26904 -0.356648 58
-1.3748 1.26804 -0.491436 61
-0.970427 0.622325 -0.257741 4
-1.37411 1.2674 0.42283 49
-2.03535 1.29697 0.636512 39
-1.37638 1.26907 0.290327 47
-2.03042 1.29876 0.461343 38
-1.37328 1.26623 0.160367 49
-2.01346 1.29138 0.289028 39
-1.37433 1.26764 0.0320252 47
-2.01208 1.29246 0.123513 39
-1.37612 1.26974 -0.0966189 49
-1.61596 1.04032 -0.0329414 14
-1.37479 1.26939 -0.225138 53
-1.37197 1.26811 -0.355696 56
-1.37436 1.27208 -0.492082 61
-0.96534 0.62123 -0.256618 4
-1.36033 1.26793 0.420584 49
-2.01859 1.30073 0.633281 38
-1.3643 1.27121 0.289156 47
-2.01351 1.30238 0.45896 39
-1.36139 1.26807 0.159713 49
-2.0025 1.29921 0.28842 39
-1.36241 1.26946 0.0318943 49
-2.00319 1.30162 0.123382 38
-1.36398 1.27181 -0.096225 50
-1.61697 1.05256 -0.0330723 14
-1.35906 1.2681 -0.223617 55
-1.3512 1.26163 -0.351887 58
-1.3538 1.26581 -0.486909 61
-0.97231 0.632878 -0.259426 4
-1.35278 1.26531 0.418899 49
-1.99805 1.29249 0.627465 39
-1.35667 1.26852 0.287985 47
-1.99452 1.29558 0.455147 38
-1.35736 1.26874 0.159495 49
-1.98982 1.29595 0.286899 38
-1.3545 1.26695 0.0317634 45
-1.98207 1.29287 0.122204 38
-1.35811 1.27078 -0.0959625 50
-1.35503 1.26877 -0.223312 55
-1.34899 1.26399 -0.351887 58
-1.35313 1.27006 -0.487556 61
-0.965069 0.630602 -0.257741 4
-1.34061 1.26758 0.417215 50
-1.98293 1.298 0.62488 38
-1.34441 1.27075 0.286815 49
-1.97949 1.30063 0.453241 39
-1.34324 1.26922 0.158623 50
-1.96826 1.29717 0.284769 38
-1.34603 1.27231 0.0317197 49
-1.9667 1.29809 0.121681 38
-1.34781 1.27444 -0.0956999 50
-1.34455 1.27267 -0.222704 55
-1.33679 1.2662 -0.350458 58
-1.96439 1.29564 -0.367635 39
-1.34121 1.27214 -0.485616 61
-0.965719 0.638484 -0.258864 4
-1.33332 1.26465 0.41553 50
-1.96854 1.29353 0.621003 39
-1.33682 1.26799 0.285644 47
-1.96901 1.29869 0.451335 39
-1.3338 1.2647 0.157752 49
-1.95355 1.29241 0.282943 39
-1.33837 1.26949 0.0315889 47
-1.94984 1.2919 0.120765 38
-1.34016 1.27163 -0.0953061 50
-1.33693 1.26989 -0.221791 55
-1.32925 1.26345 -0.34903 58
-1.95181 1.29227 -0.365677 39
-1.33724 1.27281 -0.48497 61
-0.958497 0.636153 -0.257179 4
-1.31942 1.2651 0.413284 50
