# .PCD v0.7 - Point Cloud Data file format
VERSION 0.7
FIELDS x y z intensity
SIZE 4 4 4 4
TYPE F F F F
COUNT 1 1 1 1
WIDTH 1555
HEIGHT 1
VIEWPOINT 0 0 0 1 0 0 0
POINTS 1555
DATA ascii
-0.00800558 -2.28157 -0.356281 53
-0.411967 -2.27032 -0.608475 56
-0.00566006 -2.28561 -0.518851 47
-1.0261 -5.64294 1.31397 14
-0.00291869 -5.65444 1.50372 14
-1.02279 -5.62471 0.897906 15
-0.0127814 -5.689 1.09807 23
-0.403823 -2.22763 0.195011 9
-0.0207946 -5.72699 0.697927 36
-0.411945 -2.27003 0.0396606 56
-0.0128088 -2.29901 0.118672 90
-0.413184 -2.27458 -0.119723 55
-0.0135774 -2.29177 -0.0393988 97
-0.41278 -2.26567 -0.278076 50
-0.0131868 -2.29103 -0.197014 82
-0.41351 -2.26523 -0.439977 50
-0.0120032 -2.28649 -0.357064 53
-0.415492 -2.26723 -0.607829 56
-0.00963389 -2.27829 -0.517167 47
-1.05032 -5.60379 1.30611 14
-0.0326549 -5.68091 1.51083 15
-1.04495 -5.58044 0.891662 15
-0.0426662 -5.70358 1.10093 26
-0.415481 -2.22549 0.195011 9
-0.0507009 -5.71687 0.69671 30
-0.422904 -2.26293 0.0395733 55
-0.0248026 -2.29392 0.11841 90
-0.425024 -2.26986 -0.119592 52
-0.0255769 -2.29167 -0.0393988 97
-0.424178 -2.26104 -0.277771 50
-0.0255822 -2.29093 -0.197014 82
-0.426729 -2.27027 -0.441406 50
-0.0239543 -2.28392 -0.356672 53
-0.427358 -2.26502 -0.607829 56
-0.021545 -2.27577 -0.516605 47
-1.05194 -5.55886 1.29601 14
-0.042714 -5.70258 1.51664 18
-1.05147 -5.56163 0.888931 21
-0.0535323 -5.69367 1.09903 17
-0.419827 -2.22721 0.195229 9
-0.0606302 -5.71181 0.696102 27
-0.428178 -2.26703 0.0396606 55
-0.0288323 -2.29637 0.118541 90
-0.42945 -2.27157 -0.119723 52
-0.0295766 -2.29162 -0.0393988 97
-0.429513 -2.26761 -0.278684 50
-0.0294728 -2.28092 -0.196144 82
-0.429314 -2.26229 -0.439977 50
-0.0279654 -2.28635 -0.357064 53
-0.433067 -2.27131 -0.609768 55
-0.025539 -2.27817 -0.517167 47
-1.0792 -5.53874 1.29264 15
-0.0734218 -5.69019 1.51341 15
-1.09336 -5.61645 0.898686 21
-0.0828697 -5.65895 1.09235 15
-0.431396 -2.22246 0.195011 9
-0.439086 -2.25985 0.0395733 50
-0.0412167 -2.29369 0.11841 90
-0.442294 -2.27419 -0.119986 50
-0.0419344 -2.28893 -0.0393552 97
-0.441776 -2.26526 -0.278684 50
-0.0414952 -2.28571 -0.196579 86
-0.442492 -2.26475 -0.44093 50
-0.0399363 -2.28617 -0.357064 53
-0.443555 -2.2619 -0.607829 56
-0.0378294 -2.27556 -0.516605 47
-1.10201 -5.60875 1.30948 14
-0.0828867 -5.65624 1.50436 14
-1.05169 -5.35789 0.857323 1
-0.0924794 -5.64162 1.08902 15
-0.436715 -2.22903 0.195665 9
-0.442547 -2.25662 0.0395297 53
-0.0447324 -2.28863 0.118148 90
-0.444816 -2.26607 -0.119592 50
-0.0459292 -2.28885 -0.0393552 98
-0.445814 -2.26699 -0.278988 50
-0.0454845 -2.28564 -0.196579 86
-0.446444 -2.26398 -0.44093 50
-0.0438841 -2.28363 -0.356672 53
-0.448913 -2.26823 -0.609768 56
-0.0414429 -2.27794 -0.517167 47
-1.12267 -5.55992 1.29937 14
-0.111059 -5.63161 1.4979 14
-1.07093 -5.30874 0.850299 1
-0.120426 -5.61164 1.0833 15
-0.449962 -2.23656 0.196536 8
-0.0547254 -2.26975 0.27412 9
-0.455943 -2.26416 0.0397042 53
-0.0568849 -2.29585 0.118541 90
-0.456774 -2.26623 -0.119723 50
-0.0575711 -2.29109 -0.0393988 98
-0.457678 -2.26463 -0.278988 49
-0.0571094 -2.28787 -0.196796 88
-0.458385 -2.26409 -0.441406 50
-0.0558405 -2.28337 -0.356672 53
-0.461352 -2.27066 -0.611062 58
-0.0533176 -2.27525 -0.516605 47
-1.12994 -5.55099 1.29769 14
-0.120241 -5.60002 1.4895 14
-0.129563 -5.58198 1.07758 14
-0.455356 -2.24309 0.19719 8
-0.0584512 -2.25973 0.272904 11
-0.459894 -2.26336 0.0397042 52
-0.0607699 -2.29075 0.118279 90
-0.461228 -2.26788 -0.119855 50
-0.0615697 -2.29099 -0.0393988 98
-0.462127 -2.26626 -0.279293 49
-0.0610411 -2.28527 -0.196579 86
-0.462829 -2.26569 -0.441882 50
-0.0598256 -2.28327 -0.356672 53
-0.465314 -2.26985 -0.611062 58
-0.0574009 -2.28003 -0.517728 47
-1.20191 -5.74508 1.34486 3
-0.148938 -5.57517 1.48304 14
-0.160074 -5.62783 1.08663 15
-0.468623 -2.24799 0.197844 8
-0.070498 -2.26683 0.273816 11
-0.471226 -2.25847 0.0396606 52
-0.0727633 -2.2904 0.118279 90
-0.474004 -2.26779 -0.119986 50
-0.0735644 -2.29063 -0.0393988 99
-0.473986 -2.26381 -0.279293 49
-0.0734795 -2.2874 -0.196796 86
-0.475696 -2.26804 -0.442834 50
-0.0717799 -2.28292 -0.356672 53
-0.477193 -2.26739 -0.611062 58
-0.0693382 -2.2797 -0.517728 47
-1.221 -5.78588 1.35497 17
-0.1594 -5.60145 1.49015 14
-1.22076 -5.78966 0.929514 17
-0.172181 -5.67167 1.09521 15
-0.469976 -2.23498 0.196754 4
-0.0744542 -2.26671 0.273816 9
-0.477112 -2.2649 0.0397915 50
-0.0769175 -2.29526 0.118541 90
-0.478477 -2.2694 -0.120117 50
-0.0775622 -2.2905 -0.0393988 99
-0.477937 -2.26298 -0.279293 49
-0.0774716 -2.28727 -0.196796 89
-0.478635 -2.26241 -0.441882 50
-0.0757642 -2.28279 -0.356672 53
-0.0732438 -2.27714 -0.517167 47
-0.19074 -5.63189 1.49855 14
-1.24683 -5.75884 0.925612 14
-0.483116 -2.23728 0.19719 4
-0.489493 -2.26481 0.0398351 52
-0.0890592 -2.28733 0.118148 90
-0.489824 -2.26443 -0.119986 50
-0.0899538 -2.29005 -0.0393988 99
-0.491228 -2.26521 -0.279901 49
-0.0894466 -2.28683 -0.196796 88
-0.490869 -2.25978 -0.441882 50
-0.0877158 -2.28236 -0.356672 53
-0.0855632 -2.27671 -0.517167 47
-0.202582 -5.68947 1.51406 17
-1.24218 -5.69415 0.915466 36
-0.487551 -2.23886 0.197408 8
-0.492912 -2.26151 0.0397915 50
-0.0927478 -2.28968 0.118279 90
-0.494843 -2.26845 -0.120248 50
-0.0939505 -2.28989 -0.0393988 99
-0.493724 -2.25958 -0.279293 49
-0.0933413 -2.28418 -0.196579 89
-0.495339 -2.26132 -0.442358 50
-0.0916992 -2.28221 -0.356672 53
-0.0890492 -2.27413 -0.516605 47
-0.231088 -5.68113 1.51212 14
-0.498877 -2.23637 0.197408 4
-0.503806 -2.25655 0.0397479 50
-0.104953 -2.29415 0.118541 90
-0.505621 -2.26095 -0.119986 49
-0.105649 -2.29188 -0.0394424 99
-0.506092 -2.25939 -0.279597 49
-0.105519 -2.28864 -0.197014 88
-0.506239 -2.25639 -0.441882 50
-0.103754 -2.28416 -0.357064 53
-0.101161 -2.2785 -0.517728 47
-0.23629 -5.56731 1.48175 12
-0.503327 -2.23792 0.197626 4
-0.509239 -2.26045 0.0398351 50
-0.108844 -2.29147 0.11841 90
-0.509566 -2.26007 -0.119986 49
-0.109535 -2.28919 -0.0393988 99
-0.510583 -2.26092 -0.279901 39
-0.109172 -2.28099 -0.196362 88
-0.510177 -2.2555 -0.441882 9
-0.10763 -2.28151 -0.356672 53
-0.104709 -2.26859 -0.515482 47
-0.266748 -5.57319 1.48369 15
-0.514867 -2.23274 0.197408 4
-0.51994 -2.25289 0.0397479 44
-0.12124 -2.29085 0.11841 90
-0.519703 -2.25007 -0.119592 12
-0.121919 -2.28857 -0.0393988 99
-0.520563 -2.24846 -0.278684 3
-0.121621 -2.29033 -0.197231 86
-0.521261 -2.24793 -0.44093 9
-0.120097 -2.28336 -0.357064 53
-0.117583 -2.28016 -0.51829 47
-0.27671 -5.57754 1.48498 15
-0.518763 -2.23184 0.197408 4
-0.296259 -5.61748 0.685453 30
-0.523872 -2.25198 0.0397479 4
-0.125238 -2.29063 0.11841 90
-0.522494 -2.2443 -0.11933 12
-0.125913 -2.28835 -0.0393988 98
-0.525052 -2.24996 -0.278988 3
-0.125224 -2.28266 -0.196579 85
-0.524063 -2.24224 -0.439977 4
-0.123953 -2.28068 -0.356672 53
-0.121438 -2.27751 -0.517728 47
-0.304998 -5.55914 1.48045 15
-0.52813 -2.2194 0.196536 4
-0.332603 -5.73724 0.700361 36
-0.531592 -2.23218 0.0394424 4
-0.137374 -2.29244 0.118541 90
-0.532497 -2.23425 -0.118936 11
-0.138184 -2.29265 -0.0394861 99
-0.536247 -2.24477 -0.278684 4
-0.137463 -2.28694 -0.197014 86
-0.534651 -2.23469 -0.439025 8
-0.135919 -2.28742 -0.357847 53
-0.133224 -2.27441 -0.517167 47
-0.31591 -5.5803 1.48627 14
-0.333856 -5.72346 1.10665 24
-0.53375 -2.22574 0.19719 11
-0.341033 -5.72681 0.699144 30
-0.534902 -2.22882 0.0393988 9
-0.140531 -2.28474 0.118148 90
-0.536396 -2.23332 -0.118936 11
-0.141736 -2.28492 -0.0393552 98
-0.539773 -2.24392 -0.278684 9
-0.141157 -2.28173 -0.196579 86
-0.539704 -2.23852 -0.439977 9
-0.139474 -2.27979 -0.356672 53
-0.136656 -2.27177 -0.516605 45
-0.351627 -5.70157 1.51923 20
-0.362361 -5.71434 1.10522 21
-0.542036 -2.21092 0.1961 9
-0.368162 -5.68037 0.693668 26
-0.547967 -2.23337 0.0395297 11
-0.152975 -2.29145 0.118541 90
-0.54829 -2.233 -0.119067 12
-0.153624 -2.28916 -0.0394424 98
-0.549137 -2.23143 -0.277467 8
-0.152865 -2.28347 -0.196796 82
-0.54985 -2.231 -0.439025 9
-0.151884 -2.28642 -0.357847 53
-0.148856 -2.27589 -0.517728 47
-0.360371 -5.68166 1.51406 15
-0.368869 -5.65982 1.09474 15
-0.547091 -2.2148 0.196536 9
-0.374171 -5.62029 0.686366 21
-0.550061 -2.22513 0.0393988 11
-0.156809 -2.28869 0.11841 90
-0.550383 -2.22477 -0.118673 11
-0.157452 -2.2864 -0.0393988 97
-0.556024 -2.24251 -0.278988 9
-0.15685 -2.2832 -0.196796 82
-0.555522 -2.23718 -0.440453 9
-0.155386 -2.27876 -0.356672 53
-0.152512 -2.27076 -0.516605 45
-0.388481 -5.6556 1.5076 14
-0.396965 -5.63578 1.09045 14
-0.559292 -2.21432 0.196754 9
-0.402539 -5.6034 0.684541 30
-0.563546 -2.22949 0.0395297 11
-0.169147 -2.29282 0.118672 90
-0.56364 -2.2266 -0.118936 11
-0.169781 -2.29053 -0.0394861 97
-0.169559 -2.28729 -0.197231 82
-0.566017 -2.22948 -0.439501 8
-0.167843 -2.2853 -0.357847 53
-0.165083 -2.27965 -0.518851 47
-0.396339 -5.626 1.49984 14
-0.406209 -5.61298 1.08616 18
-0.565618 -2.223 0.197626 9
-0.413218 -5.61507 0.686062 30
-0.568444 -2.23082 0.0395733 11
-0.172783 -2.28754 0.11841 90
-0.569381 -2.23286 -0.11933 11
-0.173594 -2.28774 -0.0394424 97
-0.173185 -2.28202 -0.196796 82
-0.569298 -2.22611 -0.439025 8
-0.171471 -2.28008 -0.357064 53
-0.168361 -2.26964 -0.516605 47
-0.423341 -5.57802 1.48756 14
-0.43672 -5.62546 1.08902 18
-0.578266 -2.22231 0.197844 8
-0.4463 -5.64738 0.690321 27
-0.579485 -2.2254 0.0395297 11
-0.185157 -2.28657 0.11841 90
-0.57854 -2.22019 -0.118804 11
-0.18597 -2.28676 -0.0394424 96
-0.185327 -2.28356 -0.197014 77
-0.582579 -2.22775 -0.439977 4
-0.1836 -2.28161 -0.357455 53
-0.181015 -2.27355 -0.517728 47
-0.433815 -5.5869 1.49015 15
-0.446537 -5.62468 1.08902 15
-0.586573 -2.23816 0.199369 8
-0.458327 -5.68625 0.695189 27
-0.583368 -2.22438 0.0395297 9
-0.188348 -2.2813 0.118148 83
-0.584955 -2.22884 -0.11933 9
-0.18996 -2.28644 -0.0394424 92
-0.189312 -2.28324 -0.197014 77
-0.586466 -2.22673 -0.439977 3
-0.187582 -2.28129 -0.357455 52
-0.184394 -2.27084 -0.517167 45
-0.464057 -5.60871 1.49661 14
-0.4795 -5.67616 1.0995 15
-0.599184 -2.23997 0.199805 4
-0.490826 -5.71592 0.699144 35
-0.593324 -2.21657 0.0394424 9
-0.200504 -2.28277 0.118279 80
-0.596228 -2.22585 -0.11933 4
-0.201745 -2.28794 -0.0394861 91
-0.201079 -2.28473 -0.197231 77
-0.597729 -2.22373 -0.439977 3
-0.199944 -2.2852 -0.358238 52
-0.196691 -2.2747 -0.51829 45
-0.476059 -5.63436 1.50372 14
-0.492537 -5.71199 1.10665 23
-0.599846 -2.2269 0.198715 4
-0.50166 -5.72494 0.700361 39
-0.597844 -2.21795 0.0394861 8
-0.20427 -2.27993 0.118148 73
-0.598158 -2.21757 -0.118936 4
-0.2053 -2.2826 -0.0393988 90
-0.204414 -2.27693 -0.196579 73
-0.600324 -2.21795 -0.439025 3
-0.203289 -2.27746 -0.357064 52
-0.607556 -2.23849 -0.611708 3
-0.200034 -2.26707 -0.516605 45
-0.510473 -5.68712 1.51858 17
-0.523325 -5.71911 1.10856 26
-0.614145 -2.23334 0.199587 8
-0.529809 -5.70247 0.697927 29
-0.606125 -2.20274 0.0392679 3
-0.216897 -2.28629 0.118541 67
-0.610147 -2.2143 -0.118936 4
-0.217249 -2.28149 -0.0393988 90
-0.217654 -2.28571 -0.197449 70
-0.610619 -2.21004 -0.438073 4
-0.215666 -2.28129 -0.357847 52
-0.617976 -2.23062 -0.610415 4
-0.212345 -2.27084 -0.517728 45
-0.521924 -5.70306 1.5231 21
-0.530683 -5.67899 1.10093 15
-0.61338 -2.21546 0.198061 14
-0.536284 -5.66447 0.693364 18
-0.61303 -2.2112 0.0394424 3
-0.220417 -2.28093 0.118279 59
-0.614011 -2.21324 -0.118936 11
-0.220995 -2.27862 -0.0393552 90
-0.220938 -2.27789 -0.196796 73
-0.616452 -2.21607 -0.439501 3
-0.219415 -2.27845 -0.357455 52
-0.624859 -2.23874 -0.613002 4
-0.216082 -2.26804 -0.517167 45
-0.550924 -5.68092 1.51793 14
-0.557064 -5.64194 1.09426 14
-0.625358 -2.21211 0.198061 9
-0.563246 -5.62445 0.6888 20
-0.619145 -2.18873 0.0390934 12
-0.233251 -2.28468 0.118541 56
-0.622183 -2.19798 -0.118279 11
-0.23357 -2.27988 -0.0393988 90
-0.233854 -2.28662 -0.197666 68
-0.626418 -2.20562 -0.438073 3
-0.231831 -2.28218 -0.358238 52
-0.634584 -2.22847 -0.611062 4
-0.229067 -2.27411 -0.518851 45
-0.555193 -5.62226 1.50243 12
-0.561801 -5.58968 1.08425 15
-0.627169 -2.20383 0.197408 8
-0.571333 -5.61615 0.687887 24
-0.627766 -2.20447 0.0393988 9
-0.236335 -2.27934 0.118279 52
-0.629447 -2.20889 -0.118936 9
-0.237041 -2.2745 -0.0393115 90
-0.237592 -2.28373 -0.197449 67
-0.630942 -2.20688 -0.438549 3
-0.235317 -2.27686 -0.357455 50
-0.642474 -2.24128 -0.614941 4
-0.232153 -2.2689 -0.517728 45
-0.581168 -5.59536 1.49596 14
-0.589574 -5.58188 1.0833 15
-0.635534 -2.19106 0.196536 9
-0.600993 -5.61555 0.688191 14
-0.636821 -2.19406 0.0392679 9
-0.248001 -2.27559 0.118148 49
-0.640619 -2.20568 -0.118936 9
-0.24855 -2.27327 -0.0393115 90
-0.248883 -2.28002 -0.197231 64
-0.64692 -2.22015 -0.441882 3
-0.246973 -2.27314 -0.357064 52
-0.652453 -2.23337 -0.613648 4
-0.24403 -2.26766 -0.517728 45
-0.591185 -5.59673 1.49661 14
-0.601395 -5.60037 1.08711 14
-0.642855 -2.2019 0.197626 8
-0.611858 -5.62436 0.689408 29
-0.641352 -2.19534 0.0393115 9
-0.251703 -2.27267 0.118018 45
-0.64517 -2.20695 -0.119067 8
-0.252788 -2.27531 -0.0393552 90
-0.252862 -2.27958 -0.197231 64
-0.654254 -2.23079 -0.444263 3
-0.25094 -2.27271 -0.357064 50
-0.659763 -2.24381 -0.616881 4
-0.247987 -2.26723 -0.517728 47
-0.628801 -5.58007 1.08378 18
-0.651527 -2.18896 0.196754 4
-0.64437 -5.6482 0.692755 27
-0.659273 -2.21351 0.0397042 4
-0.263316 -2.26884 0.117887 41
-0.66568 -2.23214 -0.120642 3
-0.264982 -2.27644 -0.0393988 90
-0.66958 -2.24235 -0.282639 11
-0.265475 -2.28065 -0.197449 64
-0.668039 -2.23439 -0.445691 47
-0.263394 -2.27627 -0.357847 50
-0.672892 -2.24495 -0.618175 64
-0.260127 -2.26832 -0.51829 47
-0.643951 -5.61787 1.0914 21
-0.657495 -2.19497 0.197408 3
-0.649691 -5.60763 0.687887 29
-0.669997 -2.23379 0.0400969 11
-0.26785 -2.27334 0.118148 41
-0.672451 -2.24053 -0.121167 33
-0.268666 -2.27349 -0.0393552 90
-0.67707 -2.25306 -0.28416 53
-0.268881 -2.27524 -0.197014 61
-0.674772 -2.24262 -0.447596 53
-0.267366 -2.2758 -0.357847 50
-0.682095 -2.25983 -0.622701 64
-0.264086 -2.26786 -0.51829 47
-0.671616 -5.5998 1.08854 24
-0.671548 -2.19853 0.198061 4
-0.680912 -5.61142 0.6888 29
-0.68388 -2.23742 0.0402278 52
-0.280146 -2.27185 0.118148 39
-0.683441 -2.2346 -0.121036 53
-0.281265 -2.27449 -0.0393988 90
-0.690708 -2.25411 -0.284769 56
-0.28109 -2.27627 -0.197231 61
-0.689781 -2.24832 -0.449501 53
-0.278983 -2.27192 -0.357455 49
-0.693918 -2.25623 -0.622701 64
-0.276352 -2.2664 -0.51829 45
-0.679622 -5.584 1.08568 23
-0.676117 -2.19973 0.198279 4
-0.68732 -5.59064 0.686366 29
-0.692201 -2.25055 0.0404896 55
-0.283105 -2.26646 0.117887 35
-0.694698 -2.25726 -0.122349 55
-0.284928 -2.27151 -0.0393552 86
-0.695712 -2.25776 -0.285377 56
-0.285671 -2.28072 -0.197666 61
-0.69588 -2.25414 -0.450929 53
-0.282948 -2.27143 -0.357455 49
-0.699286 -2.25963 -0.623994 70
-0.279912 -2.26596 -0.51829 45
-0.696137 -5.56518 1.49144 15
-1.76192 -5.62009 0.925222 20
-0.706343 -5.56831 1.0833 20
-0.689478 -2.20341 0.198933 3
-0.718778 -5.60419 0.688496 21
-0.702835 -2.24464 0.0404459 52
-0.295286 -2.26742 0.118018 32
-0.706507 -2.25359 -0.122349 55
-0.29674 -2.27252 -0.0393988 85
-0.708268 -2.25646 -0.285682 56
-0.296975 -2.27425 -0.197231 59
-0.706543 -2.24825 -0.450453 55
-0.295463 -2.27482 -0.358238 49
-0.710713 -2.25606 -0.623994 64
-0.291773 -2.26447 -0.51829 45
-1.68365 -5.33481 1.28141 1
-0.705547 -5.56156 1.49079 15
-1.68921 -5.35562 0.881907 1
-0.719523 -5.58642 1.08711 14
-0.693323 -2.20221 0.198933 3
-0.733008 -5.63739 0.692755 21
-0.710908 -2.2552 0.0406641 55
-0.299243 -2.2669 0.118018 29
-0.711192 -2.25473 -0.12248 55
-0.300706 -2.272 -0.0393988 80
-0.712954 -2.25758 -0.285986 56
-0.301265 -2.2762 -0.197449 58
-0.71269 -2.25403 -0.451881 61
-0.299433 -2.2743 -0.358238 49
-0.715775 -2.25699 -0.624641 61
-0.296345 -2.26879 -0.519413 45
-1.72443 -5.36272 1.29039 1
-0.73972 -5.58879 1.49919 14
-1.73026 -5.38401 0.88815 1
-0.75395 -5.6215 1.09474 15
-0.704465 -2.19605 0.198715 3
-0.767804 -5.66531 0.69671 29
-0.721941 -2.24907 0.0406205 55
-0.311503 -2.26525 0.118018 23
-0.726047 -2.26048 -0.123005 53
-0.313666 -2.27529 -0.0394861 76
-0.725158 -2.25369 -0.285986 55
-0.313514 -2.27706 -0.197666 58
-0.726382 -2.25482 -0.452834 53
-0.311733 -2.27265 -0.358238 49
-0.728326 -2.25551 -0.625287 61
-0.308616 -2.26715 -0.519413 45
-1.74035 -5.38319 1.29601 1
-0.754577 -5.62579 1.50953 14
-1.73813 -5.37629 0.88737 1
-0.769343 -5.66152 1.10284 20
-0.710596 -2.20193 0.199369 4
-0.779704 -5.67871 0.698536 35
-0.729713 -2.2597 0.0408386 90
-0.314439 -2.25728 0.117625 20
-0.729222 -2.25684 -0.122874 58
-0.317637 -2.27474 -0.0394861 74
-0.730622 -2.25715 -0.286594 55
-0.317826 -2.27898 -0.197884 58
-0.729559 -2.25121 -0.452358 53
-0.3157 -2.2721 -0.358238 49
-0.733756 -2.25883 -0.626581 59
-0.311917 -2.26178 -0.51829 45
-1.85562 -5.63514 1.35946 24
-0.787339 -5.64569 1.516 15
-1.85278 -5.6298 0.931075 24
-0.801364 -5.67442 1.10617 24
-0.719779 -2.19108 0.198715 3
-0.80873 -5.66964 0.697927 30
-0.740752 -2.25347 0.040795 55
-0.326958 -2.26055 0.117887 17
-0.741029 -2.25299 -0.122874 52
-0.32919 -2.27057 -0.0394424 68
-0.741652 -2.25093 -0.28629 55
-0.329755 -2.27728 -0.197884 55
-0.742106 -2.24969 -0.452834 55
-0.327543 -2.27292 -0.35863 49
-0.745574 -2.25496 -0.626581 61
-0.323756 -2.26011 -0.51829 45
-1.85757 -5.61141 1.3544 15
-0.798869 -5.65626 1.51923 15
-1.77546 -5.36667 0.88776 1
-0.81023 -5.66573 1.10475 21
-0.725951 -2.19691 0.199369 3
-0.814465 -5.64625 0.695189 27
-0.744684 -2.25217 0.040795 55
-0.330152 -2.25756 0.117756 15
-0.747317 -2.2588 -0.123268 53
-0.333868 -2.27494 -0.0395297 67
-0.745187 -2.24977 -0.28629 59
-0.334085 -2.27917 -0.198101 55
-0.745257 -2.24606 -0.452358 53
-0.33186 -2.27478 -0.359021 47
-0.749508 -2.25365 -0.626581 61
-0.328338 -2.26684 -0.519974 45
-1.88381 -5.59237 1.35216 15
-0.826793 -5.64737 1.51793 15
-1.80039 -5.34794 0.886199 1
-0.837108 -5.64941 1.10236 18
-0.736266 -2.19085 0.199151 3
-0.842557 -5.63209 0.693972 27
-0.755276 -2.24601 0.0407514 55
-0.342706 -2.26074 0.118018 15
-0.758336 -2.25249 -0.123137 53
-0.345008 -2.27075 -0.0394861 67
-0.75775 -2.24818 -0.286594 56
-0.346383 -2.27985 -0.198319 55
-0.756616 -2.24226 -0.452358 53
-0.344131 -2.27546 -0.359413 47
-0.76168 -2.25212 -0.627227 61
-0.340916 -2.26991 -0.521097 45
-1.89201 -5.58446 1.35103 15
-0.83348 -5.62441 1.51212 14
-1.80972 -5.34479 0.886199 1
-0.844692 -5.62595 1.09807 18
-0.743285 -2.199 0.200022 3
-0.849431 -5.61098 0.691538 26
-0.761994 -2.25166 0.0408823 55
-0.345905 -2.2552 0.117756 14
-0.76387 -2.25589 -0.123399 53
-0.348596 -2.26768 -0.0394424 61
-0.764067 -2.25391 -0.287507 58
-0.349988 -2.27678 -0.198101 53
-0.764479 -2.25256 -0.454738 53
-0.347733 -2.27241 -0.359021 49
-0.766003 -2.25065 -0.627227 61
-0.344155 -2.26449 -0.519974 45
-1.91425 -5.55111 1.34542 15
-0.862074 -5.60788 1.50889 15
-0.872638 -5.61175 1.09617 18
-0.755983 -2.1973 0.20024 3
-0.879011 -5.6014 0.69093 27
-0.772959 -2.24527 0.0408386 55
-0.358875 -2.25823 0.118018 14
-0.774042 -2.24714 -0.123137 53
-0.362024 -2.27316 -0.0395733 62
-0.774629 -2.24505 -0.286899 64
-0.363063 -2.2823 -0.198754 53
-0.774247 -2.24143 -0.45331 53
-0.360008 -2.273 -0.359413 47
-0.779359 -2.25117 -0.628521 61
-0.356776 -2.265 -0.520536 45
-1.92456 -5.5527 1.34654 15
-0.868539 -5.58489 1.50307 14
-0.878259 -5.58355 1.09092 18
-0.761448 -2.20068 0.200676 3
-0.887036 -5.59511 0.690321 21
-0.779334 -2.251 0.0409695 55
-0.362422 -2.25766 0.118018 12
-0.781238 -2.25522 -0.123662 53
-0.365206 -2.26759 -0.0394861 59
-0.781412 -2.2532 -0.288116 58
-0.365093 -2.26936 -0.197666 52
-0.781385 -2.24935 -0.455215 53
-0.363974 -2.27237 -0.359413 45
-0.784082 -2.25209 -0.629167 62
-0.359578 -2.25963 -0.519413 45
-1.95685 -5.55174 1.34879 15
-0.895652 -5.57327 1.50113 14
-1.96027 -5.56449 0.926783 17
-0.906117 -5.57661 1.09045 15
-0.770922 -2.1921 0.20024 3
-0.923507 -5.63447 0.695797 24
-0.788224 -2.23996 0.0408386 53
-0.375045 -2.26066 0.118279 12
-0.791812 -2.24888 -0.12353 53
-0.378298 -2.27558 -0.0396606 59
-0.789893 -2.23972 -0.286899 90
-0.377784 -2.27486 -0.198319 52
-0.791123 -2.24073 -0.454262 53
-0.376664 -2.27531 -0.360196 47
-0.795471 -2.24809 -0.629167 64
-0.372966 -2.26733 -0.521659 45
-1.98103 -5.59228 1.35946 15
-0.905378 -5.5717 1.50113 14
-1.98565 -5.60528 0.934197 17
-0.921785 -5.61135 1.0976 15
-0.77641 -2.19545 0.200676 3
-0.936972 -5.65489 0.698536 26
-0.794638 -2.24565 0.0409695 53
-0.377766 -2.25261 0.117887 11
-0.797405 -2.2522 -0.123793 53
-0.38186 -2.27245 -0.039617 58
-0.797954 -2.25003 -0.28842 58
-0.381753 -2.2742 -0.198319 50
-0.798322 -2.2486 -0.456167 53
-0.37983 -2.26977 -0.359413 45
-0.801015 -2.25125 -0.630461 62
-0.376133 -2.26187 -0.520536 45
-2.01952 -5.6044 1.36507 15
-0.93971 -5.59785 1.50953 14
-2.02418 -5.62036 0.938489 23
-0.959321 -5.65484 1.10713 17
-0.789583 -2.19604 0.201112 3
-0.972813 -5.6866 0.703099 27
-0.805537 -2.2391 0.0409259 53
-0.389135 -2.24814 0.117756 11
-0.810033 -2.25035 -0.123924 53
-0.394175 -2.27288 -0.0396606 55
-0.809724 -2.24582 -0.28842 56
-0.394496 -2.27708 -0.198754 50
-0.80925 -2.24208 -0.455691 53
-0.39337 -2.27749 -0.360979 45
-0.811969 -2.24475 -0.629814 59
-0.389193 -2.26707 -0.52222 45
-2.04659 -5.65161 1.37743 23
-0.955105 -5.62954 1.51858 14
-2.04661 -5.65164 0.944343 32
-0.974141 -5.68219 1.11285 20
-0.795111 -2.19934 0.201548 2
-0.987785 -5.71424 0.70675 33
-0.811999 -2.24474 0.0410568 53
-0.392633 -2.245 0.117625 11
-0.817364 -2.25832 -0.124449 56
-0.397715 -2.26973 -0.039617 55
-0.815337 -2.24907 -0.289028 53
-0.397621 -2.27148 -0.198319 49
-0.814839 -2.24528 -0.456643 53
-0.396086 -2.2695 -0.359804 45
-0.818366 -2.25014 -0.631754 61
-0.392737 -2.26399 -0.521659 45
-2.07124 -5.62445 1.3735 20
-0.99037 -5.65777 1.52763 15
-2.0702 -5.62463 0.941611 26
-1.00771 -5.69877 1.11714 27
-0.808336 -2.19982 0.201983 2
-1.01596 -5.69921 0.705533 24
-0.822013 -2.23577 0.0409695 53
-0.405258 -2.24783 0.117887 9
-0.826979 -2.24684 -0.124055 52
-0.410472 -2.27254 -0.0397042 53
-0.827102 -2.24477 -0.289028 55
-0.411655 -2.2791 -0.199188 49
-0.827435 -2.24328 -0.457119 53
-0.408828 -2.27226 -0.360587 45
-0.829298 -2.24356 -0.631107 61
-0.40501 -2.2643 -0.52222 45
-2.08105 -5.62083 1.3735 17
-1.00527 -5.68457 1.53538 20
-2.07658 -5.61174 0.94005 24
-1.01392 -5.67024 1.11189 18
-0.813903 -2.20308 0.202419 3
-1.0154 -5.63881 0.698231 15
-0.831515 -2.24825 0.0412313 49
-0.408297 -2.2422 0.117625 9
-0.833503 -2.25241 -0.124449 52
-0.413551 -2.2669 -0.039617 53
-0.831882 -2.24565 -0.289333 55
-0.414307 -2.27102 -0.198536 49
-0.833058 -2.24644 -0.458072 55
-0.412356 -2.26911 -0.360196 45
-0.837818 -2.25328 -0.63434 61
-0.408961 -2.26359 -0.52222 45
-2.10542 -5.59353 1.36957 15
-1.03256 -5.66004 1.53021 15
-2.1017 -5.58656 0.937709 23
-1.03518 -5.61899 1.10284 15
-0.825811 -2.19864 0.202419 3
-1.04138 -5.60884 0.695189 17
-0.843275 -2.24387 0.0412313 53
-0.422244 -2.24978 0.118148 8
-0.845285 -2.24802 -0.124449 52
-0.426267 -2.26708 -0.0396606 52
-0.847524 -2.2504 -0.290549 53
-0.426192 -2.26882 -0.198536 49
-0.846068 -2.24419 -0.458548 55
-0.424681 -2.26935 -0.360587 45
-0.84875 -2.2466 -0.633694 85
-0.420762 -2.25895 -0.521659 45
-2.10817 -5.57427 1.36563 15
-1.03721 -5.62972 1.52246 14
-2.10261 -5.56247 0.934197 23
-1.03784 -5.57857 1.09521 15
-0.833172 -2.20652 0.203291 3
-1.04837 -5.59744 0.693972 18
-0.848075 -2.24473 0.0412749 53
-0.424399 -2.24175 0.117756 4
-0.851859 -2.25354 -0.124843 52
-0.430223 -2.26634 -0.0396606 50
-0.850178 -2.24675 -0.290245 53
-0.431528 -2.27542 -0.199188 49
-0.849983 -2.24271 -0.458548 53
-0.428641 -2.2686 -0.360587 45
-0.855246 -2.25189 -0.635633 67
-0.425199 -2.26308 -0.522782 45
-2.12946 -5.54269 1.36058 15
-1.05808 -5.58406 1.51147 14
-2.1255 -5.53524 0.931465 21
-1.06239 -5.55396 1.0914 15
-0.844329 -2.20227 0.203291 3
-1.0945 -5.6796 0.704925 18
-0.860322 -2.24274 0.0413186 52
-0.437548 -2.24686 0.118148 3
-0.863647 -2.24905 -0.124843 52
-0.443109 -2.27149 -0.0397915 49
-0.863713 -2.2469 -0.290854 53
-0.442965 -2.27068 -0.198971 47
-0.863972 -2.24525 -0.459976 53
-0.440979 -2.26875 -0.360979 45
-0.864022 -2.24077 -0.633694 85
-0.437042 -2.26082 -0.522782 45
-2.13474 -5.5276 1.35777 15
-1.0624 -5.55373 1.50372 14
-2.13071 -5.52001 0.929514 24
-1.07861 -5.58082 1.09712 15
-0.846378 -2.19615 0.202855 3
-1.09639 -5.63627 0.699753 17
-0.865527 -2.24342 0.0413622 52
-0.441945 -2.24854 0.118279 3
-0.869372 -2.2522 -0.125106 52
-0.44755 -2.27317 -0.0398351 50
-0.869425 -2.25002 -0.291462 53
-0.447879 -2.2748 -0.199406 47
-0.870549 -2.2506 -0.461405 53
-0.445409 -2.2704 -0.36137 45
-0.873569 -2.25261 -0.637573 71
-0.440526 -2.25766 -0.52222 45
-2.16461 -5.51597 1.35777 14
-1.09197 -5.54553 1.50307 14
-2.16776 -5.52679 0.932636 15
-1.11163 -5.59436 1.10093 15
-0.862795 -2.20313 0.203944 3
-1.12008 -5.59618 0.695493 17
-0.878175 -2.24118 0.0414058 50
-0.453614 -2.24367 0.118148 2
-0.881152 -2.24761 -0.125106 50
-0.459352 -2.26827 -0.0397915 49
-0.882494 -2.24759 -0.291766 53
-0.459295 -2.26998 -0.199188 45
-0.880915 -2.24129 -0.460452 52
-0.456324 -2.2632 -0.360587 45
-0.884466 -2.24576 -0.636927 59
-0.453684 -2.26002 -0.523343 45
-2.19384 -5.56468 1.37069 15
-1.10868 -5.57916 1.51277 14
-2.22083 -5.63594 0.951757 26
-1.11563 -5.56353 1.09521 14
-0.863898 -2.19467 0.203291 3
-0.883003 -2.24197 0.0414495 50
-0.457138 -2.24295 0.118148 3
-0.885074 -2.24607 -0.125106 50
-0.462319 -2.26256 -0.0397042 49
-0.887847 -2.25082 -0.292375 53
-0.463256 -2.26917 -0.199188 45
-0.887535 -2.2466 -0.461881 52
-0.461248 -2.26724 -0.36137 44
-0.890165 -2.24871 -0.63822 62
-0.456277 -2.25453 -0.52222 44
-2.25012 -5.62096 1.38753 20
-1.13258 -5.55217 1.50695 14
-2.25031 -5.62424 0.951757 27
-1.15363 -5.6059 1.10475 9
-0.875921 -2.19258 0.203509 3
-0.896197 -2.24211 0.0415367 52
-0.470901 -2.25031 0.118672 2
-0.899216 -2.24852 -0.125499 50
-0.475288 -2.26753 -0.0398351 49
-0.897773 -2.24153 -0.291766 53
-0.475241 -2.26924 -0.199406 45
-0.89798 -2.2398 -0.461405 52
-0.472113 -2.25995 -0.360587 42
-0.905141 -2.25313 -0.640806 61
-0.469057 -2.25688 -0.523343 45
-2.25258 -5.6016 1.3836 17
-2.25459 -5.60655 0.949416 27
-1.2121 -5.8394 1.15145 2
-0.885322 -2.20491 0.204816 3
-0.901976 -2.24518 0.041624 52
-0.473807 -2.24459 0.11841 2
-0.903139 -2.24694 -0.125499 50
-0.479245 -2.2667 -0.0398351 49
-0.907251 -2.25377 -0.293592 53
-0.48022 -2.27328 -0.199841 45
-0.904644 -2.24506 -0.462833 52
-0.478073 -2.2688 -0.362153 44
-0.906356 -2.24483 -0.638867 59
-0.47349 -2.25845 -0.523905 45
-2.27825 -5.57806 1.3808 15
-1.225 -5.79937 1.57674 8
-2.27457 -5.57181 0.945513 24
-1.23756 -5.80897 1.14669 9
-0.897796 -2.20255 0.205034 3
-0.914664 -2.24275 0.0416676 52
-0.48817 -2.25429 0.119064 2
-0.916228 -2.24434 -0.125631 50
-0.491107 -2.26416 -0.0398351 47
-0.916219 -2.2421 -0.292679 53
-0.491467 -2.26578 -0.199406 44
-0.917317 -2.24256 -0.463309 52
-0.489429 -2.26385 -0.361762 44
-0.920849 -2.24676 -0.640806 61
-0.485308 -2.25594 -0.523905 45
-2.27872 -5.55154 1.37518 17
-1.23312 -5.78777 1.57415 26
-2.27961 -5.55641 0.943562 26
-1.23586 -5.74659 1.13477 14
-0.905421 -2.2102 0.205905 2
-0.919918 -2.2433 0.0417112 53
-0.489993 -2.24367 0.118541 2
-0.922041 -2.24735 -0.125893 50
-0.495587 -2.26574 -0.0398787 47
-0.923907 -2.24967 -0.293896 52
-0.496475 -2.26978 -0.199841 44
-0.923098 -2.2455 -0.464262 52
-0.494422 -2.26782 -0.362545 44
-0.927925 -2.25168 -0.642746 59
-0.489245 -2.25509 -0.523905 45
-2.30591 -5.53238 1.3735 18
-1.25413 -5.73382 1.56123 12
-2.30298 -5.52804 0.940831 26
-1.2554 -5.6921 1.12524 24
-0.918324 -2.20756 0.206123 2
-0.931651 -2.23845 0.0417112 53
-0.503207 -2.24586 0.118803 3
-0.932835 -2.24019 -0.125762 50
-0.508923 -2.26791 -0.039966 47
-0.937022 -2.24693 -0.2942 53
-0.506193 -2.25743 -0.198971 44
-0.935234 -2.24047 -0.464262 52
-0.505222 -2.26037 -0.361762 41
-0.938768 -2.24457 -0.6421 59
-0.500915 -2.25003 -0.523343 39
-2.30989 -5.51752 1.37069 18
-1.25481 -5.68917 1.5496 21
-2.3069 -5.51303 0.938879 26
-0.926023 -2.21515 0.206995 3
-0.938454 -2.24374 0.0418421 52
-0.505645 -2.2402 0.118541 3
-0.939638 -2.24546 -0.126156 50
-0.509055 -2.24994 -0.0396606 36
-0.93959 -2.24317 -0.293896 52
-0.510132 -2.25654 -0.198971 18
-0.939143 -2.23883 -0.464262 52
-0.507553 -2.25226 -0.360587 11
-0.945496 -2.2496 -0.64404 67
-0.501808 -2.23735 -0.520536 3
-2.33971 -5.50759 1.37125 14
-2.34056 -5.51224 0.940831 15
-0.93917 -2.21502 0.207431 3
-0.950776 -2.24126 0.0418858 52
-0.517925 -2.23995 0.118672 3
-0.954314 -2.24741 -0.12655 50
-0.520995 -2.24977 -0.0397042 36
-0.953266 -2.24279 -0.294505 52
-0.520827 -2.24899 -0.198536 18
-0.951425 -2.23631 -0.464738 52
-0.518788 -2.24716 -0.360196 11
-0.954973 -2.24035 -0.642746 59
-0.514597 -2.23944 -0.521659 3
-2.37898 -5.57295 1.38866 14
-2.39381 -5.61034 0.958391 27
-0.945967 -2.22025 0.208084 3
-0.957041 -2.24403 0.041973 52
-0.523518 -2.24634 0.119064 4
-0.956273 -2.24115 -0.126287 50
-0.522668 -2.23912 -0.0395297 9
-0.958155 -2.2434 -0.294809 52
-0.521946 -2.23594 -0.197449 9
-0.957258 -2.23916 -0.46569 52
-0.5216 -2.24144 -0.359413 8
-0.96213 -2.24517 -0.644686 59
-0.517415 -2.23379 -0.520536 9
-2.43235 -5.61364 1.40213 20
-2.42413 -5.59731 0.958391 27
-0.957965 -2.2151 0.208084 3
-0.533228 -2.24008 0.278076 2
-0.968777 -2.23899 0.041973 52
-0.53394 -2.23619 0.118672 11
-0.970973 -2.24298 -0.126681 50
-0.534775 -2.23626 -0.0395297 12
-0.973244 -2.24501 -0.295722 53
-0.533072 -2.23075 -0.197231 9
-0.971316 -2.23845 -0.466643 52
-0.531628 -2.23147 -0.358238 9
-0.975801 -2.24453 -0.645979 58
-0.529493 -2.23096 -0.520536 8
-2.43728 -5.60087 1.39989 17
-2.42996 -5.5867 0.95722 26
-0.962824 -2.2157 0.208302 3
-0.536172 -2.23683 0.277771 9
-0.97468 -2.24187 0.0420603 52
-0.537452 -2.23535 0.118672 12
-0.975884 -2.24357 -0.126812 50
-0.538097 -2.23289 -0.0394861 11
-0.976769 -2.24348 -0.295722 53
-0.536965 -2.22982 -0.197231 11
-0.978168 -2.2435 -0.468071 50
-0.535521 -2.23054 -0.358238 9
-0.978749 -2.24061 -0.645333 59
-0.534681 -2.23723 -0.52222 8
-2.46362 -5.58135 1.3982 15
-2.45419 -5.56261 0.955269 24
-0.977043 -2.21764 0.208956 3
-0.546705 -2.22916 0.277163 8
-0.987024 -2.2392 0.0421039 52
-0.547966 -2.22765 0.11841 11
-0.988236 -2.24089 -0.126944 50
-0.549392 -2.23014 -0.0394861 12
-0.989506 -2.2406 -0.296026 52
-0.550015 -2.23433 -0.197884 11
-0.988517 -2.23627 -0.467595 52
-0.546609 -2.22531 -0.357847 9
-0.992035 -2.24004 -0.646626 59
-0.544667 -2.2273 -0.520536 8
-2.46646 -5.56411 1.39483 15
-2.46089 -5.55154 0.954098 23
-0.980912 -2.21593 0.208956 3
-0.551185 -2.23062 0.277467 8
-0.991944 -2.23976 0.0421476 52
-0.553044 -2.23154 0.118672 11
-0.99417 -2.24372 -0.127206 50
-0.55388 -2.2316 -0.0395297 12
-0.995431 -2.24341 -0.296634 52
-0.555102 -2.2382 -0.198319 11
-0.994413 -2.23903 -0.468547 50
-0.55108 -2.22675 -0.358238 9
-0.997909 -2.24272 -0.647919 59
-0.550864 -2.23581 -0.522782 8
-2.48953 -5.53514 1.3909 15
-2.48182 -5.52057 0.950976 18
-0.991479 -2.20849 0.208738 3
-0.561651 -2.22289 0.276859 9
-1.00673 -2.24137 0.0422784 52
-0.563505 -2.22377 0.11841 11
-1.00835 -2.24286 -0.127469 49
-0.562508 -2.21655 -0.0393115 12
-1.00818 -2.24043 -0.296939 52
-0.565381 -2.22792 -0.197666 11
-1.00814 -2.23826 -0.469499 52
-0.562732 -2.22383 -0.358238 8
-1.00864 -2.23526 -0.647273 59
-0.562563 -2.2329 -0.522782 4
-2.49617 -5.52412 1.38922 15
-2.49654 -5.52748 0.952928 26
-1.00148 -2.22037 0.210045 3
-0.564923 -2.2195 0.276554 9
-1.01001 -2.23716 0.0422348 47
-0.56861 -2.22762 0.118672 11
-1.01329 -2.24337 -0.1276 50
-0.568832 -2.22526 -0.0394861 12
-1.01312 -2.24093 -0.297243 53
-0.570493 -2.23176 -0.198101 11
-1.01509 -2.24321 -0.470928 53
-0.569637 -2.23482 -0.360196 8
-1.01693 -2.24211 -0.649859 58
-0.564677 -2.22482 -0.521097 4
-2.52602 -5.51054 1.38922 15
-2.53053 -5.52287 0.954488 21
-1.01245 -2.21266 0.209827 3
-0.578163 -2.22121 0.277163 8
-1.02483 -2.23866 0.0423657 50
-0.580029 -2.2221 0.118541 9
-1.02814 -2.24485 -0.127994 49
-0.581491 -2.22457 -0.0395297 11
-1.02523 -2.23541 -0.297243 52
-0.58217 -2.22874 -0.198101 9
-1.02516 -2.23322 -0.469976 50
-0.579249 -2.22214 -0.35863 8
-1.02865 -2.23676 -0.649859 59
-0.577313 -2.2241 -0.521659 4
-2.54589 -5.5309 1.3954 14
-2.58562 -5.61713 0.971658 26
-1.02151 -2.2222 0.210917 3
-0.583288 -2.225 0.277771 8
-1.02978 -2.23913 0.0424093 52
-0.585795 -2.22833 0.118933 9
-1.03101 -2.24078 -0.127862 50
-0.586004 -2.22597 -0.0395733 11
-1.03224 -2.24038 -0.298155 52
-0.586059 -2.22772 -0.198101 9
-1.03111 -2.23589 -0.470928 50
-0.586858 -2.23546 -0.360979 4
-1.0356 -2.24153 -0.651799 58
-0.579971 -2.21837 -0.520536 3
-2.6181 -5.6102 1.41898 15
-2.6161 -5.60845 0.972439 26
-1.03169 -2.21474 0.210699 3
-0.597724 -2.23402 0.279293 4
-1.04216 -2.23616 0.042453 52
-0.59835 -2.23016 0.119195 8
-1.04485 -2.23987 -0.128125 50
-0.597907 -2.22539 -0.039617 11
-1.04777 -2.24412 -0.299372 52
-0.597715 -2.22463 -0.198101 8
-1.04346 -2.23286 -0.471404 50
-0.596263 -2.2253 -0.359804 4
-1.04796 -2.23845 -0.652446 58
-0.593685 -2.22483 -0.522782 2
-2.61651 -5.58137 1.4128 14
-2.6154 -5.58151 0.968537 18
-1.04084 -2.22422 0.211788 3
-0.59906 -2.22338 0.278076 4
-1.04963 -2.24094 0.0425839 50
-0.602242 -2.22911 0.119195 9
-1.04981 -2.24031 -0.128256 52
-0.601142 -2.22193 -0.0395733 9
-1.05063 -2.24004 -0.299068 50
-0.601597 -2.22358 -0.198101 3
-1.05048 -2.2377 -0.472833 50
-0.59887 -2.21949 -0.359021 4
-1.05637 -2.24517 -0.655032 58
-0.595685 -2.21672 -0.521097 2
-2.63097 -5.53413 1.40438 14
-2.62118 -5.51599 0.959561 15
-1.05072 -2.21405 0.211353 3
-0.612388 -2.22489 0.278684 3
-1.06243 -2.23767 0.0426275 50
-0.610997 -2.21378 0.118541 12
-1.06475 -2.24154 -0.12865 50
-0.613155 -2.21864 -0.0395733 4
-1.06381 -2.23656 -0.299372 50
-0.611257 -2.21319 -0.197449 4
-1.06469 -2.23641 -0.473785 52
-0.609567 -2.21145 -0.358238 4
-1.06811 -2.23961 -0.655032 56
-0.60639 -2.20877 -0.519974 4
-2.63651 -5.52339 1.4027 14
-2.62654 -5.50249 0.958 17
-1.06102 -2.2257 0.21266 3
-0.613639 -2.21425 0.277467 3
-1.06741 -2.23807 0.0426711 52
-0.615524 -2.21512 0.118672 9
-1.06651 -2.23518 -0.128388 50
-0.611706 -2.19829 -0.0392243 11
-1.06771 -2.2347 -0.299372 52
-0.61247 -2.20252 -0.196579 11
-1.06965 -2.23677 -0.474261 52
-0.610149 -2.19848 -0.356281 9
-1.07411 -2.2421 -0.656326 56
-0.610244 -2.20771 -0.519974 4
-2.65893 -5.4937 1.39876 14
-2.6607 -5.49978 0.959952 21
-1.07266 -2.22012 0.21266 3
-0.623884 -2.20623 0.276859 8
-1.08129 -2.23695 0.0427584 52
-0.623058 -2.19745 0.117887 11
-1.08363 -2.2408 -0.129044 52
-0.621852 -2.19025 -0.039137 9
-1.08373 -2.23801 -0.300589 53
-0.623994 -2.19928 -0.196579 9
-1.08456 -2.23776 -0.47569 50
-0.621936 -2.19774 -0.356672 8
-1.08794 -2.24079 -0.657619 55
-0.621139 -2.20213 -0.519413 4
-2.66649 -5.48733 1.3982 15
-2.67473 -5.5067 0.961903 23
-1.07871 -2.22272 0.213096 3
-0.623979 -2.19331 0.275337 9
-1.08847 -2.2418 0.0428893 52
-0.624469 -2.18926 0.117494 9
-1.08645 -2.23666 -0.128913 50
-0.625674 -2.18916 -0.039137 9
-1.08833 -2.23854 -0.300894 53
-0.628511 -2.20059 -0.196796 9
-1.08739 -2.23366 -0.475213 50
-0.627114 -2.20141 -0.357455 8
-1.09503 -2.24539 -0.659559 55
-0.625917 -2.20585 -0.520536 4
-2.70487 -5.49296 1.40326 15
-2.69916 -5.48375 0.960342 26
-1.09325 -2.22393 0.213749 3
-1.10091 -2.23851 0.0429329 50
-0.635924 -2.18596 0.117494 9
-1.09886 -2.23337 -0.129044 49
-0.63744 -2.18837 -0.0391806 9
-1.10113 -2.23503 -0.301198 52
-0.638259 -2.19259 -0.196362 9
-1.10411 -2.23913 -0.477594 50
-0.638632 -2.19809 -0.357455 8
-1.10745 -2.24199 -0.660205 56
-0.638803 -2.20722 -0.521659 4
-2.70918 -5.47997 1.40101 14
-2.71201 -5.48568 0.961513 23
-1.09713 -2.22202 0.213749 4
-1.10371 -2.23434 0.0428893 52
-0.642524 -2.19444 0.118018 9
-1.10608 -2.23816 -0.129438 50
-0.644051 -2.19685 -0.0393552 9
-1.10723 -2.23755 -0.301806 52
-0.653904 -2.23213 -0.200058 8
-1.10475 -2.2306 -0.476166 50
-0.652788 -2.23255 -0.363328 4
-1.11244 -2.24221 -0.660852 56
-0.648066 -2.22483 -0.526151 8
-2.75626 -5.50007 1.40999 15
-2.7584 -5.50672 0.967756 23
-1.11433 -2.22738 0.214839 4
-1.11987 -2.23747 0.0430638 52
-0.663223 -2.22216 0.119718 8
-1.12041 -2.23661 -0.1297 52
-1.12116 -2.23616 -0.302415 52
-0.668804 -2.23811 -0.200928 14
-1.12192 -2.23575 -0.478547 50
-0.663768 -2.22673 -0.362936 15
-1.12416 -2.23636 -0.660852 56
-0.66246 -2.23075 -0.528397 27
-2.77352 -5.51048 1.41393 14
-2.77578 -5.51734 0.970488 20
-1.11933 -2.22766 0.215057 4
-1.12529 -2.23755 0.0431074 52
-0.668527 -2.22578 0.11998 15
-1.12319 -2.23242 -0.129569 50
-1.12618 -2.23642 -0.302719 52
-0.678408 -2.25603 -0.202668 52
-1.12472 -2.2316 -0.47807 50
-0.678222 -2.26107 -0.368809 52
-1.13173 -2.24066 -0.662792 56
-0.670509 -2.2436 -0.531766 50
-2.85646 -5.59955 1.44088 18
-2.85946 -5.60782 0.989218 27
-1.13589 -2.23044 0.215928 4
-1.13926 -2.23608 0.0431947 52
-0.691452 -2.25796 0.121943 49
-1.14054 -2.23762 -0.130225 50
-0.692333 -2.25805 -0.0406205 52
-1.14052 -2.23471 -0.303328 52
-0.693835 -2.26436 -0.203755 52
-1.14013 -2.23203 -0.479499 50
-0.689335 -2.25512 -0.368418 52
-1.14564 -2.239 -0.664085 56
-0.684049 -2.24461 -0.532889 50
-2.85969 -5.58421 1.43807 17
-2.86038 -5.58794 0.986487 24
-1.13751 -2.22402 0.215493 4
-1.14316 -2.23409 0.0431947 52
-0.694998 -2.25688 0.121943 47
-1.14444 -2.23563 -0.130225 49
-0.695541 -2.25445 -0.0405768 53
-1.14516 -2.23512 -0.303632 52
-0.697786 -2.26315 -0.203755 52
-1.14514 -2.23222 -0.479975 50
-0.693991 -2.25627 -0.368809 56
-1.15066 -2.23915 -0.664732 55
-0.69041 -2.25285 -0.535136 50
-2.87655 -5.54538 1.43189 15
-2.87482 -5.54439 0.981414 20
-1.1522 -2.22487 0.216146 4
-1.74507 -5.6004 0.714965 20
-1.1556 -2.23049 0.0432383 52
-0.70829 -2.25797 0.122204 47
-1.15843 -2.23404 -0.130488 49
-0.708431 -2.25567 -0.0406641 52
-1.15914 -2.2335 -0.30424 52
-0.708885 -2.25708 -0.203538 50
-1.15982 -2.23293 -0.481404 50
-0.708729 -2.26204 -0.370375 58
-1.16421 -2.23758 -0.666025 56
-0.702196 -2.24921 -0.535136 50
-2.87947 -5.52739 1.42853 15
-2.8708 -5.51308 0.976731 20
-1.69982 -5.44456 1.10093 1
-1.15953 -2.22948 0.2168 4
-1.77039 -5.64708 0.721354 21
-1.1622 -2.2327 0.0433256 52
-0.713723 -2.2615 0.122466 47
-1.16695 -2.24087 -0.131013 50
-0.713864 -2.2592 -0.0407514 50
-1.16533 -2.23587 -0.304849 50
-0.71506 -2.26297 -0.20419 53
-1.16599 -2.23526 -0.482356 50
-0.711201 -2.25609 -0.369592 52
-1.17186 -2.24176 -0.667965 55
-0.706121 -2.24798 -0.535136 49
-2.89682 -5.48803 1.42235 15
-1.70187 -5.38465 1.50178 1
-2.89136 -5.48 0.973609 20
-1.73349 -5.45196 1.10427 1
-1.17041 -2.22097 0.216582 8
-1.8092 -5.66343 0.7247 27
-1.1762 -2.23101 0.0434129 50
-0.727468 -2.26236 0.122728 47
-1.17867 -2.23473 -0.131013 50
-0.727599 -2.26007 -0.0408386 49
-1.17973 -2.23392 -0.305457 50
-0.728415 -2.26394 -0.204625 64
-1.17922 -2.23108 -0.482832 49
-0.723004 -2.25233 -0.369592 53
-1.18471 -2.23773 -0.668611 55
-0.719749 -2.24877 -0.536259 49
-2.93054 -5.53083 1.4347 11
-1.79738 -5.65332 1.57803 17
-2.99825 -5.66092 1.00678 33
-1.74226 -5.44659 1.10379 1
-1.17662 -2.22333 0.217018 4
-1.81885 -5.66294 0.725005 26
-1.18244 -2.23337 0.0435001 50
-0.73102 -2.26121 0.122728 49
-1.18373 -2.23487 -0.131144 50
-0.730777 -2.25641 -0.040795 49
-1.1844 -2.23426 -0.305761 50
-0.733128 -2.26504 -0.204842 53
-1.18541 -2.23336 -0.483784 49
-0.729196 -2.25812 -0.370767 55
-1.18748 -2.23352 -0.667965 55
-0.724022 -2.24995 -0.53682 49
-3.04703 -5.67853 1.47738 15
-1.80299 -5.5729 1.558 17
-3.04186 -5.67125 1.01146 15
-1.83723 -5.64545 1.14621 20
-1.18903 -2.21954 0.217236 4
-1.8431 -5.63683 0.722875 24
-1.19727 -2.23396 0.043631 50
-0.743626 -2.25973 0.122859 49
-1.1966 -2.23084 -0.131276 50
-0.742966 -2.25506 -0.0408386 50
-1.19608 -2.22803 -0.305761 50
-0.744203 -2.2588 -0.204625 49
-1.20135 -2.23597 -0.485689 49
-0.740243 -2.25192 -0.370375 52
-1.20335 -2.23599 -0.670551 55
-0.736546 -2.24845 -0.537382 55
-3.03382 -5.63032 1.46615 15
-1.83508 -5.63866 1.57739 15
-3.03301 -5.63115 1.00522 15
-1.84654 -5.63725 1.14526 17
-1.19763 -2.22623 0.218107 4
-1.85216 -5.63125 0.722571 23
-1.20156 -2.23166 0.043631 50
-0.747568 -2.25843 0.122859 50
-1.20405 -2.23534 -0.131669 50
-0.746119 -2.25139 -0.040795 49
-1.20468 -2.23467 -0.306978 49
-0.748144 -2.2575 -0.204625 52
-1.20175 -2.22739 -0.484261 50
-0.744172 -2.25063 -0.370375 53
-1.20994 -2.23792 -0.671844 55
-0.739711 -2.24484 -0.53682 49
-3.06657 -5.6181 1.46727 33
-1.86253 -5.61947 1.5748 15
-3.06107 -5.61032 1.00444 38
-1.81022 -5.42955 1.10475 1
-1.20727 -2.21535 0.217671 4
-1.88024 -5.61408 0.721658 21
-1.21323 -2.22534 0.043631 50
-0.758984 -2.25198 0.122728 42
-1.21693 -2.2312 -0.131801 47
-0.762261 -2.25917 -0.0410132 52
-1.21676 -2.22812 -0.306978 49
-0.761536 -2.25827 -0.20506 52
-1.21968 -2.23162 -0.486641 49
-0.759077 -2.25607 -0.371941 61
-1.22281 -2.23367 -0.672491 55
-0.754157 -2.24774 -0.538505 49
-3.0789 -5.61968 1.46896 36
-1.87157 -5.61392 1.57415 15
-3.07581 -5.61634 1.00639 39
-1.87962 -5.6056 1.14144 15
-1.88037 -5.58524 0.718311 20
-1.21951 -2.2276 0.0437183 50
-0.765706 -2.26025 0.123251 47
-1.22202 -2.23126 -0.131932 47
-0.765405 -2.25547 -0.0409695 49
-1.22384 -2.23273 -0.307891 49
-0.766271 -2.2593 -0.205277 53
-1.22357 -2.22949 -0.486641 49
-0.76144 -2.25006 -0.371158 52
-1.23136 -2.24 -0.675078 55
-0.756913 -2.24425 -0.537943 49
-3.10592 -5.59922 1.46783 23
-1.89377 -5.58607 1.56898 15
-3.09679 -5.58504 1.00366 21
-1.84871 -5.42175 1.1057 1
-1.82697 -5.33346 0.686975 1
-1.23441 -2.22796 0.0438492 50
-0.776721 -2.25385 0.12312 47
-1.23733 -2.23138 -0.132326 45
-0.776 -2.2492 -0.0409259 49
-1.23672 -2.22846 -0.308195 47
-0.77809 -2.25526 -0.205277 50
-1.23842 -2.22971 -0.48807 49
-0.774808 -2.25072 -0.371941 50
-1.24503 -2.23795 -0.676371 55
-0.770225 -2.24486 -0.539066 49
-3.12873 -5.6172 1.47401 33
-1.89963 -5.57133 1.56575 15
-3.12336 -5.60983 1.00912 36
-1.90838 -5.56216 1.13525 15
-1.84111 -5.34434 0.6888 1
-1.23869 -2.22558 0.0438492 50
-0.783092 -2.25957 0.123513 47
-1.24243 -2.2314 -0.132457 45
-0.783183 -2.25729 -0.0411004 49
-1.24181 -2.22847 -0.3085 49
-0.785272 -2.26332 -0.206147 50
-1.24351 -2.22968 -0.488546 49
-0.778735 -2.24936 -0.371941 50
-1.24933 -2.23556 -0.676371 55
-0.775722 -2.24812 -0.540189 49
-3.16387 -5.60868 1.47626 33
-1.92817 -5.5564 1.56446 14
-3.1573 -5.5993 1.01029 35
-1.94151 -5.56368 1.13763 15
-1.88474 -5.37647 0.694276 1
-1.25646 -2.22995 0.0440673 49
-0.795306 -2.2553 0.123513 47
-1.25778 -2.23138 -0.132851 45
-0.794557 -2.25066 -0.0410568 49
-1.25752 -2.2282 -0.309412 49
-0.797936 -2.26152 -0.206364 52
-1.25797 -2.22719 -0.489498 49
-0.79171 -2.24744 -0.372333 50
-1.2622 -2.23109 -0.677018 55
-0.788676 -2.24619 -0.540751 49
-3.17748 -5.61218 1.4785 33
-1.93866 -5.55531 1.56511 15
-3.17194 -5.60237 1.01185 35
-1.95527 -5.57186 1.14001 15
-1.90729 -5.41062 0.699144 1
-1.26282 -2.23211 0.0441546 49
-0.800071 -2.25626 0.123644 47
-1.26168 -2.22918 -0.132851 45
-0.800147 -2.25399 -0.041144 49
-1.26263 -2.22816 -0.309717 49
-0.801054 -2.25778 -0.206147 62
-1.26064 -2.22286 -0.489022 49
-0.795631 -2.24606 -0.372333 50
-1.26848 -2.23308 -0.678311 55
-0.792595 -2.24481 -0.540751 49
-3.21386 -5.60547 1.48131 33
-1.97658 -5.57013 1.57222 14
-3.21351 -5.60711 1.01575 33
-1.99923 -5.60317 1.14859 15
-1.93977 -5.41225 0.700665 1
-1.27449 -2.22546 0.0441546 49
-0.812716 -2.2544 0.123775 47
-1.27706 -2.22904 -0.133245 47
-0.812782 -2.25212 -0.0411877 49
-1.27675 -2.22582 -0.310325 49
-0.815385 -2.26059 -0.206799 90
-1.2796 -2.229 -0.491879 49
-0.808652 -2.24665 -0.373116 52
-1.28257 -2.23059 -0.679604 55
-0.805157 -2.24293 -0.541312 49
-3.22874 -5.61097 1.48412 33
-1.99764 -5.59852 1.58126 14
-3.22847 -5.61276 1.0177 33
-2.02554 -5.64588 1.15812 18
-2.03551 -5.65207 0.732306 26
-1.28336 -2.2319 0.0443291 49
-0.818793 -2.26016 0.124167 47
-1.28344 -2.23114 -0.133507 47
-0.816711 -2.2507 -0.0411877 49
-1.28272 -2.22811 -0.310934 49
-0.818485 -2.25682 -0.206582 49
-1.28472 -2.22889 -0.492355 49
-0.813408 -2.24756 -0.373507 52
-1.28767 -2.23044 -0.680251 55
-0.811145 -2.24854 -0.542997 50
-3.2642 -5.60452 1.48692 36
-2.04484 -5.64058 1.59613 15
-3.26279 -5.60431 1.01927 33
-2.06164 -5.65631 1.16241 24
-1.97571 -5.39659 0.700361 1
-1.29464 -2.22538 0.0443291 49
-0.829758 -2.2535 0.124036 47
-1.29887 -2.23086 -0.133901 47
-0.828093 -2.24654 -0.0411877 49
-1.29687 -2.22565 -0.311542 49
-0.830291 -2.2525 -0.206582 52
-1.29846 -2.22659 -0.493308 49
-0.826013 -2.24559 -0.373899 50
-1.3026 -2.23015 -0.682191 55
-0.822073 -2.24197 -0.542435 49
-3.2789 -5.60722 1.48917 33
-2.05798 -5.64608 1.59871 15
-3.27007 -5.59435 1.01849 18
-2.07334 -5.65465 1.16289 21
-1.98513 -5.39313 0.700361 1
-1.30269 -2.22936 0.04446 49
-0.83369 -2.25205 0.124036 42
-1.30529 -2.2329 -0.134164 47
-0.83374 -2.24978 -0.0412749 49
-1.30326 -2.22767 -0.312151 49
-0.835082 -2.25338 -0.206799 49
-1.30358 -2.22644 -0.493784 47
-0.831634 -2.24878 -0.374682 49
-1.30688 -2.22765 -0.682191 53
-0.828499 -2.2474 -0.54412 50
-3.29678 -5.56844 1.48356 4
-2.08766 -5.63259 1.59806 15
-3.2701 -5.52557 1.00912 1
-2.09608 -5.62531 1.15908 18
-2.01254 -5.37766 0.699753 1
-1.31308 -2.22036 0.0444164 47
-0.848486 -2.25452 0.124429 47
-1.31696 -2.22603 -0.134164 47
-0.846777 -2.24758 -0.0413186 49
-1.31403 -2.21845 -0.311846 49
-0.851234 -2.26064 -0.207887 59
-1.31686 -2.22147 -0.49426 47
-0.845989 -2.25133 -0.375856 49
-1.31976 -2.22285 -0.682837 53
-0.842347 -2.24745 -0.545243 49
-3.29805 -5.55069 1.48019 2
-2.09244 -5.61536 1.59419 15
-3.23841 -5.4525 0.996633 1
-2.09301 -5.58716 1.15193 17
-2.09506 -5.57198 0.725613 21
-1.32206 -2.22666 0.0445909 49
-0.852905 -2.25552 0.12456 47
-1.32212 -2.22588 -0.134295 47
-0.849818 -2.24375 -0.0412749 49
-1.32132 -2.22278 -0.312759 47
-0.853424 -2.25449 -0.207452 59
-1.32702 -2.22971 -0.496641 47
-0.849917 -2.24985 -0.375856 47
-1.32735 -2.22676 -0.684777 53
-0.84673 -2.2484 -0.545805 50
-3.31702 -5.51664 1.47569 3
-2.11401 -5.58662 1.58902 15
-3.30127 -5.49261 1.00717 2
-2.12213 -5.57879 1.1524 17
-2.1189 -5.54702 0.723788 21
-1.33202 -2.2178 0.0445473 47
-0.865594 -2.25336 0.12469 47
-1.33762 -2.22534 -0.134689 47
-0.864734 -2.24876 -0.0414495 49
-1.33294 -2.21583 -0.312759 47
-0.866106 -2.25232 -0.207669 50
-1.33575 -2.21876 -0.495689 47
-0.863446 -2.24999 -0.376639 49
-1.33985 -2.22208 -0.685424 52
-0.860223 -2.24849 -0.546928 50
-3.32664 -5.51084 1.47569 14
-2.12033 -5.57389 1.58643 14
-3.22662 -5.34731 0.981414 2
-2.12234 -5.54719 1.14669 17
-2.12059 -5.52246 0.721049 21
-1.34274 -2.22593 0.0447654 47
-0.867736 -2.24718 0.124429 45
-1.34408 -2.22728 -0.134951 47
-0.867761 -2.24492 -0.0414058 47
-1.34451 -2.22624 -0.314584 47
-0.869142 -2.24848 -0.207452 49
-1.34598 -2.22692 -0.498069 47
-0.865603 -2.24387 -0.375856 49
-1.34662 -2.22364 -0.686717 52
-0.864146 -2.24699 -0.546928 50
-3.33481 -5.45743 1.46615 14
-2.1409 -5.53755 1.57932 14
-3.40487 -5.5742 1.02668 9
-2.14514 -5.51999 1.14335 15
-2.15584 -5.52478 0.722875 18
-1.35698 -2.22314 0.0448527 47
-0.881696 -2.24711 0.12469 45
-1.36132 -2.22849 -0.135476 47
-0.881712 -2.24485 -0.0414931 50
-1.35653 -2.21893 -0.314584 47
-0.883107 -2.24838 -0.207887 49
-1.35929 -2.2217 -0.498546 47
-0.880421 -2.24605 -0.377031 49
-1.36203 -2.22273 -0.688657 53
-0.875408 -2.24001 -0.546366 50
-3.31884 -5.41008 1.45492 12
-2.14881 -5.5293 1.57803 14
-3.39264 -5.53246 1.02005 12
-2.17981 -5.5776 1.15622 15
-3.40624 -5.55678 0.567166 11
-2.21069 -5.63655 0.738087 23
-1.36256 -2.22266 0.0448963 47
-0.886528 -2.24789 0.124821 45
-1.36652 -2.22824 -0.135608 47
-0.887456 -2.24796 -0.0415804 47
-1.3643 -2.2229 -0.315497 47
-0.888849 -2.25148 -0.208322 50
-1.36959 -2.22978 -0.500926 47
-0.88614 -2.24911 -0.377814 52
-1.3701 -2.22628 -0.690597 53
-0.880203 -2.24075 -0.546928 47
-3.33264 -5.36721 1.44818 12
-2.19109 -5.54906 1.58708 14
-3.4095 -5.49305 1.01614 12
-2.2397 -5.64369 1.17242 23
-3.3627 -5.41977 0.554964 1
-2.23657 -5.61298 0.736566 30
-1.37813 -2.22186 0.0450272 47
-0.897753 -2.24074 0.12469 45
-1.37948 -2.22317 -0.135739 47
-0.899605 -2.24312 -0.0415804 49
-1.38024 -2.22181 -0.31641 47
-0.901548 -2.2491 -0.208539 50
-1.37904 -2.21817 -0.499974 47
-0.898296 -2.24428 -0.377814 49
-1.38429 -2.22317 -0.69189 53
-0.895008 -2.24275 -0.548612 47
-3.31787 -5.32476 1.43807 12
-2.21944 -5.59238 1.60065 15
-3.42431 -5.49547 1.0177 14
-2.24138 -5.61925 1.16813 20
-3.35108 -5.38008 0.551478 1
