# .PCD v0.7 - Point Cloud Data file format
VERSION 0.7
FIELDS x y z intensity
SIZE 4 4 4 4
TYPE F F F F
COUNT 1 1 1 1
WIDTH 1521
HEIGHT 1
VIEWPOINT 0 0 0 1 0 0 0
POINTS 1521
DATA ascii
-0.839582 -0.42459 -0.143687 45
-0.830288 -0.253424 -0.223086 45
-0.839203 -0.425456 -0.208888 42
-7.22467 -2.19374 1.73231 33
-7.28975 -3.74414 2.18353 35
-7.23063 -2.19554 1.18862 26
-7.25442 -3.71004 1.57562 12
-7.31328 -2.222 0.665652 15
-7.37966 -3.76122 1.01129 35
-1.69065 -0.514461 0.0302363 52
-7.3938 -3.76196 0.432949 9
-0.67094 -0.204911 -0.0350506 52
-3.1472 -1.59683 -0.0609962 35
-0.828678 -0.252278 -0.10192 49
-0.854181 -0.429664 -0.0804582 53
-0.822396 -0.25007 -0.159992 45
-0.840322 -0.423125 -0.143687 45
-0.821481 -0.249186 -0.2205 45
-0.837775 -0.422881 -0.208327 44
-7.22943 -2.15254 1.73063 32
-7.28772 -3.69498 2.17706 35
-7.24676 -2.15906 1.1894 26
-7.27156 -3.67089 1.57514 11
-7.31766 -2.18154 0.664998 15
-7.38152 -3.7136 1.00886 35
-1.69092 -0.504889 0.0301927 53
-7.39109 -3.71198 0.431641 9
-0.66961 -0.200683 -0.0349193 50
-0.82523 -0.246523 -0.101312 49
-0.851968 -0.422948 -0.0800233 53
-0.830753 -0.247854 -0.16142 47
-0.842453 -0.418866 -0.143687 45
-0.827406 -0.246251 -0.221793 47
-0.835628 -0.416294 -0.207204 42
-7.22345 -2.13841 1.72838 33
-7.28985 -3.68008 2.17577 33
-7.2383 -2.14417 1.18745 26
-7.2648 -3.65158 1.57228 11
-7.30235 -2.16311 0.663255 14
-7.37848 -3.69755 1.00764 35
-1.6894 -0.501228 0.030149 53
-7.38798 -3.69589 0.431117 9
-0.672354 -0.200222 -0.0350506 50
-0.823237 -0.244524 -0.101008 49
-0.850478 -0.420346 -0.0798059 53
-0.824122 -0.244322 -0.159992 49
-0.836561 -0.414075 -0.142512 47
-0.825517 -0.244126 -0.221146 47
-0.838458 -0.416075 -0.207765 42
-7.23221 -2.09988 1.72782 33
-7.28893 -3.63343 2.16996 33
-7.24706 -2.10555 1.18706 27
-7.2744 -3.61039 1.57038 11
-7.31081 -2.12543 0.663037 14
-7.37772 -3.64895 1.00491 35
-1.69192 -0.49267 0.030149 55
-7.39157 -3.64941 0.430202 8
-0.675791 -0.197394 -0.0351819 50
-0.829273 -0.24159 -0.101616 49
-0.850434 -0.414784 -0.0795884 53
-0.827706 -0.24083 -0.160468 49
-0.832079 -0.406403 -0.141338 47
-0.826742 -0.239944 -0.221146 47
-0.838442 -0.410596 -0.207204 44
-7.22182 -2.08321 1.72445 33
-7.28877 -3.61747 2.16802 35
-7.23886 -2.08948 1.18511 26
-7.27032 -3.59098 1.56799 11
-7.31451 -2.11267 0.663037 12
-7.37295 -3.63058 1.00338 35
-1.68806 -0.488037 0.0300618 55
-7.38897 -3.63209 0.429678 8
-0.676134 -0.196214 -0.0351819 50
-0.827308 -0.239456 -0.101312 49
-0.853392 -0.414398 -0.0798059 52
-0.830484 -0.240062 -0.160944 49
-0.835002 -0.406042 -0.141729 45
-0.820236 -0.236362 -0.219206 45
-0.84571 -0.412369 -0.208888 44
-7.22595 -2.04212 1.72277 33
-7.28872 -3.56842 2.1622 35
-7.25006 -2.05028 1.18511 27
-7.27359 -3.54532 1.56466 11
-7.33063 -2.07442 0.663473 12
-7.36794 -3.5787 1.00004 35
-1.6954 -0.480551 0.030149 53
-7.39279 -3.58443 0.428762 4
-0.677152 -0.192672 -0.0351819 49
-0.83098 -0.23565 -0.101616 49
-0.848828 -0.406662 -0.0791535 53
-0.834133 -0.23623 -0.16142 49
-0.832745 -0.399359 -0.140946 47
-0.823788 -0.232717 -0.219853 45
-0.834789 -0.401385 -0.205519 42
-7.21743 -2.02747 1.71996 33
-7.28192 -3.54933 2.15832 35
-7.25601 -2.03829 1.1855 26
-7.28418 -3.53477 1.56561 9
-7.36524 -3.56151 0.998821 35
-1.68661 -0.474889 0.0299745 53
-7.38779 -3.56609 0.428108 4
-0.675084 -0.190815 -0.0350506 50
-0.826611 -0.232861 -0.101008 50
-0.851779 -0.406263 -0.079371 52
-0.829817 -0.233453 -0.160468 50
-0.835663 -0.398981 -0.141338 49
-0.821867 -0.23063 -0.219206 47
-0.839872 -0.402054 -0.206642 42
-7.22594 -1.98775 1.7194 33
-7.29388 -3.50801 2.15638 36
-7.26182 -1.99896 1.18472 27
-7.28931 -3.49021 1.56275 9
-7.37484 -3.51862 0.997604 35
-1.68907 -0.466051 0.0299745 55
-7.40186 -3.5252 0.427846 4
-0.680888 -0.188601 -0.0353131 50
-0.830212 -0.229186 -0.101312 52
-0.84715 -0.398582 -0.0787186 53
-0.828661 -0.228456 -0.159992 49
-0.833284 -0.392472 -0.140555 47
-0.830052 -0.228233 -0.221146 47
-0.833176 -0.393443 -0.204396 42
-7.20555 -1.96997 1.71378 32
-7.28039 -3.48588 2.15057 35
-7.26053 -1.98498 1.18394 27
-7.28653 -3.47326 1.56085 9
-7.36528 -3.49828 0.995474 35
-1.68506 -0.461785 0.0298872 55
-0.671583 -0.184783 -0.034788 50
-0.823428 -0.22578 -0.100399 50
-0.854595 -0.400307 -0.079371 53
-0.824322 -0.225721 -0.159039 50
-0.831738 -0.389957 -0.140163 47
-0.823457 -0.224887 -0.219206 45
-0.836061 -0.393036 -0.204957 44
-7.21375 -1.93033 1.71322 33
-7.28108 -3.43945 2.1454 35
-7.2756 -1.94822 1.18472 29
-7.29795 -3.43192 1.55942 9
-7.37002 -3.45334 0.993649 35
-1.68987 -0.453602 0.0299309 55
-0.677365 -0.182553 -0.0350506 52
-0.824599 -0.221466 -0.100399 50
-0.845401 -0.390546 -0.0782837 52
-0.823121 -0.22077 -0.158563 50
-0.829297 -0.383501 -0.13938 49
-0.822289 -0.219952 -0.21856 47
-0.840312 -0.38969 -0.205519 42
-7.205 -1.91587 1.71041 33
-7.28051 -3.42365 2.14346 35
-7.26944 -1.93298 1.18316 29
-7.2906 -3.41293 1.55656 11
-7.36254 -3.43417 0.991823 35
-1.68341 -0.448726 0.0298 56
-0.824985 -0.220026 -0.100399 50
-0.852854 -0.392227 -0.078936 53
-0.821132 -0.218705 -0.158087 49
-0.832202 -0.383097 -0.139772 47
-0.825007 -0.219133 -0.219206 47
-0.836578 -0.386157 -0.204396 44
-7.21762 -1.87747 1.71097 33
-7.27863 -3.37632 2.13764 35
-7.27229 -1.89302 1.18199 29
-7.29723 -3.36956 1.55417 11
-7.36465 -3.3883 0.989694 35
-1.68816 -0.440535 0.0298436 55
-0.826125 -0.215704 -0.100399 50
-0.824642 -0.215018 -0.158563 50
-0.831954 -0.377702 -0.13938 49
-0.828481 -0.215414 -0.219853 47
-0.829741 -0.377688 -0.20215 42
-7.20438 -1.86061 1.70704 33
-7.27136 -3.35753 2.13377 35
-7.2708 -1.87909 1.18121 30
-7.29923 -3.35349 1.55322 12
-7.35702 -3.36924 0.987868 35
-1.68658 -0.436669 0.0298 56
-0.67171 -0.174647 -0.0346568 53
-0.819291 -0.212405 -0.0994866 49
-0.817885 -0.211745 -0.157135 49
-0.832612 -0.376249 -0.13938 47
-0.828893 -0.213823 -0.219853 47
-0.832613 -0.377256 -0.202711 42
-7.21198 -1.82101 1.70648 33
-7.27843 -3.31313 2.13054 36
-7.28086 -1.83973 1.18121 29
-7.30328 -3.30914 1.55036 14
-7.36157 -3.32325 0.986043 35
-1.69127 -0.428444 0.0298436 55
-0.672616 -0.171127 -0.0346568 53
-2.06615 -0.926361 -0.0389189 4
-0.820429 -0.207969 -0.0994866 50
-0.846298 -0.376508 -0.0778488 53
-0.82616 -0.209111 -0.158563 50
-0.830071 -0.369851 -0.138597 49
-0.830001 -0.20948 -0.219853 47
-0.830204 -0.370735 -0.201588 44
-7.21246 -1.80909 1.70592 35
-7.27541 -3.29643 2.12795 35
-7.27895 -1.82709 1.18043 30
-7.29115 -3.28831 1.54655 14
-7.31196 -1.83535 0.656501 12
-7.35547 -3.30659 0.984522 33
-1.68959 -0.424883 0.0298 56
-0.672913 -0.169953 -0.0346568 53
-2.06549 -0.92173 -0.0388752 4
-0.823162 -0.207282 -0.0997908 50
-0.844681 -0.37401 -0.0776313 53
-0.824142 -0.207075 -0.158087 50
-0.832967 -0.369414 -0.138989 47
-0.830365 -0.208031 -0.219853 49
-0.824123 -0.366426 -0.199904 42
-7.21474 -1.76956 1.70424 33
-7.26996 -3.24969 2.12149 35
-7.29082 -1.78954 1.18082 32
-7.2808 -3.23937 1.54083 21
-7.2873 -1.79001 0.65345 14
-7.35681 -3.26098 0.982392 33
-1.68686 -0.415135 0.0297127 56
-0.678614 -0.167733 -0.0349193 53
-2.07698 -0.9143 -0.0390061 4
-0.829057 -0.204148 -0.100399 53
-0.844286 -0.368721 -0.0774139 55
-0.82518 -0.202901 -0.158087 50
-0.828118 -0.362045 -0.137814 47
-0.826715 -0.202683 -0.21856 49
-0.82603 -0.362105 -0.199904 42
-7.21278 -1.75707 1.70311 35
-7.27121 -3.23503 2.1202 35
-7.28913 -1.77564 1.18004 32
-7.2685 -3.2187 1.53702 35
-7.30735 -1.78141 0.654975 18
-7.35568 -3.24513 0.981479 35
-1.68758 -0.412191 0.0297127 56
-3.14252 -1.38079 0.178073 3
-0.671629 -0.164779 -0.0345255 53
-2.08544 -0.913697 -0.039137 4
-0.819766 -0.20036 -0.0991823 50
-0.847207 -0.368252 -0.0776313 53
-0.825533 -0.201461 -0.158087 50
-0.831008 -0.361596 -0.138206 49
-0.82472 -0.200673 -0.217913 47
-0.822206 -0.358691 -0.198781 42
-7.21744 -1.71689 1.70199 35
-7.27478 -3.19109 2.11632 33
-7.29352 -1.73631 1.17926 30
-7.26277 -3.17076 1.53225 35
-7.29962 -1.73909 0.65345 21
-7.35437 -3.19864 0.979045 33
-1.68729 -0.40277 0.0296691 56
-3.14742 -1.36332 0.177942 3
-0.670081 -0.160566 -0.0343942 53
-2.09936 -0.906749 -0.0393115 4
-0.828047 -0.197783 -0.100095 53
-0.844619 -0.361678 -0.0771964 53
-0.828964 -0.197701 -0.158563 50
-0.830626 -0.356254 -0.137814 49
-0.83046 -0.197461 -0.219206 47
-0.826306 -0.355355 -0.199342 44
-7.21331 -1.70262 1.7003 35
-7.26485 -3.17161 2.1118 33
-7.29654 -1.72358 1.17926 32
-7.25984 -3.1529 1.53034 35
-7.30022 -1.72578 0.653232 21
-7.35539 -3.18383 0.978437 33
-1.68806 -0.39953 0.0296691 58
-3.13833 -1.35287 0.177288 3
-0.677651 -0.161114 -0.034788 53
-0.830806 -0.196906 -0.100399 52
-0.845249 -0.360204 -0.0771964 55
-0.826919 -0.195692 -0.158087 50
-0.833512 -0.355786 -0.138206 49
-0.826135 -0.194766 -0.217913 47
-0.831393 -0.355854 -0.200465 44
-7.21055 -1.66083 1.6975 35
-7.27081 -3.12748 2.10857 33
-7.30095 -1.68297 1.17848 32
-7.2582 -3.10711 1.52653 33
-7.29974 -1.68402 0.652361 20
-7.34969 -3.13424 0.975394 32
-1.68769 -0.390125 0.0296255 58
-3.14331 -1.33489 0.177157 3
-0.673619 -0.156444 -0.0345255 53
-0.83186 -0.192408 -0.100399 53
-0.844832 -0.354797 -0.076979 55
-0.820789 -0.189571 -0.156659 50
-0.828551 -0.348508 -0.137031 49
-0.827143 -0.190438 -0.217913 47
-0.824348 -0.347516 -0.198219 44
-7.2084 -1.64842 1.69637 35
-7.26738 -3.11098 2.10598 33
-7.29395 -1.66929 1.17692 33
-7.25684 -3.09154 1.5251 33
-7.29296 -1.66905 0.651489 17
-7.34547 -3.1188 0.974177 32
-1.68593 -0.386622 0.0295818 58
-3.14081 -1.328 0.176896 3
-0.671457 -0.154712 -0.0343942 55
-0.840864 -0.351377 -0.076544 55
-0.825905 -0.189226 -0.157611 50
-0.83143 -0.348027 -0.137423 47
-0.825119 -0.18846 -0.217266 47
-0.824893 -0.346221 -0.198219 44
-7.21217 -1.60959 1.69525 35
-7.27191 -3.06946 2.10275 33
-7.30501 -1.63162 1.17731 33
-7.25656 -3.04811 1.52177 33
-7.29159 -1.62995 0.650618 15
-7.35026 -3.0755 0.972656 33
-1.68543 -0.37754 0.0295382 58
-0.679542 -0.152942 -0.034788 55
-0.84493 -0.348077 -0.0767615 53
-0.82206 -0.183979 -0.156659 50
-0.828686 -0.341761 -0.136639 47
-0.826063 -0.184281 -0.217266 50
-0.822202 -0.340011 -0.197096 44
-7.2028 -1.59563 1.69244 33
-7.26613 -3.05208 2.09952 33
-7.2982 -1.61673 1.17575 33
-7.25282 -3.03165 1.51986 33
-7.28956 -1.61614 0.650182 15
-7.34416 -3.05789 0.971135 33
-1.6812 -0.373517 0.0294509 58
-0.67737 -0.151216 -0.0346568 55
-0.823782 -0.183148 -0.0991823 50
-0.843236 -0.345645 -0.076544 55
-0.824777 -0.183072 -0.157135 50
-0.827002 -0.339365 -0.136248 47
-0.824024 -0.182322 -0.21662 47
-0.822794 -0.338575 -0.197096 44
-7.20895 -1.55612 1.69188 33
-7.26416 -3.00659 2.09435 33
-7.30656 -1.5785 1.17575 35
-7.25498 -2.98802 1.517 33
-7.29305 -1.5769 0.649746 15
-7.35319 -3.01657 0.970222 33
-1.68314 -0.364709 0.0294509 58
-0.673297 -0.146497 -0.0343942 53
-0.829582 -0.179876 -0.0997908 53
-0.840485 -0.339189 -0.0761091 53
-0.823325 -0.178236 -0.156659 50
-0.828768 -0.33503 -0.136248 47
-0.824968 -0.178005 -0.21662 47
-0.824556 -0.334262 -0.197096 44
-7.2045 -1.54201 1.6902 35
-7.2627 -2.99114 2.09241 35
-7.29965 -1.56367 1.17418 35
-7.24708 -2.96849 1.51414 33
-7.29579 -1.56417 0.649746 15
-7.35155 -3.00091 0.969309 33
-1.68383 -0.361477 0.0294509 58
-0.67111 -0.1448 -0.0342629 55
-0.829894 -0.178428 -0.0997908 52
-0.843382 -0.338662 -0.0763266 53
-0.826035 -0.17731 -0.157135 50
-0.829351 -0.333583 -0.136248 47
-0.822945 -0.17592 -0.215973 49
-0.818375 -0.330052 -0.195412 42
-7.19843 -1.50003 1.68683 33
-7.26759 -2.94726 2.08918 35
-7.30317 -1.52315 1.1734 35
-7.25797 -2.92867 1.51319 35
-7.29927 -1.52365 0.64931 17
-7.34696 -2.95275 0.966571 32
-1.6857 -0.352656 0.0294509 58
-0.666971 -0.140267 -0.0340004 53
-0.825988 -0.172926 -0.0991823 53
-0.845144 -0.334242 -0.0763266 53
-0.824579 -0.17234 -0.156659 50
-0.826505 -0.327393 -0.135465 49
-0.82149 -0.17112 -0.215327 47
-0.824667 -0.327442 -0.196535 42
-7.19124 -1.48675 1.68458 35
-7.26825 -2.93276 2.08789 35
-7.29588 -1.50967 1.17184 36
-7.2608 -2.91508 1.51271 36
-7.28485 -1.50738 0.647785 20
-7.34698 -2.93936 0.965963 33
-1.67652 -0.347691 0.0292764 55
-0.66477 -0.138598 -0.0338691 53
-0.821398 -0.170627 -0.0985738 50
-0.845726 -0.332766 -0.0763266 53
-0.817667 -0.169418 -0.15523 50
-0.83166 -0.327785 -0.136248 49
-0.819422 -0.169201 -0.21468 47
-0.820659 -0.324331 -0.195412 41
-7.19892 -1.44907 1.68458 35
-7.26729 -2.88968 2.08336 35
-7.30852 -1.47243 1.17262 36
-7.26177 -2.87287 1.50985 35
-7.29483 -1.47098 0.648003 26
-7.35073 -2.8963 0.964442 29
-1.68071 -0.339694 0.02932 56
-0.66791 -0.135724 -0.0340004 53
-0.829579 -0.167788 -0.0994866 53
-0.842764 -0.326656 -0.0758917 55
-0.818514 -0.165278 -0.15523 52
-0.824176 -0.319803 -0.134682 47
-0.822636 -0.165524 -0.215327 49
-0.817816 -0.318237 -0.194288 41
-7.19402 -1.43633 1.6829 35
-7.25885 -2.87165 2.07949 33
-7.03743 -1.40509 1.12853 1
-7.29006 -1.45679 0.647349 33
-1.6764 -0.335782 0.0292328 58
-0.665698 -0.13407 -0.0338691 53
-0.822569 -0.164889 -0.0985738 53
-0.847971 -0.327002 -0.0763266 53
-0.818801 -0.163849 -0.15523 50
-0.831629 -0.321069 -0.135856 47
-0.822924 -0.164088 -0.215327 50
-0.825171 -0.319486 -0.195973 42
-7.1993 -1.39693 1.68234 36
-7.04712 -1.36869 1.12892 1
-7.03599 -1.36779 0.624035 1
-1.68059 -0.327476 0.0292764 58
-0.668864 -0.130941 -0.0340004 55
-0.83073 -0.161992 -0.0994866 53
-0.840433 -0.318826 -0.0754568 53
-0.822057 -0.160024 -0.155706 52
-0.828692 -0.314931 -0.135073 49
-0.826143 -0.160233 -0.215973 50
-0.824561 -0.31428 -0.195412 42
-7.19455 -1.38298 1.68065 35
-7.02767 -1.3522 1.12541 1
-3.16146 -1.21535 0.651028 9
-7.02614 -1.35316 0.622946 1
-3.08421 -1.18124 0.400684 11
-1.67631 -0.323306 0.0291891 59
-1.70748 -0.649639 -0.0312834 38
-0.8237 -0.159142 -0.0985738 50
-0.845639 -0.319142 -0.0758917 53
-0.815103 -0.157207 -0.154278 50
-0.831546 -0.31437 -0.135465 47
-0.821704 -0.157744 -0.21468 47
-0.825108 -0.312841 -0.195412 41
-7.20192 -1.34403 1.68065 35
-7.03731 -1.31461 1.1258 1
-3.14484 -1.19006 0.646262 2
-7.03091 -1.31467 0.622728 1
-3.08824 -1.16366 0.40038 11
-1.67798 -0.314525 0.0291891 59
-1.70395 -0.637744 -0.0311525 53
-0.829429 -0.15559 -0.0991823 53
-0.840308 -0.312071 -0.0752393 53
-0.820768 -0.15369 -0.15523 52
-0.826305 -0.307247 -0.13429 47
-0.827268 -0.154317 -0.215973 50
-0.819955 -0.30578 -0.193727 42
-7.19684 -1.33139 1.67897 36
-7.03231 -1.30098 1.12463 1
-3.16298 -1.19065 0.649598 2
-7.02585 -1.30104 0.622074 1
-3.12974 -1.17313 0.405552 2
-1.67115 -0.310233 0.0290583 56
-1.70272 -0.633891 -0.0311089 53
-0.827259 -0.153693 -0.0988781 53
-0.843183 -0.31148 -0.0754568 53
-0.821035 -0.152257 -0.15523 52
-0.831463 -0.307542 -0.135073 47
-0.818035 -0.151134 -0.213387 47
-0.822767 -0.305209 -0.194288 45
-7.20154 -1.292 1.67841 36
-7.03174 -1.26283 1.12346 1
-3.14157 -1.1638 0.643879 2
-7.03256 -1.26423 0.622074 1
-3.12886 -1.15414 0.40464 3
-1.67767 -0.302361 0.0291455 58
-1.70133 -0.623235 -0.0310216 50
-0.828052 -0.14936 -0.0988781 53
-0.84013 -0.305334 -0.0750219 53
-0.824237 -0.148387 -0.155706 52
-0.82843 -0.301471 -0.13429 47
-0.818815 -0.146849 -0.213387 47
-0.812935 -0.296657 -0.191481 44
-7.20116 -1.28026 1.67784 36
-7.03393 -1.25055 1.12346 1
-3.1482 -1.16002 0.644832 2
-7.02005 -1.24934 0.620767 1
-3.12621 -1.14696 0.404031 9
-1.67573 -0.298996 0.0291019 62
-1.70485 -0.621829 0.0932888 47
-0.66838 -0.119982 -0.0338691 55
-1.69772 -0.618541 -0.0309344 50
-0.825868 -0.147482 -0.0985738 53
-0.840662 -0.303867 -0.0750219 53
-0.822078 -0.146522 -0.15523 52
-0.824321 -0.298318 -0.133507 47
-0.821448 -0.145838 -0.214033 47
-0.811166 -0.294393 -0.190919 45
-7.19838 -1.23963 1.6756 36
-7.03551 -1.21287 1.12268 1
-3.145 -1.14016 0.642926 2
-7.0314 -1.21341 0.621203 1
-3.13218 -1.13058 0.404031 2
-1.67481 -0.289793 0.0290583 42
-1.70339 -0.611195 0.0930272 47
-0.668999 -0.116481 -0.0338691 55
-1.70094 -0.609643 -0.0309344 50
-0.829075 -0.143575 -0.0988781 52
-0.839899 -0.298614 -0.0748044 53
-0.827672 -0.143043 -0.156182 52
-0.828142 -0.294983 -0.133899 47
-0.81982 -0.141129 -0.213387 47
-0.819565 -0.292638 -0.192604 45
-7.19071 -1.22669 1.67335 35
-7.03498 -1.2014 1.12228 1
-3.14699 -1.13467 0.642926 2
-7.04824 -1.20365 0.62251 1
-3.11294 -1.11808 0.401293 2
-1.68517 -0.288549 0.0292328 14
-1.702 -0.607673 0.0928963 47
-0.66674 -0.114894 -0.0337378 55
-1.70435 -0.607519 -0.030978 52
-0.82196 -0.141026 -0.0979654 52
-0.838075 -0.296305 -0.074587 55
-0.818241 -0.13996 -0.154278 52
-0.826332 -0.2927 -0.133507 47
-0.822446 -0.140099 -0.214033 47
-0.815442 -0.289694 -0.191481 45
-7.19704 -1.18902 1.67335 35
-7.03142 -1.16294 1.12072 1
-3.13651 -1.11296 0.639589 2
-7.04932 -1.16715 0.622074 1
-3.12577 -1.10425 0.402206 2
-1.70634 -0.283275 0.0295818 12
-1.70045 -0.597086 0.0926346 50
-0.667314 -0.111518 -0.0337378 55
-1.69798 -0.59555 -0.0308035 52
-0.827584 -0.137526 -0.0985738 53
-0.839564 -0.29206 -0.074587 53
-0.823783 -0.136611 -0.15523 52
-0.827854 -0.28837 -0.133507 49
-0.818378 -0.135156 -0.21274 47
-0.816947 -0.28542 -0.191481 45
-6.94164 -1.13568 1.61327 1
-7.02857 -1.14987 1.11994 1
-7.03415 -1.15203 0.620549 1
-3.09961 -1.08889 0.398555 2
-1.72657 -0.283521 0.0299309 11
-1.70149 -0.594117 0.0926346 49
-0.667507 -0.110353 -0.0337378 55
-1.69901 -0.592586 -0.0308035 52
-0.820475 -0.134886 -0.0976611 53
-0.837724 -0.289767 -0.0743695 53
-0.82402 -0.135173 -0.15523 52
-0.823698 -0.285283 -0.132724 47
-0.823381 -0.134498 -0.214033 50
-0.815148 -0.283181 -0.190919 44
-7.19554 -1.13723 1.67111 36
-7.02962 -1.11228 1.11916 1
-7.28115 -1.15332 0.641902 36
-3.09824 -1.0702 0.397642 2
-1.69986 -0.583566 0.092373 49
-0.67056 -0.107129 -0.0338691 56
-1.69737 -0.582048 -0.0307162 52
-0.82117 -0.130588 -0.0976611 53
-0.841633 -0.286044 -0.074587 55
-0.824717 -0.130857 -0.15523 50
-0.825181 -0.280966 -0.132724 47
-0.819302 -0.129439 -0.21274 50
-0.81892 -0.27971 -0.191481 45
-7.1927 -1.12391 1.66998 35
-7.02423 -1.09887 1.11799 1
-7.29053 -1.14177 0.642556 30
-3.12825 -1.07451 0.401293 3
-1.70087 -0.580599 0.092373 49
-1.69838 -0.579084 -0.0307162 53
-0.823849 -0.129536 -0.0979654 53
-0.839776 -0.283765 -0.0743695 55
-0.820093 -0.128665 -0.154278 50
-0.828004 -0.28033 -0.133116 47
-0.821936 -0.128234 -0.213387 50
-0.814802 -0.276687 -0.190358 45
-7.22517 -1.08897 1.67616 27
-7.30599 -1.10243 1.16209 41
-7.28429 -1.10045 0.641466 29
-3.13637 -1.05836 0.401597 3
-1.69453 -0.568187 0.0918496 49
-1.69912 -0.569086 -0.0306726 53
-0.822084 -0.124708 -0.0976611 53
-0.84125 -0.279364 -0.0743695 53
-0.820778 -0.124226 -0.154278 52
-0.822445 -0.273613 -0.131941 49
-0.817818 -0.123218 -0.212093 49
-0.816288 -0.272275 -0.190358 45
-7.11844 -1.06147 1.65089 14
-7.30771 -1.09095 1.16209 41
-7.0251 -1.0488 0.61837 1
-1.69779 -0.566321 0.0919804 49
-0.664062 -0.100172 -0.0334753 55
-1.69774 -0.565324 -0.030629 53
-0.819824 -0.123053 -0.0973569 52
-0.834654 -0.275515 -0.0737171 53
-0.818565 -0.122434 -0.153802 52
-0.820581 -0.271389 -0.13155 49
-0.822811 -0.122493 -0.213387 50
-0.814406 -0.270212 -0.189796 45
-7.06844 -1.01622 1.63798 26
-7.02491 -1.01121 1.11604 1
-7.01059 -1.01039 0.616627 1
-1.69599 -0.555856 0.0917188 49
-0.667048 -0.0970475 -0.0336066 55
-1.69346 -0.554372 -0.0304981 52
-0.820457 -0.118759 -0.0973569 53
-0.828991 -0.268797 -0.0730648 53
-0.819174 -0.118289 -0.153802 50
-0.829023 -0.269417 -0.132724 49
-0.821029 -0.117988 -0.21274 50
-0.813498 -0.265176 -0.189235 47
-7.0702 -1.00389 1.63798 26
-7.02177 -0.998257 1.11526 1
-7.00495 -0.997104 0.615973 1
-1.69458 -0.552116 0.0915879 49
-0.669689 -0.0962332 -0.0337378 55
-1.69443 -0.551415 -0.0304981 53
-0.825577 -0.118021 -0.0979654 53
-0.829458 -0.26735 -0.0730648 53
-0.81938 -0.11686 -0.153802 52
-0.822456 -0.265654 -0.13155 49
-0.818863 -0.116076 -0.212093 49
-0.811647 -0.262992 -0.188673 47
-7.06588 -0.964302 1.63573 26
-7.02218 -0.959584 1.11448 1
-7.01024 -0.959189 0.615973 1
-7.05814 -2.27875 0.905115 1
-1.69517 -0.542172 0.0914571 49
-0.670183 -0.0927254 -0.0337378 53
-1.69739 -0.542239 -0.0304981 53
-0.823745 -0.113218 -0.0976611 53
-0.833217 -0.263768 -0.0732822 55
-0.817568 -0.112095 -0.153325 52
-0.826231 -0.261959 -0.131941 49
-0.821852 -0.112109 -0.21274 49
-0.815375 -0.259348 -0.189235 45
-7.0698 -0.953527 1.63629 26
-7.29793 -0.984239 1.15819 41
-6.94672 -2.23998 1.41072 1
-7.00944 -0.94662 0.615755 1
-7.34793 -2.35836 0.941928 35
-3.10873 -0.420057 0.0541461 35
-1.69849 -0.539975 0.0915879 50
-0.66787 -0.0912228 -0.0336066 53
-1.68881 -0.536225 -0.0303236 53
-0.816563 -0.110792 -0.0967484 52
-0.831305 -0.261553 -0.0730648 55
-0.822628 -0.111318 -0.154278 52
-0.821985 -0.259006 -0.131158 49
-0.824441 -0.110993 -0.213387 50
-0.815826 -0.257924 -0.189235 45
-6.85 -0.887435 1.58407 1
-6.96807 -2.22134 1.94766 1
-7.02365 -0.911129 1.1137 1
-7.22929 -2.29097 1.466 42
-7.00673 -0.910169 0.615102 1
-3.11577 -0.404959 0.0542333 30
-1.69882 -0.530621 0.0914571 50
-0.665862 -0.0874048 -0.0334753 55
-1.69627 -0.529172 -0.0304108 53
-0.817113 -0.106658 -0.0967484 53
-0.827912 -0.2557 -0.0726299 55
-0.818312 -0.106528 -0.153325 50
-0.823286 -0.254843 -0.131158 49
-0.817806 -0.105901 -0.211447 49
-0.814799 -0.253056 -0.188673 45
-7.06178 -0.902298 1.63292 26
-6.99035 -2.21502 1.95283 1
-7.01788 -0.89793 1.11253 1
-7.23134 -2.27635 1.46553 36
-7.01078 -0.898254 0.61532 1
-7.32594 -2.29639 0.93706 32
-3.11654 -0.398977 0.0542333 18
-1.70213 -0.528402 0.0915879 50
-0.661061 -0.0856115 -0.0332127 55
-1.69958 -0.526957 -0.0304544 55
-0.817298 -0.105231 -0.0967484 55
-0.82598 -0.253511 -0.0724124 55
-0.818497 -0.105099 -0.153325 52
-0.823729 -0.253405 -0.131158 49
-0.820403 -0.104632 -0.212093 50
-0.815239 -0.251634 -0.188673 47
-6.85376 -0.8381 1.58351 1
-7.24432 -2.25262 2.02068 36
-7.02263 -0.859947 1.11253 1
-7.23378 -2.23555 1.46362 32
-7.28499 -0.893299 0.639069 36
-7.3264 -2.25307 0.935539 32
-3.11363 -0.382047 0.0541461 24
-1.70019 -0.517717 0.0913262 50
-0.666456 -0.0827541 -0.0334753 55
-1.69762 -0.516286 -0.0303672 55
-0.827708 -0.102005 -0.0979654 55
-0.829677 -0.249914 -0.0726299 55
-0.816617 -0.100374 -0.152849 52
-0.822685 -0.248362 -0.130767 49
-0.82094 -0.100335 -0.212093 50
-0.814261 -0.2465 -0.188112 47
-7.06549 -0.852685 1.63236 26
-7.23902 -2.23711 2.0181 33
-7.01907 -0.848323 1.11175 1
-7.2236 -2.21859 1.46076 30
-7.00713 -0.84687 0.614448 1
-7.32044 -2.23865 0.934322 32
-3.11181 -0.376313 0.0541025 29
-1.69623 -0.513586 0.0910646 50
-0.659164 -0.0806962 -0.0330815 56
-1.69374 -0.511863 -0.0302799 53
-0.82294 -0.100114 -0.0973569 55
-0.82773 -0.247738 -0.0724124 55
-0.814354 -0.0986576 -0.152373 52
-0.818395 -0.24548 -0.129984 49
-0.818716 -0.0986172 -0.211447 50
-0.812319 -0.244505 -0.18755 47
-7.06502 -0.815121 1.63124 26
-7.23869 -2.19693 2.01487 33
-7.01851 -0.810994 1.11097 1
-7.23238 -2.18129 1.46028 32
-7.00638 -0.810822 0.614012 1
-7.32255 -2.19743 0.933105 32
-3.11119 -0.360271 0.0540588 30
-1.69411 -0.503263 0.0908029 50
-0.659564 -0.0773588 -0.0330815 58
-1.69631 -0.503284 -0.0302799 55
-0.816057 -0.0949559 -0.0964442 55
-0.824202 -0.242115 -0.0719775 52
-0.817281 -0.0948132 -0.152849 52
-0.824399 -0.242612 -0.130767 49
-0.819205 -0.094472 -0.211447 50
-0.811256 -0.239545 -0.186989 47
-7.06387 -0.803747 1.63068 26
-7.23789 -2.18289 2.01357 33
-7.01992 -0.798743 1.11097 1
-7.21738 -2.16301 1.45647 30
-7.00284 -0.798029 0.613576 1
-7.31687 -2.1818 0.931888 32
-3.10685 -0.354277 0.0539716 29
-1.69738 -0.501018 0.0909337 49
-0.659698 -0.0762076 -0.0330815 56
-1.69239 -0.498896 -0.0301927 56
-0.821153 -0.0940881 -0.0970526 55
-0.82701 -0.241388 -0.0721949 53
-0.817445 -0.0933867 -0.152849 52
-0.822455 -0.240467 -0.130375 49
-0.816968 -0.0927737 -0.2108 50
-0.818673 -0.240227 -0.188673 47
-7.06811 -0.765517 1.63068 27
-7.23765 -2.14153 2.01034 33
-7.01173 -0.760647 1.10902 1
-7.2286 -2.12519 1.45647 33
-7.28671 -0.791696 0.638198 36
-7.31867 -2.14067 0.930671 32
-3.10369 -0.337466 0.0538843 26
-1.69758 -0.491424 0.0908029 50
-0.6601 -0.0726372 -0.0330815 56
-1.69738 -0.490729 -0.0302363 56
-0.8167 -0.0892564 -0.0964442 55
-0.823523 -0.235513 -0.07176 52
-0.817923 -0.0891053 -0.152849 52
-0.818963 -0.23477 -0.129592 49
-0.819844 -0.0887506 -0.211447 50
-0.812908 -0.233876 -0.186989 47
-7.06459 -0.752664 1.62955 26
-7.23442 -2.12685 2.0084 33
-7.01059 -0.748146 1.10863 1
-7.22796 -2.10993 1.45552 33
-7.21378 -0.771051 0.631661 36
-7.32239 -2.12789 0.930671 33
-3.10433 -0.331507 0.0538843 21
-1.69364 -0.487067 0.0905412 50
-0.655261 -0.0709578 -0.0328189 56
-1.69343 -0.486372 -0.030149 56
-0.816855 -0.0878309 -0.0964442 55
-0.823932 -0.234075 -0.07176 52
-0.813196 -0.0871628 -0.151897 53
-0.819372 -0.23334 -0.129592 49
-0.815209 -0.0866741 -0.210153 50
-0.813315 -0.232457 -0.186989 47
-6.85527 -0.692915 1.58014 1
-7.23886 -2.08567 2.00647 32
-7.00716 -0.70946 1.10746 1
-7.23419 -2.0707 1.45457 35
-7.28227 -0.738531 0.637326 36
-7.31709 -2.08348 0.928541 33
-3.10354 -0.314997 0.0538407 17
-1.69865 -0.47858 0.090672 50
-0.663075 -0.0682776 -0.0332127 56
-1.69844 -0.477887 -0.0301927 61
-0.81238 -0.0829145 -0.0958357 55
-0.81796 -0.227714 -0.0711077 52
-0.811214 -0.0825176 -0.151421 52
-0.820582 -0.229047 -0.129592 49
-0.820458 -0.0828817 -0.211447 50
-0.814561 -0.228053 -0.186989 47
-6.8515 -0.681664 1.57901 1
-7.23785 -2.0717 2.00517 33
-7.0009 -0.697719 1.10629 1
-7.22835 -2.05538 1.45266 33
-7.28355 -0.72582 0.637326 32
-7.11506 -2.01373 0.902377 1
-3.10906 -0.310074 0.0539279 14
-1.6946 -0.474551 0.0904104 50
-0.665678 -0.0673665 -0.033344 58
-1.69447 -0.473563 -0.0301054 76
-0.817448 -0.0821261 -0.0964442 55
-0.820753 -0.226963 -0.0713251 52
-0.818684 -0.0818214 -0.152849 53
-0.820981 -0.227614 -0.129592 49
-0.818198 -0.0812152 -0.2108 50
-0.812575 -0.226106 -0.186427 45
-6.84527 -0.644869 1.57677 1
-7.23662 -2.03177 2.00194 33
-6.99954 -0.66059 1.10551 1
-7.22685 -2.01547 1.45028 33
-7.28217 -0.688477 0.636891 38
-7.32393 -2.03163 0.927629 35
-3.10063 -0.293396 0.0537534 12
-1.69225 -0.464338 0.0901487 52
-0.66105 -0.0634136 -0.0330815 58
-1.69684 -0.46498 -0.0301054 90
-0.812926 -0.0773829 -0.0958357 56
-0.81473 -0.220668 -0.0706728 50
-0.816644 -0.077449 -0.152373 53
-0.817403 -0.221991 -0.128809 49
-0.813789 -0.0766285 -0.209507 50
-0.809055 -0.22054 -0.185304 47
-6.94099 -0.641647 1.59867 1
-7.23085 -2.01653 1.99936 33
-7.00068 -0.648372 1.10551 1
-7.22597 -2.00028 1.44932 35
-7.28336 -0.675767 0.636891 36
-7.31551 -2.01554 0.926107 35
-3.10119 -0.287443 0.0537534 11
-1.69787 -0.462709 0.0904104 53
-0.666132 -0.0627175 -0.033344 58
-1.69524 -0.461355 -0.0300618 90
-0.81553 -0.0761906 -0.0961399 55
-0.810311 -0.217925 -0.0702379 52
-0.81189 -0.075577 -0.151421 52
-0.82017 -0.221221 -0.129201 49
-0.818745 -0.0755012 -0.2108 50
-0.811786 -0.219778 -0.185866 47
-7.07785 -0.615668 1.62955 1
-7.23234 -1.97483 1.99677 33
-6.99917 -0.610058 1.10472 1
-7.23398 -1.96177 1.44885 35
-7.28691 -0.63635 0.636891 36
-7.31912 -1.97399 0.925195 33
-3.09518 -0.270551 0.0536225 11
-1.69071 -0.450917 0.089887 52
-0.65899 -0.0585813 -0.0329502 58
-1.69288 -0.450876 -0.0299745 85
-0.813458 -0.0715638 -0.0958357 56
-0.811441 -0.213679 -0.0702379 52
-0.812287 -0.0711832 -0.151421 52
-0.816549 -0.215635 -0.128418 50
-0.816723 -0.0710082 -0.210153 50
-0.810612 -0.214745 -0.185304 47
-7.07153 -0.603929 1.62787 1
-7.23578 -1.9622 1.99677 33
-7.00258 -0.599273 1.10512 1
-7.22791 -1.94658 1.44694 35
-7.27809 -0.622784 0.636019 36
-7.31023 -1.95927 0.923673 33
-3.09814 -0.265361 0.0536661 11
-1.69141 -0.44826 0.089887 52
-0.659091 -0.057431 -0.0329502 58
-1.69367 -0.447921 -0.0299745 82
-0.811097 -0.0700766 -0.0955314 55
-0.809407 -0.211619 -0.0700204 50
-0.814855 -0.0699712 -0.151897 52
-0.819309 -0.214849 -0.128809 50
-0.819252 -0.0697835 -0.2108 50
-0.813301 -0.214105 -0.185866 47
-7.06488 -0.566118 1.62562 1
-7.23628 -1.92307 1.99419 33
-7.00316 -0.562402 1.10472 1
-7.23767 -1.90997 1.44694 35
-7.27866 -0.585739 0.635801 36
-7.31319 -1.91907 0.922761 33
-3.09944 -0.249676 0.0536661 11
-1.68891 -0.438131 0.0896253 52
-1.69108 -0.438076 -0.0298872 74
-0.813927 -0.0660252 -0.0958357 56
-0.808094 -0.206747 -0.069803 50
-0.815199 -0.065846 -0.151897 53
-0.815647 -0.209302 -0.128026 49
-0.817187 -0.0654474 -0.210153 50
-0.809699 -0.208601 -0.184742 49
-7.07071 -0.554166 1.62674 1
-7.23029 -1.90796 1.9916 33
-6.99674 -0.5496 1.10355 1
-7.22471 -1.89171 1.4436 33
-7.27471 -0.572644 0.635365 36
-7.31653 -1.90631 0.922761 35
-3.08995 -0.242946 0.0534916 11
-1.68725 -0.434553 0.0894945 52
-1.68216 -0.432607 -0.0297127 74
-0.814041 -0.0646045 -0.0958357 56
-0.808454 -0.205336 -0.069803 50
-0.815313 -0.0644231 -0.151897 52
-0.8184 -0.208501 -0.128418 50
-0.814904 -0.0636944 -0.209507 50
-0.812419 -0.207805 -0.185304 47
-7.06389 -0.515195 1.6245 1
-7.22414 -1.86458 1.98708 32
-6.99222 -0.511198 1.10238 1
-7.22976 -1.85264 1.44265 35
-7.28267 -0.533639 0.635801 35
-7.10074 -1.80896 0.894162 1
-3.1211 -0.228945 0.0540152 8
-1.692 -0.426034 0.0896253 52
-1.66994 -0.419803 -0.0294509 15
-0.809428 -0.0598418 -0.0952272 56
-0.804691 -0.199872 -0.069368 50
-0.815649 -0.0600109 -0.151897 52
-0.817088 -0.203602 -0.128026 49
-0.815226 -0.0594267 -0.209507 50
-0.815891 -0.204011 -0.185866 49
-7.07684 -0.504963 1.62731 1
-7.21335 -1.84836 1.9832 32
-6.99056 -0.500038 1.10199 1
-7.21872 -1.83638 1.43979 35
-7.27614 -0.520396 0.635147 36
-7.31282 -1.85091 0.920631 33
-3.15141 -0.225626 0.0545388 3
-1.69025 -0.422763 0.0894945 52
-0.662319 -0.0483999 -0.0330815 58
-0.814472 -0.0589199 -0.0958357 56
-0.809868 -0.199687 -0.069803 49
-0.815753 -0.0585872 -0.151897 53
-0.815049 -0.20157 -0.127635 49
-0.815328 -0.0580038 -0.209507 52
-0.81385 -0.202128 -0.185304 49
-7.07695 -0.467742 1.62674 1
-7.22261 -1.81183 1.9832 33
-6.99554 -0.463592 1.10238 1
-7.21602 -1.79684 1.43741 35
-7.28116 -0.483726 0.635365 36
-7.31519 -1.8108 0.919718 33
-3.18743 -0.21198 0.0551496 2
-1.69001 -0.413308 0.0893636 52
-0.660072 -0.0447676 -0.0329502 58
-0.814769 -0.0546546 -0.0958357 56
-0.806067 -0.194249 -0.069368 49
-0.811141 -0.0541391 -0.150945 52
-0.820886 -0.198487 -0.128418 49
-0.810792 -0.0535663 -0.208214 52
-0.812533 -0.197275 -0.184742 49
-7.0729 -0.455078 1.62562 1
-7.21639 -1.79688 1.98062 33
-6.99634 -0.451381 1.10238 1
-7.21707 -1.7824 1.43693 35
-7.27951 -0.470857 0.635147 35
-7.31834 -1.79803 0.919718 35
-1.68588 -0.409167 0.089102 53
-0.657658 -0.0434561 -0.0328189 58
-0.814863 -0.0532324 -0.0958357 56
-0.803986 -0.192249 -0.0691506 49
-0.813683 -0.0528783 -0.151421 53
-0.818834 -0.196464 -0.128026 50
-0.810893 -0.0520096 -0.208214 50
-0.812876 -0.195857 -0.184742 49
-6.96582 -0.410378 1.60035 1
-7.22131 -1.75667 1.97932 33
-6.99622 -0.413376 1.10199 1
-7.21676 -1.74227 1.43502 35
-7.28195 -0.431465 0.635147 33
-7.3159 -1.7555 0.918197 33
-1.67836 -0.39771 0.0885786 52
-0.655384 -0.0398657 -0.0326876 58
-1.56382 -0.369662 -0.0274439 18
-0.815139 -0.0488228 -0.0958357 56
-0.797715 -0.186295 -0.0684982 47
-0.813958 -0.0484751 -0.151421 53
-0.819851 -0.192174 -0.128026 49
-0.815976 -0.0480386 -0.209507 50
-0.811556 -0.190884 -0.184181 49
-6.86431 -0.3936 1.57677 1
-7.21733 -1.74235 1.97739 33
-7.2779 -0.418492 1.14648 38
-7.20547 -1.72624 1.43217 33
-7.27772 -0.41847 0.634712 33
-7.31382 -1.74286 0.917589 33
-1.68627 -0.396808 0.0889711 53
-0.657945 -0.0388638 -0.0328189 58
-1.56447 -0.366932 -0.0274439 20
-0.815215 -0.0475424 -0.0958357 56
-0.793193 -0.183749 -0.0680633 44
-0.811591 -0.046917 -0.150945 53
-0.810578 -0.188451 -0.12646 49
-0.813648 -0.0464808 -0.20886 50
-0.807117 -0.188474 -0.183058 47
-6.86384 -0.357527 1.57621 1
-7.2284 -1.70636 1.97803 35
-7.27753 -0.380251 1.14609 38
-7.21173 -1.68918 1.43169 35
-7.28969 -0.382148 0.635583 33
-1.68346 -0.386842 0.0887094 53
-0.65564 -0.0354038 -0.0326876 58
-1.56387 -0.358443 -0.0274003 24
-0.810497 -0.0430187 -0.0952272 56
-0.789262 -0.178604 -0.0676284 42
-0.814269 -0.0429336 -0.151421 53
-0.816363 -0.185325 -0.127243 50
-0.811461 -0.0422406 -0.208214 50
-0.810464 -0.1848 -0.183619 49
-6.86196 -0.346622 1.57565 1
-7.21961 -1.69098 1.9748 35
-7.27571 -0.367425 1.1457 36
-7.21228 -1.67604 1.43121 35
-7.28537 -0.369174 0.635147 32
-1.689 -0.385027 0.0889711 55
-0.648221 -0.0338844 -0.0322938 59
-1.5718 -0.357398 -0.0275312 23
-0.81057 -0.0416041 -0.0952272 56
-0.814342 -0.0415123 -0.151421 53
-0.819091 -0.184456 -0.127635 49
-0.813945 -0.0409414 -0.20886 50
-0.80604 -0.182283 -0.182496 49
-6.86379 -0.308293 1.57565 1
-7.2216 -1.65027 1.97286 33
-7.27759 -0.328054 1.1457 38
-7.20928 -1.63427 1.42883 35
-7.28727 -0.329751 0.635147 33
-7.08313 -1.59523 0.885948 1
-1.68375 -0.374237 0.0885786 55
-0.650888 -0.0304882 -0.0324251 59
-1.59322 -0.353274 -0.0278802 23
-0.810784 -0.0372179 -0.0952272 56
-0.814555 -0.0371057 -0.151421 52
-0.817637 -0.179621 -0.127243 49
-0.816567 -0.0366411 -0.209507 50
-0.816518 -0.180073 -0.184742 49
-6.8667 -0.297616 1.57621 1
-7.22211 -1.63713 1.97222 33
-7.28057 -0.316729 1.14609 36
-7.21212 -1.62168 1.42883 35
-7.28285 -0.316816 0.634712 32
-7.07836 -1.58247 0.885035 1
-1.68434 -0.371592 0.0885786 53
-0.648446 -0.029245 -0.0322938 59
-1.60847 -0.353757 -0.028142 30
-0.805883 -0.035733 -0.0946187 56
-0.812167 -0.0355808 -0.150945 53
-0.813131 -0.177115 -0.12646 50
-0.814217 -0.035116 -0.20886 49
-0.812046 -0.177721 -0.183619 49
-6.8706 -0.26175 1.57677 1
-7.21852 -1.59794 1.96899 33
-7.26979 -0.278134 1.14414 36
-7.21544 -1.5841 1.42788 35
-7.29432 -0.280331 0.635583 32
-7.07685 -1.54326 0.883818 1
-3.12716 -0.120427 0.0540152 9
-1.68138 -0.361704 0.0883169 55
-0.651085 -0.0259435 -0.0324251 59
-1.63955 -0.351991 -0.0286656 45
-0.807431 -0.0312881 -0.149992 52
-0.814047 -0.172855 -0.12646 50
-0.809558 -0.0308191 -0.207567 52
-0.808207 -0.172422 -0.182496 49
-7.0585 -0.256534 1.62001 21
-7.21658 -1.5843 1.96769 33
-7.2752 -0.265625 1.14492 36
-7.20888 -1.56816 1.42597 35
-7.29231 -0.267509 0.635365 32
-7.06984 -1.52881 0.882601 1
-3.12239 -0.114242 0.0539279 9
-1.68201 -0.358769 0.0883169 55
-0.648635 -0.0247173 -0.0322938 59
-1.65727 -0.35282 -0.028971 52
-0.807484 -0.0298788 -0.149992 53
-0.814347 -0.171434 -0.12646 50
-0.814443 -0.0294309 -0.20886 50
-0.813267 -0.172047 -0.183619 49
-6.8796 -0.212803 1.57845 1
-7.22268 -1.54472 1.96705 33
-7.27406 -0.226183 1.14453 36
-7.21459 -1.52988 1.42549 35
-7.29116 -0.227972 0.635147 30
-7.08286 -1.49156 0.883209 1
-3.11295 -0.0975832 0.0537534 9
-1.68393 -0.349663 0.0883169 55
-0.653746 -0.0214741 -0.0325564 59
-1.67383 -0.346934 -0.0292328 56
-0.803783 -0.0256692 -0.0943145 56
-0.805181 -0.0254362 -0.149516 53
-0.815234 -0.167168 -0.12646 50
-0.809758 -0.0250253 -0.207567 49
-0.80942 -0.166634 -0.182496 49
-6.86044 -0.201428 1.57396 1
-7.21828 -1.53061 1.96511 35
-7.27441 -0.214756 1.14453 36
-7.21485 -1.51678 1.42502 35
-7.29403 -0.21532 0.635365 30
-7.07062 -1.47738 0.881384 1
-3.10063 -0.0917857 0.0535353 12
-1.67958 -0.345997 0.0880552 56
-0.651287 -0.0202608 -0.0324251 61
-1.67932 -0.345031 -0.02932 58
-0.806303 -0.0244776 -0.0946187 58
-0.807678 -0.0240998 -0.149992 53
-0.815524 -0.165745 -0.12646 50
-0.812214 -0.0236781 -0.208214 49
-0.80968 -0.165363 -0.182496 50
-6.85897 -0.165446 1.5734 1
-7.21648 -1.49209 1.96252 33
-7.2705 -0.176546 1.14375 36
-7.21522 -1.47876 1.42359 35
-7.29005 -0.178278 0.63493 29
-7.07826 -1.44033 0.881384 1
-3.10355 -0.0761511 0.0535789 12
-1.68137 -0.337198 0.0880552 56
-0.646393 -0.0167319 -0.0321625 59
-1.6737 -0.335035 -0.0291891 59
-0.80642 -0.0202555 -0.0946187 56
-0.802882 -0.0198984 -0.14904 53
-0.816381 -0.161472 -0.12646 50
-0.812324 -0.0195669 -0.208214 50
-0.810535 -0.161121 -0.182496 49
-6.87142 -0.153745 1.57621 1
-7.2167 -1.47901 1.96188 33
-7.28067 -0.164077 1.14531 36
-7.21323 -1.46392 1.42263 35
-7.28537 -0.165442 0.634494 32
-7.07104 -1.42601 0.880167 1
-3.10869 -0.0703034 0.0536661 15
-1.67951 -0.333769 0.0879244 58
-0.646421 -0.0156037 -0.0321625 59
-1.67918 -0.3331 -0.0292764 64
-0.803974 -0.0187943 -0.0943145 56
-0.807823 -0.0186016 -0.149992 53
-0.814241 -0.159558 -0.126069 50
-0.809945 -0.017958 -0.207567 50
-0.803653 -0.158251 -0.180812 50
-6.88433 -0.116769 1.57901 1
-7.2175 -1.43852 1.95994 33
-7.2691 -0.124473 1.14336 36
-7.21599 -1.42518 1.42168 35
-7.28118 -0.125937 0.634058 30
-7.07378 -1.38677 0.879559 1
-3.09652 -0.0538138 0.053448 30
-1.68129 -0.324677 0.0879244 58
-0.646494 -0.0122188 -0.0321625 59
-1.67851 -0.323529 -0.0292328 64
-0.801582 -0.0144039 -0.0940102 58
-0.805458 -0.0141916 -0.149516 53
-0.812643 -0.154817 -0.125677 50
-0.810028 -0.0137169 -0.207567 50
-0.809277 -0.154845 -0.181935 49
-6.91861 -0.106473 1.58688 1
-7.21052 -1.42404 1.95735 33
-7.26435 -0.112979 1.14258 35
-7.21124 -1.41117 1.42025 35
-7.06864 -1.37423 0.878646 1
-3.09661 -0.0484093 0.053448 36
-1.6769 -0.321083 0.0876627 56
-0.64901 -0.0111279 -0.0322938 59
-1.68152 -0.321075 -0.0292764 64
-0.809048 -0.0132539 -0.094923 58
-0.805481 -0.0127858 -0.149516 52
-0.812912 -0.153398 -0.125677 50
-0.810051 -0.0123031 -0.207567 50
-0.80952 -0.153573 -0.181935 49
-7.22001 -1.38799 1.958 33
-7.21106 -1.37327 1.41882 35
-7.0733 -1.33674 0.878342 1
-3.09431 -0.0327101 0.0534044 23
-1.67856 -0.312299 0.0876627 56
-0.654051 -0.00789254 -0.0325564 59
-1.67822 -0.311634 -0.0291891 64
-0.809106 -0.00901754 -0.094923 58
-0.810444 -0.00875333 -0.150468 53
-0.818556 -0.150058 -0.12646 50
-0.810103 -0.00820292 -0.207567 50
-0.810313 -0.149333 -0.181935 49
-7.20581 -1.37221 1.95348 33
-7.20621 -1.35931 1.41739 35
-3.11307 -0.0280095 0.269311 8
-7.06587 -1.32256 0.877125 1
-3.10186 -0.0273723 0.0535353 23
-1.68155 -0.309828 0.0877936 56
-0.644078 -0.00666908 -0.0320313 59
-1.67139 -0.307327 -0.0290583 58
-0.804158 -0.00756726 -0.0943145 58
-0.80555 -0.00730284 -0.149516 53
-0.808178 -0.147467 -0.181373 49
-7.21052 -1.33402 1.95283 35
-3.10928 -0.0111658 0.485829 4
-7.2084 -1.32067 1.41644 35
-3.07332 -0.0115771 0.265825 9
-7.06537 -1.28421 0.876212 1
-3.07447 -0.0110443 0.0530553 14
-1.67333 -0.299233 0.0872702 55
-0.646601 -0.00319117 -0.0321625 59
-1.66805 -0.29768 -0.028971 49
-0.801705 -0.00335055 -0.0940102 58
-0.808031 -0.00309005 -0.149992 55
-0.806543 -0.142794 -0.180812 49
-7.20334 -1.31969 1.95025 33
-3.0846 -0.00570463 0.481927 2
-7.20126 -1.30507 1.41453 35
-3.09575 -0.00624832 0.267786 1
-7.06028 -1.27055 0.875299 1
-3.08198 -0.00515087 0.0531862 1
-1.67385 -0.296312 0.0872702 39
-0.649102 -0.00206525 -0.0322938 59
-1.65873 -0.293001 -0.0287965 49
-0.796747 -0.00194784 -0.0934018 59
-0.805581 -0.00167891 -0.149516 55
-0.810114 -0.141157 -0.124894 50
-0.802899 -0.000995614 -0.205627 52
-0.806791 -0.141386 -0.180812 47
-7.20324 -1.27942 1.94831 35
-3.05249 0.0108558 0.476854 11
-7.208 -1.26735 1.41453 35
-3.04842 0.0103196 0.263646 14
-7.06949 -1.23276 0.875603 1
-3.05197 0.010866 0.0526626 20
-1.68035 -0.288109 0.0875319 20
-0.644111 0.00131254 -0.0320313 59
-1.66521 -0.284879 -0.0288837 49
-0.791783 0.00233959 -0.0927933 59
-0.699881 -0.117035 -0.0589302 38
-0.808033 0.00269213 -0.149992 55
-0.805978 -0.136062 -0.124111 49
-0.805308 0.00322226 -0.206274 52
-0.809943 -0.137441 -0.181373 49
-7.20071 -1.26601 1.94701 35
-3.05494 0.0156644 0.477244 9
-6.96603 -1.21211 1.3664 1
-3.05587 0.0156819 0.2643 15
-7.0592 -1.21954 0.874082 1
-3.04945 0.0161782 0.052619 24
-1.6931 -0.287594 0.0881861 14
-0.649101 0.00246635 -0.0322938 59
-1.66078 -0.281124 -0.0287965 11
-0.796741 0.0036145 -0.0934018 61
-0.700084 -0.115814 -0.0589302 36
-0.805572 0.0040857 -0.149516 55
-0.808647 -0.135077 -0.124502 50
-0.800471 0.00459153 -0.20498 52
-0.805358 -0.135332 -0.18025 49
-7.20226 -1.22873 1.94572 36
-3.0474 0.0315796 0.476074 9
-7.20194 -1.2158 1.41167 36
-3.05824 0.0311753 0.264518 14
-7.0557 -1.18091 0.872865 1
-3.04433 0.0315585 0.0525317 32
-1.72166 -0.283258 0.0896253 14
-0.644086 0.00580922 -0.0320313 59
-1.66958 -0.273949 -0.0289274 11
-0.796711 0.00778615 -0.0934018 61
-0.695768 -0.111326 -0.0584953 38
-0.805541 0.008163 -0.149516 55
-0.811778 -0.131249 -0.124894 50
-0.798023 0.00861266 -0.204334 52
-0.808458 -0.131519 -0.180812 49
-7.20202 -1.21575 1.94508 36
-3.06216 0.0370844 0.478415 8
-7.19942 -1.20116 1.41072 36
-3.05321 0.0364511 0.264082 14
-7.0602 -1.169 0.87317 1
-3.05176 0.0374987 0.0526626 23
-1.74925 -0.284738 0.0910646 14
-0.649068 0.00699784 -0.0322938 61
-1.69965 -0.275923 -0.0294509 11
-0.799177 0.00920958 -0.093706 61
-0.691047 -0.1093 -0.0580604 38
-0.805526 0.00956892 -0.149516 55
-0.807134 -0.129024 -0.124111 50
-0.805249 0.0102497 -0.206274 52
-0.806284 -0.129707 -0.18025 49
-7.19657 -1.17482 1.94184 35
-3.0866 0.0540956 0.482317 1
-7.1935 -1.16148 1.40834 35
-3.06541 0.0531916 0.265171 2
-7.05907 -1.12961 0.872257 1
-3.07902 0.0539714 0.0531426 3
-1.77049 -0.278425 0.0921113 14
-0.64403 0.0103056 -0.0320313 61
-1.70359 -0.267118 -0.0294946 11
-0.796635 0.0134871 -0.0934018 68
-0.69161 -0.10568 -0.0580604 41
-0.81037 0.0140204 -0.150468 55
-0.805361 -0.124405 -0.123719 50
-0.807599 0.0145134 -0.20692 52
-0.806974 -0.125342 -0.18025 50
-7.201 -1.16264 1.94249 36
-6.97016 -1.11279 1.36401 1
-3.07528 0.0587364 0.266043 11
-7.06083 -1.11852 0.872257 1
-3.07142 0.0591973 0.0530117 14
-1.80051 -0.28033 0.0936814 14
-0.644011 0.0114296 -0.0320313 62
-1.71886 -0.266482 -0.0297564 15
-0.801575 0.0148389 -0.0940102 68
-0.691793 -0.104473 -0.0580604 42
-0.810344 0.0154348 -0.150468 56
-0.805577 -0.122999 -0.123719 50
-0.802744 0.0158192 -0.205627 52
-0.807169 -0.124075 -0.18025 49
-7.19486 -1.12431 1.93926 35
-6.96357 -1.07561 1.36163 1
-7.06659 -1.08153 0.872257 1
-3.08607 0.075114 0.0532735 15
-0.653928 0.0149383 -0.0325564 70
-0.794044 0.018846 -0.0930975 71
-0.684927 -0.0998409 -0.057408 42
-0.805349 0.0194093 -0.149516 58
-0.801329 -0.118031 -0.122936 50
-0.797825 0.019754 -0.204334 53
-0.802993 -0.119103 -0.179127 49
-7.16299 0.188661 1.64359 41
-7.19681 -1.11175 1.93926 35
-7.26024 0.191254 1.14219 36
-6.96302 -1.06308 1.36115 1
-7.06111 -1.06808 0.871344 1
-3.09094 0.0806327 0.0533607 14
-0.653901 0.0160796 -0.0325564 73
-0.79401 0.0202318 -0.0930975 70
-0.682638 -0.0982734 -0.0571906 44
-0.802861 0.0207472 -0.14904 58
-0.801533 -0.116632 -0.122936 50
-0.802617 0.0212829 -0.205627 52
-0.805608 -0.118069 -0.179689 49
-7.14482 0.226869 1.63966 33
-7.20014 -1.07369 1.93861 33
-7.25914 0.229266 1.14219 38
-7.19669 -1.06039 1.40595 36
-7.27619 0.228548 0.63384 27
-7.0617 -1.03037 0.870736 1
-3.08797 0.0967362 0.0533171 11
-0.656303 0.0195829 -0.0326876 76
-0.796373 0.0244695 -0.0934018 71
-0.673285 -0.0932614 -0.0563208 45
-0.802741 0.0249507 -0.14904 56
-0.809463 -0.113505 -0.124111 50
-0.797668 0.0253233 -0.204334 52
-0.808625 -0.114204 -0.18025 49
-7.15176 0.238337 1.64134 33
-7.19484 -1.06006 1.93668 35
-7.2612 0.242018 1.14258 38
-6.95327 -1.01196 1.35782 1
-7.27827 0.24133 0.634058 29
-7.05612 -1.01698 0.869823 1
-3.12527 0.103382 0.0539716 11
-0.656268 0.0207284 -0.0326876 82
-0.788889 0.0256048 -0.092489 73
-0.675912 -0.0924409 -0.0565382 45
-0.805149 0.0264365 -0.149516 58
-0.809659 -0.112092 -0.124111 50
-0.800036 0.0268006 -0.20498 52
-0.804002 -0.112091 -0.179127 47
-7.14793 0.276933 1.64078 33
-7.19551 -1.02169 1.93538 33
-7.2549 0.279842 1.1418 36
-6.95847 -0.975541 1.35782 1
-7.27691 0.279436 0.634058 30
-7.05889 -0.979676 0.869519 1
-3.1172 0.119454 0.0538407 3
-0.658641 0.0243764 -0.0328189 82
-0.793703 0.0299307 -0.0930975 74
-0.671468 -0.0880997 -0.0561033 47
-0.802547 0.0305542 -0.14904 58
-0.80779 -0.107511 -0.123719 50
-0.797472 0.0308914 -0.204334 52
-0.80699 -0.108218 -0.179689 49
-7.14987 0.289507 1.64134 33
-7.19489 -1.0088 1.93474 33
-7.2618 0.292804 1.14297 36
-6.95304 -0.961166 1.35639 1
-7.27143 0.291935 0.633622 32
-7.04338 -0.964986 0.867389 1
-3.06746 -0.415362 0.16041 9
-0.658597 0.0255259 -0.0328189 86
-0.791171 0.0312138 -0.0927933 74
-0.666685 -0.0862533 -0.0556684 47
-0.802493 0.0319549 -0.14904 58
-0.810422 -0.106437 -0.124111 50
-0.804649 0.0327296 -0.206274 52
-0.804764 -0.106475 -0.179127 49
-7.15064 0.3283 1.64191 35
-7.19306 -0.968882 1.9328 33
-7.25517 0.331863 1.14219 33
-6.95311 -0.924097 1.35543 1
-7.28716 0.33207 0.635147 27
-7.04604 -0.926538 0.867085 1
-3.05729 -0.397132 0.159755 9
-0.653467 0.0287439 -0.0325564 89
-0.79099 0.035494 -0.0927933 77
-0.664659 -0.0824372 -0.0554509 47
-0.802308 0.0362963 -0.14904 58
-0.803625 -0.101223 -0.122936 50
-0.804467 0.0369422 -0.206274 52
-0.805329 -0.10212 -0.179127 49
-7.15011 0.339531 1.64191 35
-7.18756 -0.955367 1.93086 32
-7.26451 0.343728 1.14375 35
-6.94985 -0.911319 1.35448 1
-7.28408 0.34467 0.63493 27
-7.0401 -0.914505 0.866172 1
-3.05543 -0.392007 0.159625 9
-0.655909 0.0300037 -0.0326876 90
-0.793412 0.0368559 -0.0930975 79
-0.662332 -0.0809571 -0.0552335 47
-0.804695 0.037816 -0.149516 58
-0.8038 -0.0998201 -0.122936 50
-0.801989 0.038227 -0.205627 52
-0.803073 -0.100537 -0.178566 49
-6.87821 0.362671 1.57958 1
-7.18991 -0.918667 1.93021 32
-7.25768 0.3815 1.14297 36
-6.95194 -0.875823 1.354 1
-7.28722 0.381795 0.635365 27
-7.04972 -0.878248 0.866781 1
-3.04753 -0.37477 0.159101 9
-0.65325 0.0333053 -0.0325564 90
-0.788252 0.0407447 -0.092489 80
-0.662746 -0.077488 -0.0552335 49
-0.806944 0.0420203 -0.149992 58
-0.801862 -0.095304 -0.122545 49
-0.801785 0.0422857 -0.205627 53
-0.801171 -0.0960267 -0.178004 50
-7.14027 0.389041 1.64022 33
-7.1915 -0.906117 1.93021 32
-7.26687 0.394704 1.14453 38
-6.9463 -0.861563 1.35257 1
-7.27411 0.393837 0.634276 27
-7.05124 -0.865942 0.866781 1
-3.04818 -0.36945 0.159101 9
-0.653191 0.0344453 -0.0325564 90
-0.790658 0.0422572 -0.0927933 82
-0.665353 -0.0766339 -0.0554509 49
-0.801968 0.0431563 -0.14904 58
-0.804477 -0.0942062 -0.122936 50
-0.801703 0.043825 -0.205627 53
-0.79892 -0.094328 -0.177443 50
-7.14779 0.428252 1.64247 35
-7.18911 -0.866323 1.92827 32
-7.25723 0.433572 1.14336 38
-6.94828 -0.82489 1.3521 1
-7.27684 0.433485 0.634712 30
-7.04104 -0.826034 0.864955 1
-3.04766 -0.352662 0.15897 11
-0.653002 0.0378649 -0.0325564 90
-0.785464 0.0462341 -0.0921848 80
-0.668218 -0.0734388 -0.0556684 52
-0.806622 0.0477935 -0.149992 58
-0.802507 -0.0897037 -0.122545 52
-0.801462 0.048022 -0.205627 53
-0.797 -0.0897169 -0.176881 50
-7.13738 0.43888 1.64022 33
-7.18581 -0.853201 1.92698 32
-7.259 0.445123 1.14375 38
-6.94483 -0.812188 1.35114 1
-7.27607 0.446185 0.634712 30
-7.27648 -0.842231 0.893858 33
-3.05565 -0.348735 0.159363 11
-0.655427 0.0391588 -0.0326876 90
-0.782914 0.0473137 -0.0918806 85
-0.663397 -0.0717016 -0.0552335 50
-0.79919 0.0487402 -0.148564 59
-0.805116 -0.0885876 -0.122936 50
-0.798967 0.0492679 -0.20498 52
-0.804398 -0.089315 -0.178566 50
-7.13742 0.476407 1.64078 33
-7.18524 -0.816271 1.92569 32
-7.24918 0.482631 1.14258 38
-6.94642 -0.776752 1.35067 1
-7.2613 0.482179 0.633622 33
-7.26846 -0.80275 0.892337 33
-3.04502 -0.331361 0.158709 11
-0.657711 0.0426424 -0.0328189 90
-0.790083 0.0519135 -0.0927933 88
-0.671178 -0.0691615 -0.0558859 52
-0.801381 0.0529507 -0.14904 59
-0.80066 -0.0838272 -0.122153 52
-0.798707 0.0533112 -0.20498 52
-0.800013 -0.0845605 -0.177443 52
-7.14395 0.488118 1.64247 33
-7.18425 -0.803459 1.92504 32
-7.25572 0.495789 1.14375 38
-6.94532 -0.764357 1.35019 1
-7.26541 0.495191 0.634058 33
-7.27478 -0.790603 0.892945 33
-3.04808 -0.326315 0.15884 11
-0.652654 0.043448 -0.0325564 95
-0.789991 0.0532924 -0.0927933 86
-0.666346 -0.0674529 -0.0554509 50
-0.801288 0.0543493 -0.14904 58
-0.795896 -0.0818946 -0.12137 52
-0.796204 0.0545358 -0.204334 53
-0.797738 -0.0828976 -0.176881 52
-7.13635 0.526404 1.64134 33
-7.18596 -0.765574 1.9244 32
-7.24564 0.533228 1.14258 39
-6.94435 -0.727466 1.34924 1
-7.25279 0.532495 0.633186 33
-7.28376 -0.753015 0.893554 35
-3.05471 -0.310865 0.159101 11
-0.654899 0.0471632 -0.0326876 98
-0.787226 0.0572437 -0.092489 88
-0.666701 -0.0638467 -0.0554509 52
-0.796097 0.0581778 -0.148088 58
-0.79877 -0.0779809 -0.121762 50
-0.798316 0.0588859 -0.20498 53
-0.795738 -0.0784658 -0.17632 50
-7.14513 0.539594 1.64359 36
-7.18729 -0.753031 1.9244 32
-7.25208 0.546431 1.14375 38
-6.94085 -0.713627 1.34828 1
-7.25433 0.54534 0.633404 35
-7.27765 -0.739544 0.892641 33
-3.0478 -0.304776 0.158709 11
-0.657305 0.048495 -0.0328189 101
-0.789599 0.0588062 -0.0927933 88
-0.661856 -0.0621813 -0.055016 52
-0.803336 0.0601294 -0.149516 59
-0.801361 -0.076837 -0.122153 52
-0.795793 0.0602319 -0.204334 53
