# .PCD v0.7 - Point Cloud Data file format
VERSION 0.7
FIELDS x y z intensity
SIZE 4 4 4 4
TYPE F F F F
COUNT 1 1 1 1
WIDTH 1597
HEIGHT 1
VIEWPOINT 0 0 0 1 0 0 0
POINTS 1597
DATA ascii
-1.1877 1.26097 -0.2081 58
-1.71604 1.28134 -0.183967 41
-1.17621 1.24962 -0.326174 47
-1.70239 1.26939 -0.331223 29
-1.17323 1.24861 -0.449405 53
-1.17702 1.2619 0.3897 53
-1.71935 1.2872 0.565429 45
-1.17781 1.26232 0.267304 52
-1.71507 1.28861 0.409871 44
-1.176 1.25996 0.147729 50
-1.70624 1.28569 0.257692 45
-1.1783 1.26286 0.0295382 52
-1.70365 1.28558 0.110036 39
-1.18176 1.26703 -0.0892674 53
-1.70325 1.28621 -0.0366501 41
-1.17748 1.26374 -0.207492 59
-1.16776 1.25417 -0.325697 47
-1.16503 1.25296 -0.448759 47
-1.17669 1.26553 0.390261 53
-1.70937 1.28441 0.562844 45
-1.1691 1.25693 0.265743 52
-1.70496 1.28571 0.407965 44
-1.16871 1.25653 0.147075 52
-1.69233 1.27942 0.255866 45
-1.17269 1.26125 0.0294509 50
-1.69365 1.28225 0.109513 41
-1.17276 1.26177 -0.0887423 53
-1.69103 1.28165 -0.0364319 41
-1.17212 1.26195 -0.206883 59
-1.16056 1.2508 -0.324269 45
-1.15629 1.2479 -0.446172 45
-1.16181 1.2627 0.387454 53
-1.69514 1.28722 0.560259 45
-1.15916 1.2594 0.264962 50
-1.6867 1.28542 0.405105 44
-1.15897 1.25876 0.14664 52
-1.6777 1.28225 0.254649 45
-1.16291 1.26349 0.0293637 50
-1.67698 1.28353 0.108859 42
-1.15938 1.26054 -0.0882172 55
-1.67657 1.28413 -0.0362574 41
-1.16214 1.26442 -0.206275 59
-1.15256 1.25485 -0.323793 47
-1.14995 1.25374 -0.446172 45
-1.15467 1.25934 0.385769 53
-1.68134 1.28142 0.556382 45
-1.15196 1.25595 0.263792 50
-1.67837 1.2842 0.403675 44
-1.15341 1.25711 0.146204 52
-1.6656 1.27765 0.253128 47
-1.15373 1.25835 0.0291891 52
-1.66681 1.28039 0.108335 42
-1.15718 1.26256 -0.0882172 55
-1.6644 1.27946 -0.0360392 41
-1.15658 1.26278 -0.205666 59
-1.1454 1.25142 -0.322364 53
-1.13941 1.24702 -0.442939 45
-1.14621 1.26376 0.385208 53
-1.6648 1.28315 0.553151 45
-1.14515 1.26217 0.263792 52
-1.6619 1.28548 0.401292 45
-1.14324 1.25964 0.145768 52
-1.65277 1.28209 0.252215 47
-1.14377 1.26067 0.0291019 53
-1.6559 1.28634 0.108074 44
-1.14888 1.26675 -0.0880859 55
-1.65152 1.28386 -0.0359083 41
-1.14307 1.26166 -0.204449 61
-1.13532 1.25396 -0.321412 53
-1.13125 1.25118 -0.442292 47
-1.13769 1.25833 0.382962 53
-1.65491 1.28016 0.550566 47
-1.13985 1.2603 0.263011 53
-1.65383 1.28388 0.399862 45
-1.1377 1.25794 0.145332 52
-1.6488 1.28317 0.251911 47
-1.13989 1.2608 0.0290583 55
-1.64599 1.28282 0.10755 42
-1.14165 1.26319 -0.0876921 56
-1.64138 1.28061 -0.0357338 42
-1.14109 1.26345 -0.204449 59
-1.12328 1.245 -0.318555 61
-1.1226 1.24597 -0.439706 56
-1.12622 1.25882 0.381277 55
-1.63888 1.28111 0.547335 47
-1.12995 1.26257 0.262231 52
-1.63571 1.28317 0.397003 45
-1.12634 1.25811 0.144679 52
-1.63424 1.28566 0.250694 45
-1.1285 1.26097 0.0289274 52
-1.6255 1.28063 0.106635 39
-1.13336 1.26729 -0.0875608 56
-1.62898 1.28427 -0.0356029 42
-1.1295 1.26385 -0.203537 59
-0.947155 0.749286 -0.102421 11
-1.11533 1.24884 -0.318079 79
-1.1227 1.25885 -0.442292 90
-1.12402 1.26078 0.381277 53
-1.63283 1.281 0.546043 49
-1.12282 1.25901 0.26106 52
-1.62744 1.28177 0.395573 45
-1.12249 1.25821 0.144461 52
-1.62419 1.28238 0.249477 47
-1.12109 1.25753 0.0287965 53
-1.61738 1.27884 0.106242 41
-1.12616 1.26367 -0.087167 58
-1.62084 1.28247 -0.035472 42
-1.124 1.26211 -0.202928 61
-0.947802 0.752479 -0.102639 9
-1.11478 1.25262 -0.318555 97
-1.11868 1.2592 -0.441646 95
-1.11074 1.25953 0.379031 55
-1.6145 1.28083 0.542166 49
-1.11436 1.26321 0.26067 53
-1.61302 1.28418 0.393667 45
-1.11237 1.26053 0.144025 53
-1.60751 1.28343 0.247956 47
-1.11284 1.2615 0.0287528 53
-1.60262 1.28135 0.105719 41
-1.11623 1.2658 -0.0869045 56
-1.59823 1.27877 -0.035123 42
-1.1106 1.26072 -0.201711 64
-0.943849 0.757432 -0.102639 8
-1.10474 1.25494 -0.317603 90
-1.1057 1.25778 -0.439059 79
-1.10715 1.25944 0.378469 55
-1.6028 1.27615 0.538935 49
-1.10585 1.25753 0.259109 53
-1.60693 1.28393 0.392714 45
-1.1036 1.25499 0.143153 53
-1.59773 1.27977 0.246739 47
-1.10734 1.25969 0.0286656 55
-1.5889 1.27452 0.104934 41
-1.10908 1.26212 -0.0865106 56
-1.58819 1.27531 -0.0349484 41
-1.10861 1.26247 -0.201711 67
-1.0977 1.25133 -0.316174 68
-1.10191 1.25789 -0.438412 61
-1.09416 1.25786 0.376223 55
-1.59066 1.27972 0.536996 49
-1.09602 1.25958 0.258328 52
-1.59467 1.28744 0.391284 44
-1.09397 1.2568 0.142718 53
-1.57942 1.27878 0.244913 45
-1.09767 1.2615 0.0285783 53
-1.58026 1.28126 0.104803 44
-1.09918 1.26414 -0.0862481 55
-1.57394 1.27705 -0.0347739 41
-1.10036 1.26638 -0.201407 64
-1.08653 1.25131 -0.314746 62
-1.09237 1.2598 -0.437119 59
-1.08558 1.2524 0.373977 55
-1.5809 1.27644 0.534411 50
-1.08735 1.25402 0.256768 53
-1.58074 1.28125 0.388424 45
-1.08851 1.25494 0.142282 53
-1.5656 1.27217 0.243088 47
-1.09197 1.25983 0.0284911 53
-1.5722 1.2793 0.10441 44
-1.09371 1.26228 -0.0859855 56
-1.56394 1.2735 -0.0345994 41
-1.09166 1.26079 -0.20019 65
-1.08274 1.25134 -0.314269 64
-1.08207 1.25275 -0.433886 59
-1.56482 1.26981 -0.456522 45
-1.07562 1.25456 0.372854 55
-1.56834 1.28041 0.532473 50
-1.08055 1.25989 0.256768 53
-1.5702 1.28641 0.387471 45
-1.0817 1.26081 0.142282 53
-1.5587 1.28062 0.243088 49
-1.08211 1.26173 0.0284038 55
-1.55367 1.2783 0.103625 42
-1.07897 1.2585 -0.0853292 56
-1.55702 1.28195 -0.0345994 44
-1.08482 1.26668 -0.20019 64
-1.07277 1.25345 -0.313317 65
-1.07236 1.25472 -0.432593 58
-1.55038 1.27209 -0.454276 45
-1.07365 1.25624 0.372854 56
-1.55675 1.27551 0.529242 50
-1.07536 1.25783 0.255987 52
-1.55466 1.27827 0.384135 44
-1.07465 1.25701 0.141628 53
-1.54517 1.27363 0.241263 49
-1.07666 1.25981 0.0283165 53
-1.54587 1.27598 0.103233 45
-1.07515 1.25849 -0.0851979 56
-1.54513 1.27672 -0.0343812 44
-1.07317 1.25705 -0.198365 64
-1.06899 1.25345 -0.312841 70
-1.07173 1.25843 -0.433239 59
-1.54084 1.26835 -0.452029 45
-1.0592 1.25254 0.370046 56
-1.54095 1.2757 0.526011 52
-1.06558 1.25967 0.255207 52
-1.5406 1.27987 0.382228 45
-1.06345 1.25673 0.140974 55
-1.53084 1.27536 0.240046 49
-1.06382 1.25761 0.028142 55
-1.53532 1.28087 0.102971 45
-1.06555 1.2601 -0.0849353 56
-1.52903 1.27654 -0.0341631 44
-1.06658 1.26265 -0.198365 64
-1.05946 1.25509 -0.311889 71
-1.06068 1.2583 -0.4313 59
-1.52855 1.27174 -0.450345 47
-1.05723 1.2542 0.370046 56
-1.53128 1.27223 0.523426 52
-1.0602 1.25774 0.254426 53
-1.53459 1.27942 0.381275 45
-1.05484 1.25096 0.140103 55
-1.52098 1.27168 0.238829 49
-1.06163 1.25946 0.028142 55
-1.52158 1.27396 0.102186 44
-1.06013 1.25813 -0.0846728 56
-1.52104 1.27441 -0.0340322 45
-1.05799 1.25691 -0.197148 67
-1.05254 1.2513 -0.31046 71
-1.52261 1.27397 -0.309299 45
-1.06004 1.262 -0.431946 58
-1.51884 1.26818 -0.448099 47
-1.04576 1.25429 0.368362 56
-1.51904 1.27559 0.521487 52
-1.05044 1.25948 0.253646 53
-1.51847 1.27956 0.378892 45
-1.04669 1.25455 0.139885 55
-1.51241 1.27803 0.238524 49
-1.05022 1.25924 0.0280111 55
-1.50725 1.27547 0.101663 44
-1.04714 1.25599 -0.0841477 56
-1.50862 1.27752 -0.0339013 45
-1.05139 1.26243 -0.197148 65
-1.04283 1.25302 -0.309508 71
-1.51026 1.27715 -0.308124 47
-1.04262 1.25452 -0.42742 59
-1.50844 1.27298 -0.446976 47
-1.04067 1.25218 0.367239 56
-1.51126 1.27358 0.519549 52
-1.04508 1.25751 0.252865 53
-1.50872 1.27588 0.376986 45
-1.03972 1.25063 0.139231 56
-1.49879 1.27107 0.236699 49
-1.04642 1.25915 0.0279675 55
-1.50121 1.27488 0.101401 45
-1.04335 1.25589 -0.0840164 58
-1.49684 1.27208 -0.0336831 45
-1.04602 1.26044 -0.196539 67
-1.03908 1.25295 -0.309032 73
-1.49859 1.27182 -0.306166 49
-1.03735 1.25261 -0.426127 59
-1.49504 1.26619 -0.443607 47
-1.03079 1.25403 0.366116 58
-1.49904 1.27679 0.51761 52
-1.03378 1.25724 0.251695 53
-1.49641 1.279 0.375556 47
-1.03316 1.25605 0.139231 55
-1.48834 1.27568 0.23609 50
-1.03347 1.25688 0.027793 55
-1.48881 1.27786 0.101008 45
-1.03201 1.25555 -0.0836226 58
-1.48636 1.27665 -0.0335959 45
-1.03626 1.26207 -0.195931 67
-1.48125 1.27185 -0.16744 44
-1.02784 1.25268 -0.307603 64
-1.48628 1.27484 -0.304992 49
-1.02925 1.25616 -0.42548 59
-1.48654 1.27242 -0.443045 45
-1.02265 1.2481 0.36387 56
-1.48945 1.27315 0.515025 53
-1.03002 1.25713 0.251304 55
-1.48484 1.27364 0.373173 47
-1.02781 1.254 0.138796 55
-1.47857 1.27182 0.234873 50
-1.02811 1.25481 0.0277057 55
-1.4771 1.27233 0.100354 44
-1.02982 1.25735 -0.0836226 58
-1.47654 1.27274 -0.0334214 47
-1.02464 1.25234 -0.194105 73
-1.47714 1.27282 -0.167223 45
-1.0241 1.25257 -0.307127 70
-1.4803 1.27422 -0.304209 50
-1.02553 1.25608 -0.424833 59
-1.4732 1.26552 -0.439676 47
-1.01282 1.24983 0.362747 56
-1.47544 1.27463 0.51244 52
-1.01877 1.25675 0.250134 55
-1.46886 1.27338 0.37079 47
-1.0181 1.25549 0.13836 55
-1.46626 1.27468 0.233961 52
-1.01995 1.25824 0.0276621 56
-1.46853 1.27841 0.100223 45
-1.01851 1.2569 -0.0832287 58
-1.46608 1.27718 -0.0333341 47
-1.02275 1.26348 -0.195018 68
-1.46292 1.27401 -0.166353 44
-1.01445 1.25409 -0.306175 62
-1.46801 1.27711 -0.303034 49
-1.01288 1.25391 -0.422247 59
-1.46103 1.26844 -0.437991 47
-1.01086 1.25142 0.362747 58
-1.46407 1.26932 0.509209 52
-1.01347 1.25468 0.249353 53
-1.46478 1.27434 0.370314 47
-1.00965 1.24951 0.137488 55
-1.45654 1.27073 0.232744 50
-1.01305 1.25418 0.0275312 55
-1.46065 1.27606 0.0998308 47
-1.01475 1.25673 -0.0830975 58
-1.45442 1.27153 -0.0331159 47
-1.0112 1.25367 -0.193193 70
-1.45694 1.27329 -0.165918 44
-1.01072 1.25395 -0.305698 68
-1.45459 1.26995 -0.300685 50
-1.01069 1.25568 -0.422247 59
-1.44961 1.26301 -0.435184 45
-0.999514 1.25115 0.361062 58
-1.45012 1.27062 0.506624 52
-1.00381 1.25611 0.248573 55
-1.44885 1.27391 0.367931 47
-0.999988 1.25089 0.137052 56
-1.448 1.2767 0.23244 50
-1.00491 1.25751 0.0274875 56
-1.44832 1.27875 0.0994383 45
-1.00482 1.2583 -0.0828349 58
-1.44586 1.27748 -0.0330723 47
-1.00153 1.25506 -0.192584 71
-1.44255 1.27458 -0.165048 44
-1.00261 1.2573 -0.305222 62
-1.44236 1.27266 -0.299511 50
-1.00109 1.25717 -0.420954 59
-1.43748 1.26577 -0.433499 47
-0.994297 1.24908 0.359939 58
-1.44426 1.26997 0.505332 52
-0.997007 1.25206 0.247402 55
-1.44272 1.27345 0.366977 47
-0.997803 1.25263 0.137052 55
-1.4346 1.26939 0.230614 50
-0.99783 1.25357 0.0273566 55
-1.4386 1.27467 0.098915 47
-0.99952 1.25614 -0.0825724 59
-1.43988 1.27669 -0.032985 45
-0.997796 1.25486 -0.19228 71
-1.43658 1.2738 -0.164613 44
-0.995837 1.25328 -0.303794 62
-1.43087 1.26702 -0.297553 50
-0.99568 1.25531 -0.41966 59
-1.42978 1.26345 -0.431814 47
-0.986019 1.25253 0.359377 58
-1.43375 1.27456 0.50404 53
-0.988692 1.2555 0.247012 56
-1.43052 1.2761 0.365548 47
-0.986393 1.25214 0.136399 56
-1.424 1.27383 0.230006 49
-0.989708 1.25681 0.027313 56
-1.42236 1.27413 0.0982608 47
-0.989844 1.25743 -0.0823098 59
-1.42176 1.27448 -0.0327233 45
-0.98946 1.25829 -0.191976 71
-1.4206 1.27302 -0.163526 44
-0.981468 1.249 -0.301413 68
-1.41684 1.26792 -0.295987 52
-0.980159 1.2491 -0.415781 59
-1.41563 1.26469 -0.429568 49
-0.982549 1.25216 0.358816 59
-1.42791 1.27386 0.502747 53
-0.983672 1.25316 0.246231 56
-1.4228 1.2737 0.364118 47
-0.98267 1.2519 0.136181 56
-1.41459 1.26945 0.228789 52
-0.98443 1.2546 0.0272258 56
-1.4185 1.2747 0.0981299 47
-0.98457 1.25523 -0.0820473 59
-1.41581 1.27363 -0.032636 45
-0.979837 1.25007 -0.190454 73
-1.41281 1.27051 -0.162874 45
-0.985332 1.25844 -0.303318 62
-1.41278 1.26875 -0.295595 52
-0.982435 1.25652 -0.41772 59
-1.41001 1.26367 -0.428445 47
-0.970011 1.24958 0.35657 58
-1.41426 1.27462 0.500162 53
-0.974072 1.25439 0.245451 56
-1.40903 1.27432 0.362212 49
-0.973269 1.25292 0.135745 56
-1.40056 1.27019 0.227572 52
-0.975004 1.25561 0.0271385 56
-1.39883 1.27039 0.097214 45
-0.976675 1.25822 -0.081916 59
-1.40007 1.27239 -0.0324178 45
-0.97176 1.25322 -0.19015 74
-1.39897 1.27097 -0.162004 44
-0.972944 1.25565 -0.301413 68
-1.39696 1.26786 -0.293638 50
-0.97311 1.25765 -0.416427 59
-1.39794 1.26614 -0.426761 49
-0.966557 1.24918 0.356008 59
-1.40485 1.27062 0.497578 53
-0.968862 1.25218 0.244671 56
-1.40134 1.27184 0.360782 49
-0.966513 1.24871 0.135091 58
-1.39466 1.26931 0.226963 52
-0.969756 1.25336 0.0270512 58
-1.39292 1.26948 0.0969524 42
-0.971426 1.25597 -0.0816534 58
-1.3923 1.2698 -0.0322869 45
-0.96654 1.25099 -0.189542 74
-1.39121 1.26839 -0.161351 45
-0.969253 1.2554 -0.300937 65
-1.39474 1.27029 -0.293638 50
-0.969441 1.25743 -0.415781 61
-1.3885 1.26205 -0.424515 49
-0.959785 1.25439 0.356008 58
-1.38924 1.26984 0.494347 53
-0.959294 1.25331 0.24389 58
-1.39104 1.27585 0.359829 49
-0.959961 1.25375 0.135091 56
-1.38067 1.26989 0.225746 52
-0.960145 1.25444 0.026964 58
-1.38257 1.27338 0.0966907 42
-0.958556 1.25327 -0.0811283 58
-1.37642 1.26862 -0.0320688 47
-0.958472 1.25406 -0.189237 73
-1.37515 1.26748 -0.160264 44
-0.961179 1.25851 -0.300461 65
-1.38261 1.27257 -0.292463 50
-0.956993 1.2548 -0.413194 59
-1.37648 1.26437 -0.42283 49
-0.953168 1.25024 0.354324 58
-1.38524 1.27063 0.4937 53
-0.954114 1.25105 0.24311 56
-1.37954 1.27023 0.357446 49
-0.953245 1.24948 0.134438 58
-1.36932 1.26391 0.224225 52
-0.956221 1.2543 0.0269203 58
-1.37483 1.27072 0.0962982 47
-0.954856 1.25296 -0.0809971 59
-1.36868 1.26594 -0.0319379 47
-0.950275 1.24783 -0.18802 73
-1.36927 1.2665 -0.159829 45
-0.954527 1.25432 -0.299032 68
-1.37311 1.2683 -0.290897 52
-0.956041 1.25856 -0.413841 61
-1.37068 1.26348 -0.421707 49
-0.940531 1.2476 0.352078 59
-1.36947 1.26992 0.490469 53
-0.944361 1.25225 0.242329 56
-1.36747 1.27244 0.356016 49
-0.946471 1.25462 0.134438 58
-1.35882 1.26792 0.223617 55
-0.943627 1.2513 0.0267458 56
-1.36428 1.27474 0.0960365 47
-0.948283 1.25794 -0.0809971 59
-1.35632 1.26822 -0.031807 47
-0.945 1.25493 -0.188325 76
-1.35715 1.26857 -0.159177 45
-0.946253 1.2575 -0.298556 68
-1.36102 1.27043 -0.289723 52
-0.942193 1.25389 -0.410608 58
-1.35668 1.26425 -0.419461 50
-0.93857 1.24907 0.352078 59
-1.36371 1.26903 0.489177 53
-0.942393 1.25373 0.242329 58
-1.36165 1.27148 0.355063 49
-0.939796 1.25029 0.133784 56
-1.35138 1.26498 0.222704 52
-0.939942 1.25094 0.0267022 56
-1.35315 1.26837 0.0953823 49
-0.941593 1.2536 -0.0806032 59
-1.35045 1.26718 -0.0317197 47
-0.938565 1.25046 -0.187412 71
-1.34947 1.26584 -0.158524 45
-0.939645 1.25326 -0.297127 62
-1.34977 1.26439 -0.287765 52
-0.938558 1.2536 -0.409961 59
-1.34934 1.2614 -0.417776 50
-0.930565 1.25201 0.351516 59
-1.35374 1.27262 0.487884 53
-0.931401 1.2527 0.241159 58
-1.34625 1.26996 0.35268 49
-0.930486 1.25103 0.133348 56
-1.34112 1.26864 0.222095 53
-0.930619 1.25167 0.0266149 58
-1.34285 1.27201 0.0951206 49
-0.933748 1.25634 -0.080472 59
-1.33675 1.26714 -0.0315452 49
-0.929049 1.25137 -0.186804 77
-1.3358 1.26582 -0.157655 47
-0.927448 1.25011 -0.295223 65
-1.33954 1.26806 -0.286982 50
-0.923586 1.24668 -0.406081 58
-1.33207 1.25844 -0.414407 49
-0.927149 1.25151 0.350955 58
-1.34799 1.27167 0.486592 55
-0.924809 1.24837 0.239988 58
-1.33867 1.26726 0.35125 49
-0.925339 1.24865 0.132913 56
-1.33169 1.26416 0.220878 53
-0.925461 1.24927 0.0265277 58
-1.33519 1.26921 0.0947281 49
-0.927102 1.25195 -0.0800781 61
-1.3309 1.26603 -0.031458 47
-0.923916 1.249 -0.186195 79
-1.32635 1.2613 -0.156785 47
-0.923807 1.24975 -0.294747 62
-1.33194 1.2653 -0.285807 52
-0.921409 1.24829 -0.406081 58
-1.3281 1.25909 -0.413846 50
-0.913176 1.24668 0.348147 58
-1.32905 1.26708 0.482069 53
-0.916802 1.2512 0.239598 59
-1.32312 1.26579 0.348867 50
-0.915848 1.24946 0.132477 56
-1.31967 1.26598 0.219966 55
-0.917432 1.25208 0.026484 58
-1.32311 1.27101 0.0943356 49
-0.919061 1.25477 -0.0799469 59
-1.31522 1.26434 -0.0312398 47
-0.917364 1.25382 -0.186195 79
-1.31613 1.26479 -0.15635 47
-0.917251 1.25457 -0.294747 62
-1.31637 1.26374 -0.28385 52
-0.912016 1.2492 -0.404788 58
-1.31443 1.25931 -0.4116 49
-0.909782 1.24614 0.347585 59
-1.31984 1.26274 0.479484 55
-0.910254 1.24681 0.238427 58
-1.31736 1.26471 0.347914 50
-0.912198 1.24904 0.132259 56
-1.31208 1.26313 0.219053 55
-0.913773 1.25166 0.0264404 58
-1.31368 1.2664 0.0938122 49
-0.916869 1.25637 -0.0799469 59
-1.30761 1.26145 -0.0311089 47
-0.915174 1.25542 -0.186195 76
-1.31212 1.26536 -0.156132 49
-0.91506 1.25617 -0.294747 64
-1.3106 1.26261 -0.283067 53
-0.90274 1.24102 -0.401555 58
-1.30519 1.25486 -0.409353 50
-0.903026 1.25105 0.347585 58
-1.30798 1.26461 0.477545 53
-0.900826 1.24755 0.237647 59
-1.30896 1.26989 0.347437 50
-0.907103 1.25582 0.132477 56
-1.29653 1.26135 0.217532 55
-0.902822 1.25035 0.0263095 59
-1.29807 1.26458 0.093158 47
-0.904441 1.25305 -0.0794218 61
-1.2956 1.26306 -0.030978 47
-0.90424 1.25415 -0.185282 79
-1.29833 1.26528 -0.155263 47
-0.907037 1.25895 -0.29427 62
-1.30042 1.26602 -0.282284 53
-0.897638 1.24769 -0.402201 59
-1.2951 1.25829 -0.40823 50
-0.896797 1.24653 0.345901 59
-1.30404 1.26521 0.476899 53
-0.897207 1.24712 0.237256 59
-1.30145 1.26705 0.346007 50
-0.90055 1.25134 0.131823 58
-1.29433 1.26362 0.217532 53
-0.900639 1.25192 0.0263095 58
-1.29049 1.26162 0.0927655 47
-0.902253 1.25463 -0.0794218 59
-1.28623 1.25834 -0.0308035 49
-0.90205 1.25573 -0.185282 77
-1.29433 1.2658 -0.155045 49
-0.899121 1.25255 -0.292366 61
-1.2929 1.26313 -0.281109 53
-0.895459 1.24925 -0.402201 59
-1.2894 1.25716 -0.407107 50
-0.887219 1.24739 0.344778 59
-1.29221 1.26697 0.47496 55
-0.887805 1.24777 0.236476 59
-1.29129 1.27041 0.345054 52
-0.886774 1.24588 0.130734 58
-1.28061 1.26342 0.216315 55
-0.88973 1.2505 0.0261786 58
-1.28209 1.26661 0.0926346 49
-0.892781 1.25527 -0.0791592 61
-1.27784 1.26331 -0.0307599 49
-0.889721 1.25233 -0.184065 79
-1.27881 1.26383 -0.153958 49
-0.893969 1.25925 -0.292842 61
-1.27745 1.26123 -0.279152 53
-0.880537 1.2421 -0.398322 58
-1.28106 1.26219 -0.406546 50
-0.885259 1.24878 0.344778 58
-1.28654 1.26584 0.473668 55
-0.887052 1.25134 0.236866 59
-1.28207 1.26578 0.343148 50
-0.881721 1.24336 0.130298 58
-1.2731 1.26043 0.215402 53
-0.884658 1.24797 0.0260913 58
-1.27276 1.26183 0.0921113 49
-0.884823 1.24867 -0.0786341 62
-1.27207 1.26202 -0.0306726 49
-0.887534 1.25389 -0.184065 79
-1.27482 1.26431 -0.15374 49
-0.886109 1.25279 -0.290937 61
-1.27173 1.25999 -0.278369 53
-0.881151 1.24758 -0.399615 58
-1.27017 1.25588 -0.403738 50
-0.874083 1.24772 0.343093 59
-1.27109 1.26429 0.470437 56
-0.876023 1.25005 0.235695 59
-1.27172 1.26924 0.342195 52
-0.873553 1.24607 0.13008 56
-1.2645 1.26555 0.215098 55
-0.873595 1.2466 0.0259605 59
-1.26061 1.26341 0.0917188 49
-0.876623 1.25139 -0.0785028 62
-1.25992 1.26359 -0.0305417 50
-0.877895 1.2546 -0.183457 77
-1.2662 1.26943 -0.153523 50
-0.877913 1.25555 -0.290461 61
-1.25812 1.25966 -0.276803 55
-0.871627 1.24837 -0.398322 59
-1.2599 1.2593 -0.402615 50
-0.872122 1.24909 0.343093 59
-1.26374 1.2614 0.468498 56
-0.871234 1.24737 0.234915 59
-1.26428 1.26627 0.340765 52
-0.868529 1.24351 0.129644 56
-1.25549 1.26052 0.213881 55
-0.872847 1.25017 0.0260041 58
-1.2551 1.26186 0.0914571 49
-0.874438 1.25292 -0.0785028 61
-1.25241 1.26048 -0.0304108 50
-0.870253 1.24783 -0.18224 79
-1.25166 1.25931 -0.152001 49
-0.87572 1.25708 -0.290461 62
-1.25592 1.26186 -0.276803 53
-0.868069 1.2479 -0.397675 59
-1.2493 1.25268 -0.399807 52
-0.860041 1.24561 0.340847 59
-1.25393 1.26436 0.467206 56
-0.860486 1.24581 0.233744 59
-1.25613 1.27091 0.340288 50
-0.86081 1.24584 0.129426 56
-1.24712 1.26532 0.213577 55
-0.863671 1.25046 0.0259168 59
-1.24847 1.26841 0.0914571 50
-0.866668 1.25527 -0.0783715 61
-1.2425 1.26325 -0.0303236 50
-0.865115 1.25441 -0.182544 80
-1.24527 1.26563 -0.152001 52
-0.863783 1.25341 -0.288556 64
-1.24061 1.25964 -0.274845 55
-0.861742 1.25228 -0.397675 59
-1.24272 1.2592 -0.399807 52
-0.855325 1.24295 0.339724 61
-1.24491 1.2597 0.464621 56
-0.858311 1.24731 0.233744 58
-1.24527 1.26438 0.337905 52
-0.858634 1.24734 0.129426 58
-1.23794 1.26043 0.21236 55
-0.860072 1.2499 0.0258732 59
-1.23924 1.26348 0.0909337 50
-0.863063 1.25473 -0.0782403 62
-1.23327 1.2583 -0.030149 50
-0.855907 1.24569 -0.181023 80
-1.24131 1.26603 -0.151783 52
-0.864369 1.25896 -0.289509 62
-1.24014 1.26357 -0.275237 56
-0.856828 1.2498 -0.396382 59
-1.23367 1.25444 -0.397561 52
-0.848587 1.24756 0.339724 59
-1.22814 1.25587 0.460744 56
-0.848993 1.24771 0.232964 58
-1.23348 1.26562 0.336475 52
-0.850692 1.24976 0.129208 58
-1.22959 1.26512 0.212055 55
-0.849303 1.24818 0.0257423 58
-1.22912 1.26638 0.090672 50
-0.852275 1.25303 -0.0778464 64
-1.22667 1.26474 -0.030149 50
-0.852158 1.25426 -0.181631 80
-1.23119 1.26894 -0.151348 50
-0.853635 1.25737 -0.28808 61
-1.22488 1.26121 -0.273279 56
-0.846213 1.24826 -0.394442 59
-1.22708 1.26088 -0.397561 52
-0.846626 1.24889 0.339724 59
-1.22256 1.25456 0.459451 55
-0.845431 1.24714 0.232574 58
-1.22956 1.26602 0.335999 50
-0.845717 1.24712 0.128773 58
-1.22219 1.26193 0.211143 55
-0.847124 1.24966 0.0257423 61
-1.22343 1.26494 0.0904104 50
-0.84729 1.25038 -0.0775839 65
-1.21749 1.2597 -0.0299745 50
-0.845801 1.24958 -0.180719 82
-1.22029 1.26216 -0.150261 52
-0.848693 1.25479 -0.287128 62
-1.22096 1.26158 -0.272887 55
-0.842683 1.24774 -0.393795 61
-1.21468 1.25256 -0.394192 52
-0.835795 1.24737 0.338039 61
-1.21262 1.25748 0.458159 55
-0.836143 1.24745 0.231793 59
-1.2178 1.26715 0.334569 52
-0.836406 1.24739 0.128337 59
-1.2104 1.26295 0.21023 56
-0.837789 1.24993 0.025655 59
-1.20987 1.26414 0.089887 50
-0.837737 1.2508 -0.0773213 62
-1.21088 1.26606 -0.0299745 52
-0.833733 1.24574 -0.179502 79
-1.20999 1.26516 -0.149826 50
-0.839387 1.25514 -0.286176 65
-1.20749 1.26084 -0.271321 56
-0.834799 1.25012 -0.393149 59
-1.20303 1.25364 -0.392508 50
-0.832266 1.2468 0.337478 61
-1.20371 1.25264 0.455574 55
-0.832595 1.24685 0.231403 58
-1.20855 1.26241 0.332663 52
-0.831465 1.2447 0.127901 59
-1.20303 1.25969 0.209317 56
-0.83123 1.24529 0.0255241 59
-1.2042 1.26264 0.0896253 50
-0.835553 1.25226 -0.0773213 62
-1.20348 1.26276 -0.0298436 52
-0.834307 1.25132 -0.18011 82
-1.20261 1.26187 -0.149174 50
-0.831759 1.24843 -0.284271 59
-1.19845 1.25582 -0.269755 53
-0.827056 1.24367 -0.390562 59
-1.1907 1.2452 -0.389138 47
-0.822828 1.24722 0.336355 61
-1.1919 1.2539 0.453636 56
-0.821762 1.24515 0.230232 59
-1.19854 1.26517 0.33171 52
-0.823348 1.2471 0.127683 59
-1.19107 1.26079 0.208405 55
-0.823324 1.24754 0.0254805 59
-1.19048 1.26189 0.089102 50
-0.824866 1.25036 -0.0769275 71
-1.19147 1.26381 -0.0297127 52
-0.823434 1.2496 -0.179198 80
-1.19428 1.26634 -0.148956 52
-0.820949 1.24676 -0.282842 61
-1.19015 1.26028 -0.269364 55
-0.820533 1.24799 -0.390562 59
-1.17723 1.24457 -0.386892 41
-0.815522 1.24036 0.334109 64
-1.18805 1.25423 0.452989 56
-0.819805 1.24644 0.230232 59
-1.18788 1.25836 0.329327 53
-0.818436 1.24437 0.127247 59
-1.18568 1.25905 0.207796 55
-0.818403 1.2448 0.0253932 59
-1.18507 1.26013 0.0888403 52
-0.818575 1.24553 -0.0765337 68
-1.18068 1.2568 -0.0294946 53
-0.81875 1.24674 -0.178589 82
-1.18522 1.26119 -0.148087 50
-0.817428 1.24613 -0.282366 61
-1.18116 1.25518 -0.267798 55
-0.818353 1.24942 -0.390562 59
-1.17192 1.24288 -0.385769 39
-0.807691 1.24257 0.333547 59
-1.18003 1.25847 0.452343 56
-0.809235 1.2445 0.229062 59
-1.17982 1.26256 0.32885 52
-0.809416 1.24432 0.126812 59
-1.17228 1.258 0.206579 55
-0.810731 1.24683 0.0253496 61
-1.17504 1.26268 0.0885786 52
-0.813619 1.25175 -0.076665 67
-1.1743 1.26276 -0.0294946 53
-0.808163 1.24476 -0.177676 83
-1.17712 1.26535 -0.147869 52
-0.809776 1.24819 -0.28189 61
-1.17458 1.26135 -0.267798 55
-0.804153 1.24137 -0.386682 59
-1.16207 1.24545 -0.384646 39
-0.801771 1.2377 0.331863 61
-1.17121 1.25349 0.449758 56
-0.808403 1.24798 0.229452 59
-1.17426 1.26104 0.327897 53
-0.803185 1.23946 0.126158 59
-1.16501 1.2546 0.205666 55
-0.80584 1.24404 0.0252624 61
-1.16773 1.25925 0.0881861 52
-0.804658 1.24269 -0.0760086 71
-1.16699 1.25932 -0.0293637 55
-0.807335 1.24825 -0.177981 82
-1.17151 1.26376 -0.147434 52
-0.804936 1.24548 -0.280938 61
-1.169 1.25979 -0.267015 55
-0.801985 1.24278 -0.386682 59
-1.15656 1.24391 -0.383523 39
-0.796374 1.24407 0.332424 59
-1.16299 1.25784 0.449112 56
-0.799198 1.24804 0.228671 61
-1.16097 1.25997 0.32599 53
-0.798026 1.24575 0.126376 59
-1.15674 1.25886 0.205362 56
-0.796623 1.24403 0.0251751 61
-1.15604 1.25984 0.0877936 50
-0.796579 1.24492 -0.0758773 73
-1.15529 1.2599 -0.0292328 53
-0.796784 1.24619 -0.177068 83
-1.15453 1.25909 -0.14613 52
-0.793126 1.2414 -0.279033 65
-1.15569 1.25864 -0.265449 55
-0.798061 1.25103 -0.387976 59
-1.14507 1.24459 -0.381839 39
-0.787662 1.23519 0.329617 61
-1.15587 1.25455 0.447174 56
-0.79304 1.24318 0.227501 59
-1.15854 1.2622 0.32599 53
-0.791837 1.24084 0.125722 61
-1.14949 1.2554 0.204449 56
-0.795575 1.24767 0.0252187 61
-1.15046 1.25818 0.0875319 50
-0.794405 1.24631 -0.0758773 68
-1.14971 1.25824 -0.0291455 55
-0.795939 1.24967 -0.177372 82
-1.15233 1.26111 -0.14613 53
-0.792274 1.24485 -0.279509 61
-1.15015 1.25702 -0.264666 55
-0.791779 1.24644 -0.386036 61
-1.13794 1.24121 -0.380154 42
-0.777077 1.23324 0.327932 61
-1.14417 1.25544 0.445235 56
-0.783673 1.24327 0.22672 62
-1.1453 1.261 0.324084 53
-0.783786 1.24299 0.125504 59
-1.14101 1.25977 0.204145 58
-0.785039 1.24547 0.0250878 62
-1.14027 1.26069 0.0872702 50
-0.785211 1.24622 -0.0756148 71
-1.1412 1.26259 -0.0291019 56
-0.783887 1.24555 -0.176155 82
-1.14236 1.26344 -0.145695 53
-0.780309 1.24081 -0.277605 61
-1.14189 1.2612 -0.264274 56
-0.782677 1.24648 -0.384743 59
-1.12793 1.24375 -0.379031 49
-0.777726 1.23859 0.329055 61
-1.13709 1.25209 0.443296 58
-0.781719 1.2445 0.22672 61
-1.14144 1.26118 0.323607 53
-0.780293 1.24225 0.125286 61
-1.13236 1.25421 0.202928 58
-0.784191 1.24895 0.0251315 61
-1.12991 1.25323 0.086616 50
-0.780384 1.24336 -0.0753522 71
-1.13061 1.25532 -0.0288837 53
-0.780613 1.24468 -0.175851 80
-1.13681 1.26174 -0.14526 53
-0.778142 1.24217 -0.277605 61
-1.13305 1.25587 -0.262708 55
-0.779222 1.2458 -0.384096 59
-1.12433 1.24372 -0.378469 55
-0.768665 1.2385 0.327932 59
-1.1275 1.25425 0.442004 56
-0.77129 1.24228 0.22555 61
-1.13012 1.26147 0.322178 53
-0.772683 1.24407 0.125068 61
-1.12246 1.25643 0.20232 58
-0.771277 1.24228 0.0249133 62
-1.12166 1.25728 0.0864852 52
-0.773864 1.24743 -0.0753522 68
-1.11923 1.25544 -0.0287528 55
-0.77278 1.24664 -0.175547 83
-1.12354 1.26026 -0.14439 55
-0.770555 1.244 -0.277128 62
-1.12316 1.25812 -0.261925 56
-0.767833 1.2415 -0.381509 59
-1.11944 1.2514 -0.379031 79
-0.763944 1.2357 0.326809 61
-1.12369 1.25442 0.441358 56
-0.767824 1.24152 0.225159 61
-1.12114 1.25633 0.320271 55
-0.766586 1.23906 0.124415 61
-1.11861 1.25654 0.202016 58
-0.768891 1.24376 0.0249133 65
-1.11447 1.25365 0.0860926 53
-0.771685 1.24878 -0.0753522 71
-1.11704 1.25739 -0.0287528 55
-0.768 1.24376 -0.174938 85
-1.11636 1.25664 -0.143738 56
-0.765809 1.24117 -0.276176 67
-1.11437 1.25271 -0.260359 56
-0.760391 1.23474 -0.378923 59
-1.11725 1.25335 -0.379031 89
-0.753444 1.23357 0.325124 61
-1.11367 1.25687 0.440065 56
-0.75981 1.24355 0.224769 62
-1.11291 1.26035 0.319795 53
-0.75987 1.24318 0.124415 61
-1.10522 1.25515 0.200799 58
-0.759766 1.2435 0.024826 64
-1.10437 1.25592 0.085831 53
-0.757341 1.24001 -0.0745646 71
-1.10195 1.25405 -0.0285347 55
-0.759969 1.24578 -0.174634 82
-1.10976 1.26247 -0.143738 56
-0.760358 1.24739 -0.276652 64
-1.10616 1.25668 -0.259967 56
-0.753915 1.23871 -0.378923 59
-1.10399 1.25209 -0.376785 61
-0.751505 1.23475 0.325124 61
-1.10667 1.2534 0.438127 55
-0.757856 1.24474 0.224769 61
-1.10746 1.25862 0.318841 53
-0.755113 1.24025 0.123979 62
-1.1016 1.25502 0.200494 58
-0.756297 1.24269 0.0247824 68
-1.10074 1.25578 0.0857001 53
-0.756471 1.24346 -0.0746958 71
-1.09975 1.25597 -0.0285347 56
-0.755437 1.24273 -0.174025 85
-1.10426 1.26067 -0.143303 55
-0.751821 1.23822 -0.274271 68
-1.09907 1.25306 -0.258793 55
-0.750502 1.23796 -0.378276 59
-1.09556 1.24652 -0.374539 55
-0.742523 1.23449 0.324001 61
-1.10031 1.25898 0.438127 55
-0.748786 1.24446 0.223989 62
-1.09622 1.25867 0.317412 53
-0.747544 1.24192 0.123761 61
-1.08522 1.24956 0.198669 58
-0.749997 1.2465 0.0247824 64
-1.08759 1.254 0.0851768 53
-0.747598 1.243 -0.0744333 71
-1.08846 1.25587 -0.0284038 58
-0.750196 1.2488 -0.17433 83
-1.0946 1.26249 -0.142868 55
-0.749327 1.24832 -0.2757 65
-1.08924 1.25507 -0.25801 59
-0.745466 1.24381 -0.378923 61
-1.08742 1.25041 -0.373977 53
-0.739332 1.23357 0.32344 59
-1.09334 1.25545 0.436188 55
-0.744078 1.24153 0.223208 64
-1.0908 1.25688 0.316459 53
-0.744097 1.24109 0.123543 65
-1.08467 1.25332 0.198973 58
-0.742689 1.23923 0.0246079 67
-1.08376 1.25401 0.0850459 55
-0.744146 1.24216 -0.074302 71
-1.08462 1.25588 -0.0283602 58
-0.745471 1.24584 -0.173721 85
-1.08749 1.25876 -0.142215 55
-0.744633 1.24541 -0.274748 67
-1.08543 1.25511 -0.257618 59
-0.740823 1.24096 -0.37763 61
-1.08203 1.24863 -0.372854 53
-0.732647 1.23755 0.32344 59
-1.082 1.25569 0.43425 56
-0.737567 1.2454 0.223208 65
-1.0826 1.26072 0.315982 52
-0.735053 1.24068 0.123107 61
-1.06999 1.24958 0.197452 59
-0.737462 1.24525 0.0246515 65
-1.07067 1.2521 0.0845226 53
-0.736363 1.24389 -0.0741707 76
-1.06989 1.25207 -0.028142 56
-0.737677 1.24759 -0.173417 85
-1.07601 1.25877 -0.141563 56
-0.734362 1.24295 -0.273319 70
-1.07723 1.2589 -0.257227 61
-0.731865 1.24066 -0.376336 59
-1.07071 1.24874 -0.37117 55
-0.728231 1.2345 0.322317 59
-1.07823 1.25574 0.433603 55
-0.73414 1.24456 0.222818 61
-1.07559 1.25702 0.314552 53
-0.729096 1.23552 0.122454 62
-1.06781 1.25145 0.197452 59
-0.734019 1.24438 0.0246079 64
-1.06848 1.25397 0.0845226 55
-0.735457 1.24732 -0.074302 71
-1.06933 1.25583 -0.0281856 59
-0.727955 1.23604 -0.171592 86
-1.06895 1.25497 -0.140911 55
-0.729707 1.24 -0.272367 67
-1.06861 1.25329 -0.255661 61
-0.728477 1.23985 -0.37569 59
-1.06376 1.24507 -0.369485 55
-0.721325 1.23855 0.322317 61
-1.06828 1.25789 0.432311 55
-0.722432 1.23998 0.221257 64
-1.06718 1.26096 0.314076 53
-0.721148 1.2373 0.122236 62
-1.0546 1.24964 0.196235 59
-0.724763 1.24401 0.0245206 67
-1.05683 1.25402 0.08413 53
-0.724934 1.24481 -0.0739082 73
-1.05767 1.25587 -0.0280547 59
-0.722502 1.24211 -0.171896 86
-1.06054 1.25884 -0.140693 56
-0.724218 1.24605 -0.272843 67
-1.06043 1.25698 -0.255269 61
-0.719338 1.2396 -0.374397 59
-1.05385 1.24709 -0.368362 55
-0.715717 1.23335 0.320632 59
-1.05826 1.25056 0.42908 55
-0.720483 1.24111 0.221257 62
-1.05863 1.25533 0.312169 55
-0.716491 1.23424 0.1218 64
-1.04943 1.24751 0.195626 59
-0.720086 1.24095 0.0244334 67
-1.05003 1.24995 0.0837375 53
-0.720259 1.24175 -0.0736456 77
-1.05386 1.25581 -0.0280111 59
-0.718066 1.23894 -0.171287 88
-1.05352 1.25498 -0.140041 56
-0.720815 1.24519 -0.272367 67
-1.05186 1.25129 -0.253703 59
-0.717174 1.24085 -0.374397 61
-1.05032 1.24689 -0.3678 55
-0.70683 1.23285 0.319509 59
-1.05036 1.25405 0.428434 53
-0.711522 1.24058 0.220477 65
-1.05226 1.26067 0.312169 53
-0.710235 1.23785 0.1218 65
-1.04288 1.25299 0.195626 61
-0.711313 1.24024 0.0243461 68
-1.03867 1.24969 0.083345 53
-0.713748 1.2455 -0.0736456 76
-1.04589 1.25921 -0.0279675 59
-0.711569 1.24269 -0.171287 86
-1.04374 1.25665 -0.139606 56
-0.710853 1.24243 -0.270938 67
-1.04371 1.25489 -0.253312 59
-0.710884 1.24446 -0.374397 61
-1.04064 1.24864 -0.366677 56
-0.705883 1.2362 0.320071 58
-1.04506 1.25218 0.427141 53
-0.709355 1.24182 0.220477 67
-1.04827 1.26081 0.311693 55
-0.705606 1.23476 0.121364 61
-1.03593 1.24909 0.194714 61
-0.707693 1.23943 0.0243025 70
-1.03489 1.24958 0.0832142 53
-0.711573 1.24675 -0.0736456 76
-1.04049 1.25719 -0.0278802 61
-0.70449 1.2353 -0.17007 89
-1.03995 1.25656 -0.139388 55
-0.70747 1.24153 -0.270462 67
-1.03835 1.25291 -0.252529 59
-0.704918 1.23953 -0.372457 61
-1.03534 1.24671 -0.365554 56
-0.695601 1.23363 0.318386 59
-1.03519 1.2541 0.425849 55
-0.698993 1.23918 0.219306 68
-1.03696 1.26061 0.310263 53
-0.700137 1.24073 0.121582 58
-1.02441 1.24893 0.193801 61
-0.701194 1.24312 0.0243025 68
-1.02652 1.25324 0.0830833 53
-0.702587 1.2461 -0.0733831 76
-1.0305 1.25894 -0.027793 61
-0.695365 1.23477 -0.169462 90
-1.03019 1.25814 -0.138954 56
-0.699541 1.2432 -0.269986 68
-1.03178 1.25833 -0.252529 59
-0.696057 1.23899 -0.371163 59
-1.02392 1.24666 -0.36387 56
-0.693662 1.23473 0.318386 61
-1.03146 1.25405 0.425203 55
-0.695838 1.23813 0.218916 64
-1.03163 1.25863 0.30931 55
-0.695535 1.23761 0.121146 59
-1.0193 1.24671 0.193193 61
-0.695357 1.2378 0.0241716 67
-1.02297 1.25292 0.0829525 53
-0.696751 1.24079 -0.0729892 80
-1.01878 1.24914 -0.0275312 56
-0.693425 1.23586 -0.169462 89
-1.02483 1.25609 -0.138519 56
-0.693777 1.238 -0.268558 67
-1.02331 1.2525 -0.250962 61
-0.692717 1.23809 -0.370517 59
-1.02041 1.24639 -0.363308 56
-0.686008 1.23621 0.317824 61
-1.02203 1.25551 0.42391 55
-0.689345 1.24175 0.218916 65
-1.02059 1.25813 0.30788 55
-0.686847 1.23676 0.120711 65
-1.01119 1.2501 0.192888 61
-0.687872 1.23912 0.0241279 67
-1.01167 1.25244 0.08256 55
-0.690461 1.2443 -0.0729892 73
-1.0156 1.25817 -0.0276184 59
-0.683342 1.23296 -0.168549 88
-1.01375 1.25546 -0.137866 56
-0.687503 1.24149 -0.268558 71
-1.01518 1.25593 -0.250571 59
-0.686441 1.24158 -0.370517 59
-1.00772 1.24416 -0.361062 56
-0.682889 1.23515 0.317263 59
-1.01373 1.24981 0.421325 55
-0.683599 1.23647 0.217745 70
-1.01685 1.25801 0.307403 55
-0.682281 1.23359 0.120275 65
-1.00432 1.24608 0.191976 61
-0.686915 1.2425 0.0241716 65
-1.0032 1.24645 0.0820366 55
-0.688289 1.24551 -0.0729892 73
-1.00869 1.25411 -0.0274875 59
-0.681189 1.23415 -0.168549 88
-1.01156 1.25723 -0.137866 56
-0.685335 1.24269 -0.268558 68
-1.00832 1.25194 -0.249396 59
-0.67846 1.23219 -0.367284 59
-1.00708 1.24781 -0.361624 56
-0.676196 1.23883 0.317263 59
-1.00262 1.24947 0.419387 55
-0.678297 1.2422 0.218135 65
-1.00563 1.25758 0.305973 55
-0.675813 1.23715 0.120275 65
-0.994674 1.24745 0.191367 59
-0.675617 1.2373 0.0239971 70
-0.996657 1.25168 0.0820366 55
-0.677959 1.24263 -0.0725954 76
-0.997419 1.25352 -0.0273566 61
-0.669976 1.22898 -0.167332 89
-1.00007 1.25685 -0.137214 56
-0.675303 1.23979 -0.267129 68
-0.998664 1.25335 -0.248613 61
-0.673151 1.23785 -0.36793 59
-0.995957 1.24737 -0.359939 56
-0.669387 1.23144 0.315017 62
-1.00196 1.2531 0.420033 55
-0.673773 1.23904 0.217355 62
-1.00015 1.25568 0.30502 55
-0.672465 1.23614 0.120057 62
-0.992495 1.24919 0.191367 59
-0.672049 1.2364 0.0239534 70
-0.991356 1.24952 0.0817749 53
-0.675789 1.24382 -0.0725954 73
-0.995229 1.25526 -0.0273566 61
-0.670193 1.23451 -0.167941 88
-0.994769 1.2547 -0.136779 56
-0.673138 1.24097 -0.267129 67
-0.991851 1.2493 -0.247439 61
-0.665035 1.22852 -0.364697 59
-0.992256 1.2472 -0.359377 56
-0.665014 1.23934 0.31614 59
-0.989146 1.25094 0.417448 55
-0.664728 1.23831 0.216574 67
-0.990508 1.25705 0.304067 55
-0.664591 1.23756 0.119839 61
-0.981105 1.2487 0.190454 61
-0.662026 1.23329 0.0238225 74
-0.983034 1.2529 0.0816441 53
-0.666911 1.24294 -0.0723329 74
-0.98223 1.25277 -0.0271821 59
-0.656485 1.22499 -0.166115 89
-0.988186 1.25989 -0.136779 56
-0.665258 1.24243 -0.266653 68
-0.983547 1.25271 -0.247047 61
-0.660866 1.23624 -0.36599 59
-0.982469 1.24873 -0.358254 56
-0.659628 1.23394 0.314455 59
-0.98096 1.24509 0.414863 56
-0.661404 1.23729 0.216184 68
-0.98527 1.25492 0.303114 55
-0.658913 1.23213 0.119185 65
-0.978924 1.25041 0.190454 61
-0.661048 1.23665 0.0238662 73
-0.977758 1.25069 0.0813824 53
-0.663566 1.24189 -0.0722016 76
-0.976953 1.25055 -0.0270949 58
-0.656678 1.23051 -0.166724 88
-0.979827 1.25378 -0.135909 56
-0.658478 1.23492 -0.264748 64
-0.978304 1.25055 -0.246264 61
-0.658708 1.2374 -0.36599 59
-0.974252 1.2428 -0.356008 56
-0.652942 1.23749 0.314455 59
-0.971446 1.24641 0.413571 56
-0.651464 1.23418 0.215014 67
-0.975663 1.2562 0.302161 55
-0.652453 1.23556 0.119185 62
-0.969313 1.25161 0.189846 59
-0.652235 1.23567 0.0237789 73
-0.96813 1.25185 0.0811207 53
-0.657055 1.24535 -0.0722016 77
-0.967323 1.25171 -0.0270076 59
-0.647917 1.22954 -0.166115 88
-0.97172 1.25693 -0.135692 56
-0.650862 1.23618 -0.264272 64
-0.968927 1.25159 -0.245481 62
-0.647734 1.23227 -0.363404 58
-0.963235 1.24212 -0.354324 56
-0.649866 1.23635 0.313894 59
-0.96332 1.2405 0.410986 56
-0.649525 1.2352 0.215014 68
-0.971961 1.25596 0.301684 55
-0.645667 1.22788 0.118314 59
-0.962779 1.24725 0.188933 61
-0.650077 1.23681 0.0237789 73
-0.963102 1.24943 0.0808591 53
-0.65488 1.2465 -0.0722016 76
-0.963606 1.25142 -0.026964 61
-0.643682 1.22616 -0.165507 89
-0.967999 1.25666 -0.135474 56
-0.650978 1.24166 -0.265224 70
-0.962199 1.24743 -0.244307 61
-0.647818 1.23768 -0.364697 59
-0.958291 1.23979 -0.353201 56
-0.640024 1.23325 0.312209 61
-0.958507 1.24727 0.411632 56
-0.644184 1.24078 0.215404 68
-0.964094 1.25892 0.301207 55
-0.64059 1.23334 0.118532 59
-0.953212 1.24834 0.188325 61
-0.64266 1.23786 0.0237353 73
-0.953507 1.25049 0.0805974 52
-0.64605 1.24547 -0.071939 76
-0.954217 1.25231 -0.0268767 61
-0.639533 1.23392 -0.166115 89
-0.953829 1.25182 -0.134387 55
-0.64018 1.23622 -0.26332 64
-0.951143 1.24657 -0.243132 61
-0.640438 1.2388 -0.36405 59
-0.951787 1.24479 -0.353201 56
-0.638987 1.23653 0.312771 58
-0.95338 1.24511 0.41034 56
-0.640886 1.23971 0.215014 68
-0.958686 1.25688 0.300254 55
-0.639578 1.23667 0.11875 64
-0.946506 1.24409 0.187412 61
-0.639137 1.23687 0.0236916 71
-0.94829 1.24819 0.0803357 52
-0.642732 1.24438 -0.0718078 76
-0.948995 1.25 -0.0267894 61
-0.635106 1.23062 -0.165507 88
-0.948619 1.24953 -0.133952 56
-0.638021 1.23733 -0.26332 65
-0.950466 1.25019 -0.243524 61
-0.636956 1.23788 -0.363404 59
-0.943683 1.23871 -0.350955 58
-0.631182 1.2378 0.312209 58
-0.942238 1.24449 0.408401 56
-0.633049 1.24096 0.214623 68
-0.94764 1.25602 0.298825 55
-0.627229 1.22901 0.11766 61
-0.938263 1.24721 0.187108 61
-0.631518 1.23797 0.023648 73
-0.938512 1.24932 0.080074 52
-0.635075 1.2455 -0.0716765 79
-0.939205 1.25113 -0.0267022 61
-0.626191 1.22962 -0.164898 89
-0.937558 1.24852 -0.1333 56
-0.630206 1.23858 -0.262844 61
-0.940927 1.25121 -0.242741 61
-0.627191 1.23473 -0.361464 59
-0.938439 1.24574 -0.351516 58
-0.628136 1.23661 0.311648 59
-0.940064 1.24613 0.408401 56
-0.628866 1.23754 0.213843 68
-0.945446 1.25767 0.298825 55
-0.626209 1.23233 0.117878 61
-0.934808 1.2467 0.186804 61
-0.628227 1.23685 0.0236044 73
-0.932041 1.24481 0.0796815 55
-0.630645 1.24216 -0.0714139 79
-0.93702 1.25277 -0.0267022 61
-0.623138 1.22839 -0.164594 89
-0.935378 1.25015 -0.1333 56
-0.62583 1.2353 -0.261891 64
-0.934282 1.24694 -0.241566 62
-0.627211 1.24014 -0.362757 61
-0.933544 1.24333 -0.350393 56
-0.619474 1.23553 0.310525 59
-0.930844 1.24701 0.407109 56
-0.621273 1.23861 0.213453 70
-0.934656 1.25654 0.297395 55
-0.618849 1.23326 0.11766 68
-0.926783 1.24959 0.186499 61
-0.618603 1.2333 0.0234735 74
-0.924018 1.24767 0.0795507 53
-0.623016 1.24321 -0.0712827 79
-0.923201 1.24747 -0.026484 62
-0.615589 1.22941 -0.16429 86
-0.925844 1.25104 -0.132865 56
-0.619569 1.23845 -0.261891 64
-0.926264 1.24983 -0.241175 62
-0.616619 1.23465 -0.360171 59
-0.924104 1.2443 -0.34927 58
-0.618402 1.23879 0.311086 59
-0.927219 1.2467 0.406463 56
-0.620211 1.2419 0.213843 70
-0.932242 1.25834 0.297395 55
-0.617806 1.23656 0.117878 67
-0.917196 1.24125 0.184978 61
-0.617348 1.23673 0.0235171 76
-0.918862 1.24527 0.079289 55
-0.61862 1.23982 -0.0710201 79
-0.921022 1.24908 -0.026484 61
-0.613443 1.23048 -0.16429 86
-0.919206 1.24665 -0.132212 56
-0.617407 1.23953 -0.261891 64
-0.924081 1.25145 -0.241175 62
-0.61532 1.238 -0.360817 59
-0.917565 1.24004 -0.347585 58
-0.608469 1.23556 0.309402 59
-0.914712 1.24393 0.403878 55
-0.610216 1.23859 0.212672 71
-0.919814 1.2553 0.295488 56
-0.604514 1.22648 0.116571 67
-0.908997 1.2442 0.184674 61
-0.608659 1.23545 0.0234299 74
-0.912111 1.25023 0.079289 55
-0.61212 1.24305 -0.0710201 77
-0.914251 1.25404 -0.026484 64
-0.606776 1.23378 -0.16429 86
-0.911192 1.24944 -0.131995 56
-0.607451 1.23624 -0.260463 64
-0.911666 1.24831 -0.239608 64
-0.606707 1.23686 -0.359524 59
-0.909398 1.24303 -0.347024 58
-0.604386 1.23213 0.308278 58
-0.911106 1.24359 0.403232 56
-0.608269 1.23955 0.212672 71
-0.916168 1.25493 0.295012 55
-0.604562 1.232 0.117007 61
-0.907041 1.24562 0.184674 61
-0.604305 1.23202 0.0233426 74
-0.905723 1.24561 0.0788964 56
-0.60995 1.24411 -0.0710201 77
-0.90616 1.24757 -0.0263095 65
-0.603748 1.23251 -0.163986 86
-0.90901 1.25103 -0.131995 58
-0.606369 1.2395 -0.260939 64
-0.908027 1.24791 -0.239217 64
-0.604547 1.23792 -0.359524 59
-0.904561 1.24053 -0.345901 58
-0.597926 1.23528 0.308278 58
-0.90053 1.24233 0.401293 55
-0.601771 1.24272 0.212672 71
-0.906918 1.25558 0.294059 56
-0.595068 1.22832 0.116353 64
-0.897594 1.24634 0.184065 62
-0.598062 1.23507 0.0233426 73
-0.897725 1.24832 0.0787656 56
-0.601474 1.24269 -0.0707576 77
-0.898369 1.25011 -0.0262659 64
-0.595131 1.23118 -0.163377 90
-0.898287 1.24956 -0.131343 58
-0.600087 1.24256 -0.260939 65
-0.90148 1.25265 -0.239217 64
-0.596181 1.23661 -0.358231 59
-0.895191 1.24131 -0.344778 58
-0.594929 1.23402 0.307717 58
-0.89836 1.2439 0.401293 55
-0.59318 1.23041 0.210331 71
-0.904726 1.25716 0.294059 55
-0.592923 1.22936 0.116353 65
-0.892512 1.24388 0.183457 62
-0.595905 1.23611 0.0233426 73
-0.894084 1.24786 0.0786348 56
-0.599304 1.24373 -0.0707576 79
-0.894724 1.24965 -0.0262222 62
-0.592981 1.23222 -0.163377 85
-0.896104 1.25113 -0.131343 58
-0.594734 1.23696 -0.25951 67
-0.892068 1.24421 -0.237259 64
-0.592979 1.23547 -0.357584 59
-0.891595 1.24089 -0.344216 58
-0.585113 1.23062 0.306032 58
-0.891834 1.24859 0.401293 55
-0.589905 1.2402 0.211502 74
-0.893843 1.25589 0.292629 56
-0.58541 1.2302 0.116135 68
-0.880217 1.24046 0.18224 61
-0.588353 1.23695 0.023299 71
-0.883189 1.24642 0.0782422 56
-0.590644 1.24234 -0.070495 80
-0.885267 1.25025 -0.026135 64
-0.586521 1.23531 -0.163377 89
-0.886649 1.25175 -0.130908 58
-0.588249 1.24006 -0.25951 67
-0.884106 1.24685 -0.236868 64
-0.58547 1.23638 -0.356938 59
-0.883668 1.24356 -0.343655 58
-0.582138 1.22934 0.305471 59
-0.882621 1.24032 0.398062 56
-0.583522 1.23229 0.209941 71
-0.890224 1.25545 0.292152 56
-0.581135 1.22671 0.115699 68
-0.876612 1.23997 0.181936 61
-0.580856 1.22668 0.0230808 77
-0.87812 1.24389 0.0779806 56
-0.58741 1.24111 -0.0703637 79
-0.878742 1.24568 -0.0260041 67
-0.582248 1.23184 -0.162769 89
-0.881579 1.24923 -0.130473 58
-0.583993 1.23664 -0.258558 64
-0.879067 1.24437 -0.236085 64
-0.583312 1.2374 -0.356938 61
-0.877255 1.23915 -0.34197 58
-0.576507 1.23468 0.306032 58
-0.874719 1.24296 0.397416 55
-0.576019 1.23309 0.20955 74
-0.877977 1.25208 0.290246 56
-0.574704 1.22974 0.115699 68
-0.870107 1.24454 0.181936 61
-0.576537 1.23423 0.0231681 76
-0.870159 1.24643 0.0778497 55
-0.580903 1.24417 -0.0703637 79
-0.869334 1.24617 -0.0259168 65
-0.575791 1.23487 -0.162769 88
-0.872162 1.24975 -0.130038 58
-0.578544 1.24191 -0.259034 64
-0.869698 1.24492 -0.235302 64
-0.573777 1.23386 -0.354998 59
-0.869351 1.24174 -0.341409 58
-0.572517 1.23116 0.304909 58
-0.871155 1.24251 0.39677 55
-0.570749 1.22738 0.20838 76
-0.868731 1.24357 0.287863 56
-0.571508 1.22848 0.115481 67
-0.86366 1.23997 0.181023 65
-0.57333 1.23297 0.0231244 74
-0.86655 1.2459 0.0777189 56
-0.576631 1.24066 -0.0701012 79
-0.865725 1.24564 -0.0258732 65
-0.57155 1.23137 -0.16216 89
-0.868551 1.24923 -0.12982 58
-0.575345 1.24069 -0.258558 64
-0.866107 1.24441 -0.23491 64
-0.57061 1.23267 -0.354351 59
-0.862982 1.23727 -0.339724 59
-0.565847 1.23424 0.304909 58
-0.864637 1.24705 0.39677 56
-0.564314 1.23035 0.20838 74
-0.862208 1.2481 0.287863 56
-0.565068 1.23146 0.115481 71
-0.854327 1.24039 0.180414 65
-0.567906 1.23823 0.0231681 74
-0.857173 1.24632 0.0774572 56
-0.568872 1.24149 -0.0699699 82
-0.853502 1.24193 -0.0256987 64
-0.565094 1.23435 -0.16216 90
-0.858946 1.24982 -0.129386 58
-0.563748 1.23252 -0.256177 65
-0.855361 1.24284 -0.233736 62
-0.56615 1.24003 -0.355644 59
-0.852323 1.23577 -0.338039 58
-0.564701 1.23744 0.305471 58
-0.859702 1.2446 0.395477 55
-0.562166 1.23133 0.20838 76
-0.857015 1.24572 0.28691 56
-0.560853 1.22791 0.115046 77
-0.850751 1.23984 0.18011 64
-0.562422 1.23249 0.0230372 76
-0.853578 1.24576 0.0773264 56
-0.566705 1.24248 -0.0699699 80
-0.851333 1.24342 -0.0256987 64
-0.560886 1.23081 -0.161552 88
-0.852522 1.24516 -0.128733 59
-0.56464 1.24021 -0.257606 67
-0.848982 1.23823 -0.232561 62
-0.559782 1.23232 -0.353058 59
-0.851551 1.23926 -0.338601 58
-0.555007 1.23381 0.303786 58
-0.850219 1.24525 0.394185 55
-0.554485 1.2321 0.20799 76
-0.847707 1.24614 0.285957 56
-0.553181 1.22865 0.114828 73
-0.841231 1.24033 0.179502 65
-0.555961 1.23542 0.0230372 76
-0.844013 1.24623 0.0770647 56
-0.559169 1.24315 -0.0698386 79
-0.841778 1.24387 -0.0256114 64
-0.555233 1.23609 -0.161856 90
-0.845991 1.24961 -0.128733 59
-0.556919 1.241 -0.25713 65
-0.842487 1.24266 -0.232561 62
-0.553322 1.23523 -0.353058 59
-0.842083 1.23983 -0.337478 59
-0.553068 1.23468 0.303786 58
-0.846679 1.24474 0.393539 56
-0.549526 1.22621 0.206819 76
-0.842764 1.24357 0.285003 56
-0.551036 1.22962 0.114828 74
-0.837886 1.2396 0.179198 65
-0.550745 1.22954 0.0229063 73
-0.837844 1.24136 0.0766722 56
-0.555981 1.24184 -0.0697074 80
-0.838202 1.24327 -0.0255678 65
-0.550258 1.23016 -0.160943 88
-0.841011 1.24696 -0.128298 59
-0.553754 1.23973 -0.256653 67
-0.837539 1.24005 -0.231778 64
-0.548222 1.22958 -0.351118 61
-0.834646 1.2331 -0.335232 59
-0.54365 1.23087 0.302102 58
-0.839014 1.24701 0.392892 56
-0.544094 1.23133 0.207209 76
-0.83234 1.24171 0.283574 56
-0.544805 1.23239 0.114828 76
-0.825842 1.23573 0.177981 67
-0.543507 1.23003 0.0228627 79
-0.827156 1.23951 0.0762797 55
-0.550477 1.24702 -0.0698386 80
-0.829112 1.24335 -0.0254805 67
-0.544808 1.2353 -0.161247 86
-0.831693 1.24722 -0.127863 59
-0.546485 1.24027 -0.256177 62
-0.831035 1.24442 -0.231778 65
-0.541991 1.23234 -0.351118 61
-0.828178 1.23745 -0.335232 59
-0.539545 1.22736 0.300979 59
-0.835485 1.24647 0.392246 56
-0.539961 1.22775 0.206429 77
-0.831323 1.24535 0.28405 56
-0.539652 1.2265 0.114174 80
-0.826448 1.24129 0.178589 65
-0.540141 1.22878 0.022819 76
-0.824991 1.24096 0.0762797 56
-0.546296 1.24341 -0.0695761 77
-0.822771 1.23856 -0.0253496 65
-0.540661 1.2317 -0.160639 86
-0.82813 1.2466 -0.127646 59
-0.543336 1.23898 -0.255701 67
-0.826113 1.24176 -0.230995 67
-0.537693 1.22895 -0.349825 59
-0.821943 1.23283 -0.333547 59
-0.532896 1.23026 0.300979 58
-0.827388 1.24896 0.3916 55
-0.529392 1.22159 0.204868 77
-0.824791 1.24968 0.28405 56
-0.531031 1.22483 0.113738 76
-0.81972 1.24575 0.178589 67
-0.5337 1.23159 0.022819 74
-0.815509 1.24124 0.076018 56
-0.536808 1.23938 -0.0691823 80
-0.820193 1.24925 -0.0254805 67
-0.530058 1.2255 -0.159422 88
-0.821592 1.25091 -0.127646 59
-0.533711 1.23514 -0.254273 62
-0.818237 1.24401 -0.230604 67
-0.529343 1.22731 -0.348531 59
-0.819302 1.24334 -0.335232 58
-0.531926 1.23333 0.30154 59
-0.81986 1.24236 0.389015 56
-0.5304 1.22922 0.206038 77
-0.818544 1.24498 0.28262 56
-0.529877 1.22804 0.113956 77
-0.810925 1.23668 0.177068 68
-0.532537 1.23481 0.0228627 80
-0.81081 1.23835 0.0757563 56
-0.533658 1.23802 -0.069051 82
-0.811137 1.24024 -0.0252624 68
-0.53107 1.23317 -0.160335 88
-0.815297 1.24611 -0.126994 59
-0.532522 1.23832 -0.254749 61
-0.816064 1.24544 -0.230604 67
-0.52815 1.23045 -0.349178 59
-0.810629 1.23447 -0.332424 59
-0.522609 1.22937 0.299856 58
-0.814888 1.24851 0.389661 56
-0.521065 1.22516 0.204868 76
-0.812233 1.24911 0.28262 56
-0.520736 1.22383 0.113302 74
-0.804438 1.24091 0.177068 68
-0.522377 1.22829 0.0226881 82
-0.804315 1.24258 0.0757563 56
-0.525221 1.2362 -0.0687884 80
-0.807578 1.24852 -0.0253496 67
-0.520737 1.22679 -0.159118 85
-0.806042 1.24619 -0.126559 59
-0.526247 1.241 -0.254749 67
-0.806834 1.24556 -0.229821 68
-0.520038 1.22866 -0.347885 59
-0.804154 1.2387 -0.332424 59
-0.521409 1.23253 0.300417 58
-0.808738 1.24387 0.387723 58
-0.517965 1.2238 0.204477 80
-0.805811 1.2445 0.281191 56
-0.521506 1.23162 0.113956 71
-0.798213 1.23607 0.176155 68
-0.520989 1.23159 0.0227318 80
-0.799426 1.23979 0.0754946 56
-0.523063 1.23711 -0.0687884 82
-0.799955 1.24154 -0.0251751 70
-0.518595 1.2277 -0.159118 86
-0.801154 1.24341 -0.126124 59
-0.523129 1.23965 -0.254273 67
-0.800622 1.24075 -0.228646 68
-0.517678 1.22966 -0.347885 61
-0.796672 1.23193 -0.330178 59
-0.512864 1.23083 0.299294 59
