# .PCD v0.7 - Point Cloud Data file format
VERSION 0.7
FIELDS x y z intensity
SIZE 4 4 4 4
TYPE F F F F
COUNT 1 1 1 1
WIDTH 1605
HEIGHT 1
VIEWPOINT 0 0 0 1 0 0 0
POINTS 1605
DATA ascii
-0.770475 0.13691 -0.172389 52
-2.62771 0.96687 0.637333 50
-2.78842 0.490621 0.748305 49
-2.64706 0.973487 0.440173 49
-2.80801 0.499031 0.54713 52
-2.81372 0.504049 0.346225 56
-1.44766 0.531732 0.0263095 4
-2.82543 0.508145 0.148634 62
-1.43234 0.527218 -0.182848 4
-0.643762 0.119769 -0.0541462 88
-0.774735 0.142618 -0.119413 55
-0.76495 0.140094 -0.171266 52
-2.62602 0.971455 0.637333 50
-2.78518 0.495068 0.747659 49
-2.64304 0.977248 0.439783 50
-2.80222 0.503561 0.546177 49
-2.81039 0.508522 0.345921 55
-1.45132 0.536247 0.0263968 8
-2.82208 0.512634 0.148503 53
-1.44072 0.53317 -0.184065 4
-0.641101 0.12045 -0.0539288 85
-0.776915 0.144406 -0.119804 55
-0.767102 0.141857 -0.171827 52
-2.62073 0.985649 0.637333 50
-2.78009 0.509699 0.747013 50
-2.63309 0.989794 0.439002 50
-2.80196 0.518669 0.546653 52
-2.80516 0.523269 0.345617 52
-1.45317 0.5456 0.026484 4
-2.81927 0.527895 0.148503 53
-1.43317 0.539205 -0.183457 4
-0.64291 0.12426 -0.0541462 83
-1.30974 0.493154 -0.264748 4
-0.778576 0.148921 -0.120196 55
-0.768719 0.146446 -0.172389 50
-2.62373 0.991489 0.638457 50
-2.78157 0.514986 0.747659 50
-2.63153 0.993928 0.439002 52
-2.80105 0.523558 0.546653 52
-1.48207 0.559138 0.135527 4
-2.80189 0.52722 0.345313 50
-1.44754 0.546366 0.0263968 4
-2.81107 0.530945 0.148111 52
-0.628544 0.236527 -0.0334753 58
-1.43696 0.543215 -0.184065 3
-0.637797 0.124464 -0.0537113 79
-1.31347 0.497182 -0.265701 3
-0.775888 0.149826 -0.119804 53
-0.763698 0.146764 -0.171266 52
-2.61396 1.00346 0.637333 52
-2.77893 0.529058 0.747659 50
-2.62629 1.00769 0.439002 53
-2.79354 0.536811 0.5457 50
-1.47457 0.564846 0.135091 4
-2.79666 0.541416 0.345008 50
-1.44243 0.552789 0.0263531 4
-2.80826 0.545656 0.148111 52
-0.622678 0.237913 -0.0332127 56
-1.42484 0.547165 -0.182848 4
-0.639604 0.128162 -0.0539288 79
-1.30635 0.502058 -0.264748 3
-0.775093 0.153887 -0.119804 53
-0.767705 0.151676 -0.172389 52
-2.61238 1.00757 0.637333 50
-2.778 0.533907 0.747659 50
-2.62683 1.01317 0.439392 55
-2.79501 0.542149 0.546177 50
-1.47358 0.567419 0.135091 4
-2.79571 0.546296 0.345008 49
-1.44612 0.557107 0.0264404 4
-2.8073 0.550557 0.148111 53
-0.626919 0.2408 -0.0334753 58
-1.42156 0.548755 -0.182544 4
-0.641824 0.129754 -0.0541462 79
-1.30319 0.50345 -0.264272 4
-0.772399 0.154769 -0.119413 53
-0.762655 0.152092 -0.171266 50
-2.61125 1.02392 0.638457 50
-2.76796 0.547536 0.74572 45
-2.61901 1.02646 0.439002 55
-2.78963 0.556787 0.5457 50
-1.46817 0.574474 0.134874 4
-2.79028 0.560929 0.344704 49
-1.44541 0.565836 0.026484 4
-2.80428 0.565738 0.148111 55
-0.623283 0.243276 -0.033344 58
-1.43012 0.560979 -0.184065 4
-0.638671 0.132736 -0.0539288 74
-1.30729 0.513191 -0.265701 3
-0.771578 0.158811 -0.119413 53
-0.992257 0.389938 -0.276109 4
-0.76421 0.156691 -0.171827 50
-2.60963 1.02803 0.638457 50
-2.77174 0.553304 0.747013 49
-2.6151 1.02967 0.438612 53
-2.78625 0.561175 0.545224 49
-1.46949 0.577949 0.135091 4
-2.79183 0.5658 0.345008 53
-1.44675 0.569276 0.0265277 4
-2.81073 0.571622 0.148503 61
-0.620536 0.243447 -0.0332127 58
-1.42231 0.56049 -0.183153 4
-0.640879 0.134343 -0.0541462 76
-1.30183 0.513666 -0.264748 4
-0.7713 0.160158 -0.119413 53
-0.996064 0.39345 -0.277403 4
-0.763963 0.157891 -0.171827 52
-2.60422 1.04168 0.638457 50
-2.76654 0.566845 0.746366 50
-2.60738 1.04243 0.438222 53
-2.78337 0.57527 0.545224 50
-1.47117 0.58723 0.135527 4
-2.79368 0.581413 0.345617 55
-1.43689 0.573804 0.0263968 4
-2.81259 0.587344 0.148765 80
-0.626205 0.249479 -0.0336066 58
-1.42166 0.568853 -0.183457 4
-0.637729 0.137191 -0.0539288 76
-1.30605 0.522992 -0.266177 3
-0.772869 0.164694 -0.119804 53
-0.99406 0.398486 -0.277403 4
-0.765512 0.16238 -0.172389 52
-2.60239 1.04622 0.638457 50
-2.76554 0.571673 0.746366 50
-2.60556 1.04698 0.438222 53
-2.78226 0.580612 0.545224 52
-1.46783 0.588868 0.135309 4
-2.79024 0.585783 0.345313 56
-1.44274 0.579362 0.0265277 4
-2.80911 0.591741 0.148634 74
-0.6304 0.252437 -0.0338691 58
-1.41837 0.570406 -0.183153 4
-0.637488 0.138304 -0.0539288 71
-1.30741 0.52619 -0.266653 3
-0.770163 0.165539 -0.119413 53
-0.993293 0.400394 -0.277403 4
-0.765228 0.163715 -0.172389 52
-2.59895 1.06121 0.639018 50
-2.75768 0.585632 0.745074 49
-2.60443 1.06293 0.439002 52
-2.77438 0.594153 0.544271 49
-1.46923 0.598684 0.135745 4
-2.78945 0.60139 0.345617 58
-1.44431 0.588799 0.0266149 4
-2.80587 0.606932 0.148634 86
-0.626758 0.254789 -0.0337378 58
-1.42445 0.581833 -0.18437 4
-0.636755 0.14164 -0.0539288 70
-1.30681 0.534186 -0.267129 4
-0.769286 0.169569 -0.119413 52
-0.993417 0.406507 -0.278049 3
-0.764331 0.167853 -0.172389 50
-2.59728 1.06529 0.639018 50
-2.75902 0.590946 0.74572 50
-2.60504 1.06796 0.439392 52
-2.77814 0.600022 0.545224 50
-1.46358 0.599356 0.135309 4
-2.78365 0.604725 0.345008 56
-1.44097 0.59037 0.0265713 4
-2.80247 0.610811 0.148503 62
-0.626313 0.255883 -0.0337378 58
-1.42123 0.583126 -0.184065 4
-0.638941 0.143278 -0.0541462 68
-1.30361 0.535532 -0.266653 4
-0.768989 0.170911 -0.119413 52
-0.999403 0.411005 -0.279989 4
-0.766448 0.169565 -0.17295 50
-2.59167 1.07887 0.639018 49
-2.75599 0.604903 0.74572 50
-2.59485 1.07968 0.438612 52
-2.77507 0.614076 0.545224 50
-1.46512 0.608671 0.135745 4
-2.78529 0.620363 0.345617 53
-1.4472 0.601501 0.0267458 4
-2.79193 0.623855 0.148111 55
-0.627314 0.26001 -0.0338691 58
-0.677 0.155229 -0.0115186 3
-1.41587 0.589603 -0.183761 3
-0.640639 0.14705 -0.0543637 67
-1.30768 0.544962 -0.268081 3
-0.770494 0.175469 -0.119804 52
-0.995082 0.415125 -0.279342 3
-0.76555 0.173576 -0.17295 52
-2.75257 0.609195 0.745074 49
-2.59296 1.08421 0.438612 50
-2.77399 0.618918 0.545224 49
-1.46636 0.612189 0.135963 4
-2.77694 0.623604 0.344704 49
-1.43692 0.600164 0.0265713 4
-2.7884 0.628182 0.14798 55
-0.626859 0.261104 -0.0338691 58
-0.681606 0.157503 -0.0116058 3
-1.41484 0.592073 -0.183761 4
-0.640382 0.148168 -0.0543637 65
-1.29767 0.543442 -0.266177 4
-0.767777 0.176276 -0.119413 52
-0.994356 0.416861 -0.279342 3
-0.767624 0.17544 -0.173512 50
-2.74699 0.623068 0.744428 49
-2.58952 1.09874 0.439002 50
-2.76593 0.632348 0.544271 49
-1.46772 0.621805 0.136399 4
-2.77122 0.637583 0.3444 50
-1.44066 0.610612 0.0267022 4
-2.79237 0.644446 0.148372 59
-0.62314 0.263515 -0.0337378 58
-0.6759 0.159952 -0.0115186 3
-1.41857 0.602389 -0.184674 4
-0.639571 0.15163 -0.0543637 65
-1.29029 0.548305 -0.265224 3
-0.764436 0.179743 -0.119021 52
-0.983276 0.418269 -0.276756 4
-0.766695 0.179457 -0.173512 50
-2.74354 0.627328 0.743782 49
-2.58987 1.10422 0.439392 52
-2.7671 0.638205 0.544747 49
-1.46663 0.624366 0.136399 4
-2.7701 0.642419 0.3444 59
-1.43029 0.609449 0.0265277 8
-2.79124 0.649318 0.148372 61
-0.62727 0.266565 -0.0340004 58
-0.685361 0.163384 -0.0116931 3
-1.41752 0.604864 -0.184674 4
-0.636878 0.152185 -0.0541462 64
-1.28933 0.550556 -0.265224 4
-0.761715 0.180522 -0.11863 50
-0.986909 0.422061 -0.278049 4
-0.761631 0.179705 -0.172389 50
-2.74246 0.642709 0.744428 50
-2.76133 0.652125 0.544271 50
-1.45637 0.629322 0.135745 4
-2.769 0.657967 0.344704 76
-1.43167 0.618918 0.0266149 4
-2.78769 0.664411 0.148372 96
-0.621285 0.267859 -0.0337378 58
-0.682035 0.166513 -0.0116495 3
-1.40967 0.610548 -0.184065 4
-0.638496 0.156092 -0.0543637 64
-1.28634 0.557524 -0.265224 3
-0.765566 0.185642 -0.119413 52
-0.980258 0.425294 -0.276756 4
-0.765391 0.184938 -0.173512 50
-2.73899 0.646944 0.743782 50
-2.76258 0.657507 0.544747 52
-1.45984 0.633851 0.136181 4
-2.77279 0.663462 0.345313 73
-1.44204 0.626405 0.0268331 4
-2.77935 0.667053 0.14798 114
-0.625394 0.270937 -0.0340004 58
-1.41781 0.616729 -0.185282 4
-0.640646 0.157784 -0.0545811 64
-1.28986 0.561733 -0.266177 3
-0.762839 0.186407 -0.119021 50
-0.762729 0.185579 -0.17295 50
-2.84706 1.25594 0.709209 27
-2.73802 0.661362 0.744428 45
-2.71625 1.19761 0.463586 15
-2.75444 0.670329 0.543794 49
-1.45889 0.642237 0.136399 4
-2.76446 0.676799 0.344704 79
-1.43199 0.630667 0.0267022 4
-2.7734 0.681005 0.147849 109
-0.623967 0.274208 -0.0340004 58
-1.40548 0.620129 -0.184065 4
-0.639811 0.161136 -0.0545811 64
-1.28251 0.566267 -0.265224 4
-0.764251 0.190982 -0.119413 50
-0.761747 0.18957 -0.17295 50
-2.82037 1.25004 0.703032 29
-2.73687 0.666139 0.744428 33
-2.72544 1.20736 0.465537 11
-2.75315 0.675616 0.543794 50
-1.45777 0.644782 0.136399 4
-2.76568 0.682214 0.345008 67
-1.43307 0.634429 0.0267458 4
-2.7722 0.685844 0.147849 104
-0.625769 0.27631 -0.0341317 58
-1.41347 0.626612 -0.185282 4
-0.639528 0.162252 -0.0545811 62
-1.28825 0.571497 -0.266653 3
-0.761519 0.191728 -0.119021 50
-0.763781 0.191477 -0.173512 49
-2.76469 1.24328 0.690679 24
-2.73088 0.680358 0.743782 49
-2.71662 1.22107 0.465147 12
-2.75196 0.690615 0.544271 50
-1.44517 0.648573 0.135527 4
-2.75954 0.696564 0.344704 76
-1.42517 0.639872 0.0266585 4
-2.76603 0.700225 0.147718 104
-0.619761 0.277532 -0.0338691 58
-1.41458 0.636291 -0.185891 4
-0.636255 0.164991 -0.0543637 59
-1.28066 0.576439 -0.265701 3
-0.762899 0.196313 -0.119413 50
-2.74276 1.23859 0.685625 53
-2.72734 0.684539 0.743135 45
-2.72595 1.23042 0.467098 18
-2.74837 0.69482 0.543794 50
-1.45539 0.656223 0.136617 4
-2.75845 0.700898 0.344704 73
-1.4286 0.644418 0.0267458 8
-2.76493 0.704569 0.147718 107
-0.623825 0.280672 -0.0341317 58
-1.42036 0.641582 -0.186804 4
-0.63838 0.166713 -0.0545811 59
-1.28189 0.579687 -0.266177 3
-0.769737 0.199459 -0.120587 50
-2.72959 1.24988 0.68394 47
-2.72852 0.699526 0.744428 44
-2.71273 1.24159 0.465928 53
-2.74481 0.708722 0.543794 50
-1.45205 0.663581 0.136617 4
-2.75234 0.714712 0.3444 86
-1.42305 0.6506 0.0267022 4
-2.76845 0.720912 0.148111 102
-0.620078 0.282893 -0.0340004 58
-1.41022 0.645905 -0.185891 4
-0.635087 0.169429 -0.0543637 59
-1.27894 0.586168 -0.266177 4
-0.763901 0.202252 -0.119804 52
-0.770823 0.203221 -0.175758 50
-2.70086 1.24242 0.677202 29
-2.72496 0.703687 0.743782 42
-2.68813 1.236 0.462025 30
-2.74345 0.71399 0.543794 50
-1.44636 0.664032 0.136181 4
-2.75349 0.720138 0.344704 82
-1.42407 0.654376 0.0267458 4
-2.76236 0.724484 0.147849 107
-0.626385 0.287109 -0.0343942 58
-1.4181 0.652522 -0.187108 4
-0.639611 0.171794 -0.0547986 58
-1.27123 0.585313 -0.264748 4
-0.765936 0.204206 -0.120196 50
-0.768108 0.203955 -0.175197 49
-2.67423 1.24773 0.672148 29
-2.72578 0.719645 0.745074 44
-2.68364 1.25157 0.462416 29
-2.74442 0.729598 0.544747 52
-1.44952 0.675008 0.136835 4
-2.75195 0.735662 0.345008 65
-1.42515 0.663939 0.0268331 4
-2.7584 0.739419 0.147849 113
-0.624873 0.290385 -0.0343942 58
-1.4123 0.659134 -0.186804 4
-0.638702 0.175141 -0.0547986 58
-1.26805 0.592183 -0.264748 4
-0.767243 0.208848 -0.120587 49
-0.766994 0.208108 -0.175197 49
-2.65462 1.24365 0.667656 53
-2.71985 0.723169 0.743782 49
-2.65037 1.24111 0.456953 32
-2.74551 0.735017 0.545224 50
-1.44834 0.677537 0.136835 4
-2.74839 0.739343 0.344704 53
-1.42399 0.666425 0.0268331 4
-2.76206 0.745043 0.148111 90
-0.617585 0.288294 -0.0340004 58
-1.40453 0.658186 -0.185891 4
-0.638396 0.176256 -0.0547986 56
-1.26923 0.59544 -0.265224 4
-0.766877 0.210187 -0.120587 50
-0.766666 0.209312 -0.175197 49
-2.65687 1.26172 0.669902 59
-2.71849 0.737554 0.744428 45
-2.64607 1.25603 0.457343 58
-2.73939 0.748261 0.544747 50
-1.45164 0.688065 0.137488 4
-2.74209 0.753071 0.3444 50
-1.4206 0.673624 0.0268331 8
-2.76293 0.760813 0.148372 61
-0.618322 0.292596 -0.0341317 58
-1.41002 0.669798 -0.187108 4
-0.635062 0.178938 -0.0545811 56
-1.2662 0.601856 -0.265224 3
-0.765559 0.213324 -0.175197 49
-2.66126 1.26951 0.671587 59
-2.71254 0.741033 0.743135 47
-2.6461 1.26171 0.457733 58
-2.73558 0.752872 0.544271 50
-1.44369 0.687379 0.136835 4
-2.74556 0.75917 0.345008 55
-1.41705 0.675273 0.0267894 4
-2.75679 0.764308 0.148111 56
-0.624568 0.296904 -0.0345255 56
-1.40214 0.669046 -0.186195 4
-0.63955 0.18137 -0.055016 56
-1.26072 0.601946 -0.264272 3
-0.765186 0.21466 -0.175197 49
-2.65874 1.28601 0.67271 61
-2.71082 0.756343 0.743782 49
-2.6459 1.27923 0.458904 59
-2.73633 0.768504 0.545224 50
-1.44443 0.69735 0.13727 4
-2.7438 0.774684 0.345313 73
-1.41799 0.684861 0.0268767 4
-2.75261 0.779212 0.148111 55
-0.620758 0.299082 -0.0343942 56
-1.40073 0.677705 -0.186499 4
-0.633797 0.183367 -0.0545811 55
-1.26849 0.614116 -0.266653 3
-0.764013 0.218796 -0.175197 45
-2.65453 1.28912 0.672148 64
-2.70484 0.759775 0.742489 49
-2.65255 1.28817 0.460465 59
-2.73262 0.772615 0.544747 50
-1.43874 0.697692 0.136835 4
-2.74005 0.778797 0.345008 90
-1.4123 0.685149 0.0267894 4
-2.75365 0.784695 0.148242 58
-0.62248 0.301257 -0.0345255 58
-1.39731 0.679063 -0.186195 4
-0.638269 0.185831 -0.055016 56
-1.26079 0.613103 -0.265224 3
-0.956434 0.465528 -0.275463 4
-2.65407 1.30669 0.673833 73
-2.70082 0.773927 0.742489 49
-2.64798 1.30313 0.460855 68
-2.72618 0.786236 0.544271 50
-1.43953 0.707417 0.13727 4
-2.73594 0.793133 0.345008 56
-1.41542 0.695849 0.0269203 4
-2.7567 0.801181 0.148634 85
-0.620894 0.304512 -0.0345255 58
-1.39597 0.687468 -0.186499 4
-0.637287 0.18917 -0.055016 55
-1.25757 0.619696 -0.265224 3
-0.956148 0.471601 -0.276109 4
-2.65638 1.31302 0.674956 82
-2.70179 0.779305 0.743135 49
-2.65478 1.31167 0.462416 77
-2.7248 0.790993 0.544271 50
-1.42936 0.705511 0.136399 4
-2.73231 0.796739 0.344704 52
-1.41196 0.69721 0.0268767 4
-2.75544 0.80551 0.148634 90
-0.618124 0.304487 -0.0343942 58
-1.39488 0.68966 -0.186499 4
-0.634564 0.189586 -0.0547986 55
-1.25209 0.619708 -0.264272 3
-0.95316 0.472194 -0.275463 4
-2.65382 1.3291 0.676079 86
-2.69549 0.792293 0.742489 49
-2.65009 1.32666 0.462806 88
-2.71841 0.804082 0.543794 50
-1.44359 0.721661 0.138142 4
-2.72096 0.808925 0.343792 50
-1.41065 0.705467 0.0269203 4
-2.75118 0.819926 0.148634 88
-0.620985 0.309958 -0.0346568 56
-1.38682 0.694727 -0.185891 4
-0.631175 0.192198 -0.0545811 55
-1.24455 0.623834 -0.26332 3
-0.955072 0.479184 -0.276756 4
-2.62539 1.32058 0.669341 36
-2.69874 0.798358 0.743782 45
-2.62792 1.32129 0.459294 45
-2.71921 0.809997 0.544271 50
-1.43565 0.720821 0.137488 4
-2.72668 0.815795 0.344704 50
-1.40483 0.705925 0.0268331 4
-2.73778 0.821161 0.14798 55
-0.620443 0.311042 -0.0346568 58
-1.39225 0.700498 -0.186804 4
-0.633225 0.194012 -0.0547986 53
-1.25003 0.629322 -0.264748 3
-0.954151 0.481017 -0.276756 4
-2.59868 1.3248 0.664287 33
-2.69669 0.813642 0.744428 47
-2.60313 1.32651 0.456172 35
-2.71258 0.823514 0.543794 49
-1.43617 0.730841 0.137924 4
-2.72222 0.830535 0.344704 64
-1.39443 0.709863 0.0267022 4
-0.621029 0.315421 -0.034788 58
-1.38623 0.706891 -0.186499 4
-0.634584 0.19805 -0.055016 53
-1.24879 0.637194 -0.265224 4
-0.960216 0.490411 -0.279342 4
-2.57274 1.31666 0.65811 33
-2.69758 0.819045 0.745074 45
-2.57907 1.31934 0.45227 33
-2.71349 0.82896 0.544271 49
-1.43489 0.733347 0.137924 4
-2.71142 0.831915 0.343487 90
-1.39542 0.713436 0.0267458 8
-0.620478 0.316504 -0.034788 58
-1.38953 0.711334 -0.187108 4
-0.631855 0.198428 -0.0547986 53
-1.23676 0.633765 -0.262844 3
-0.955064 0.489876 -0.278049 4
-2.54852 1.32113 0.653618 33
-2.6934 0.832688 0.745074 49
-2.55459 1.32373 0.449148 33
-2.70926 0.842684 0.544271 49
-1.42895 0.739453 0.137706 4
-2.71414 0.848309 0.3444 49
-1.39622 0.722792 0.0268331 4
-0.623244 0.32205 -0.0350506 58
-1.38139 0.716311 -0.186499 4
-0.62843 0.200992 -0.0545811 53
-1.23572 0.641149 -0.26332 3
-0.956855 0.496935 -0.279342 4
-2.52244 1.31319 0.647441 32
-2.69194 0.837388 0.745074 50
-2.52599 1.31449 0.444465 32
-2.70998 0.848613 0.544747 47
-1.42545 0.740796 0.137488 4
-2.71502 0.853786 0.344704 49
-1.39927 0.727782 0.0269203 4
-0.618253 0.320828 -0.034788 56
-1.38233 0.719869 -0.186804 4
-0.630455 0.202834 -0.0547986 53
-1.22807 0.639896 -0.261891 4
-1.98746 0.627119 -0.324959 14
-0.951621 0.496532 -0.278049 4
-2.49807 1.31772 0.642949 32
-2.68968 0.852666 0.74572 50
-2.50356 1.32007 0.441734 33
-2.71018 0.864274 0.5457 47
-2.71036 0.868463 0.344704 47
-1.39323 0.733931 0.0268767 4
-0.618772 0.325227 -0.0349193 56
-1.37403 0.725017 -0.186195 4
-0.634129 0.207648 -0.0552335 49
-1.22242 0.645383 -0.261415 3
-1.98179 0.636767 -0.324568 12
-0.953275 0.50377 -0.279342 4
-2.48093 1.31365 0.639018 35
-2.68819 0.857359 0.74572 49
-2.48403 1.31475 0.438612 32
-2.70633 0.868257 0.545224 50
-2.70899 0.872719 0.344704 47
-1.38974 0.735191 0.0268331 4
-0.622615 0.328646 -0.0351819 56
-1.37508 0.728338 -0.186499 4
-0.626652 0.206468 -0.0545811 45
-1.23213 0.653275 -0.263796 3
-1.97127 0.637209 -0.323002 14
-0.954526 0.506568 -0.279989 4
-2.45255 1.3151 0.633403 35
-2.68151 0.870212 0.745074 45
-2.45753 1.31723 0.4351 33
-2.7019 0.881944 0.545224 50
-2.70439 0.886891 0.344704 47
-1.386 0.742216 0.0268331 8
-0.620886 0.331902 -0.0351819 56
-1.36251 0.730829 -0.185282 4
-0.623196 0.208972 -0.0543637 39
-1.22016 0.654852 -0.261891 3
-1.96321 0.645989 -0.322219 14
-0.954076 0.512538 -0.280636 4
-2.43524 1.31129 0.629472 35
-2.6754 0.8734 0.743782 45
-2.43566 1.31098 0.431588 35
-2.7002 0.88713 0.545224 50
-2.70519 0.892383 0.345008 47
-1.39337 0.74962 0.0270076 8
-0.620305 0.332985 -0.0351819 56
-1.36341 0.734384 -0.185587 4
-0.625196 0.210838 -0.0545811 36
-1.21901 0.65698 -0.261891 3
-1.95739 0.647874 -0.321436 14
-0.948843 0.512069 -0.279342 4
-2.41315 1.31627 0.625541 36
-2.66834 0.887105 0.743135 45
-2.41553 1.31704 0.429247 35
-2.70018 0.902804 0.546177 50
-2.70268 0.907793 0.345313 49
-1.38284 0.753312 0.0268767 4
-0.620745 0.337425 -0.0353131 56
-1.36813 0.746512 -0.186804 4
-0.628806 0.215691 -0.055016 29
-1.20683 0.658853 -0.259987 3
-1.95152 0.657672 -0.321044 14
-0.946148 0.51703 -0.279342 4
-2.39185 1.30952 0.620488 35
-2.6622 0.890237 0.741843 47
-2.40023 1.31413 0.426905 35
-2.69627 0.906737 0.5457 47
-2.70579 0.914089 0.345921 98
-1.38372 0.756926 0.0269203 4
-0.617966 0.337307 -0.0351819 56
-1.37117 0.751288 -0.187412 4
-0.628429 0.216788 -0.055016 23
-1.21213 0.664505 -0.261415 3
-1.941 0.657928 -0.319478 12
-0.945245 0.518681 -0.279342 4
-2.36982 1.31416 0.616557 36
-2.65293 0.902616 0.740551 47
-2.36525 1.3111 0.421832 35
-2.68219 0.91768 0.543794 45
-2.70332 0.929047 0.346225 53
-1.38411 0.766587 0.0270076 4
-0.618374 0.34175 -0.0353131 56
-1.37156 0.760868 -0.18802 4
-0.622573 0.218461 -0.0545811 29
-1.20649 0.669649 -0.260939 3
-1.93286 0.666484 -0.318695 12
-0.946735 0.525974 -0.280636 4
-2.35286 1.30958 0.612626 36
-2.65364 0.908023 0.741197 49
-2.35433 1.31042 0.420271 35
-2.67826 0.921566 0.543317 44
-2.68996 0.92973 0.344704 49
-1.3784 0.766568 0.0269203 4
-0.615596 0.341613 -0.0351819 56
-1.43483 0.499945 -0.0259168 4
-1.36373 0.759632 -0.187108 4
-0.619836 0.218735 -0.0543637 39
-1.19675 0.666966 -0.259034 3
-1.93169 0.669856 -0.318695 12
-0.939493 0.524088 -0.278696 4
-2.33089 1.31391 0.608696 36
-2.64885 0.921905 0.741197 49
-2.33238 1.31423 0.41754 35
-2.66877 0.933963 0.542364 44
-2.68271 0.942983 0.3444 44
-1.36784 0.77009 0.0267894 8
-0.618147 0.347286 -0.0354444 56
-1.43219 0.507451 -0.0259168 4
-1.36189 0.767983 -0.187412 4
-0.625733 0.224449 -0.055016 47
-1.19324 0.673223 -0.259034 3
-1.92583 0.679146 -0.318303 12
-0.938837 0.53019 -0.279342 4
-2.30763 1.30557 0.60308 38
-2.64495 0.925733 0.740551 49
-2.31289 1.30857 0.414418 35
-2.66482 0.937809 0.541888 45
-2.67638 0.946018 0.343792 42
-0.615368 0.347133 -0.0353131 53
-1.43366 0.510782 -0.0259605 4
-1.36703 0.774032 -0.188325 4
-0.62769 0.226369 -0.0552335 50
-1.18566 0.671669 -0.257606 3
-1.91998 0.680866 -0.31752 12
-0.946307 0.536604 -0.281929 4
-2.28785 1.31076 0.599711 36
-2.63779 0.938763 0.739904 47
-2.28673 1.3096 0.410906 35
-2.65987 0.951749 0.541888 45
-2.67373 0.960853 0.344096 44
-0.611376 0.349108 -0.0351819 53
-1.42626 0.516594 -0.0258732 4
-0.624151 0.228812 -0.055016 52
-1.18213 0.677868 -0.257606 3
-1.91419 0.689744 -0.317129 12
-0.945577 0.542756 -0.282576 4
-1.07271 0.387771 -0.254933 4
-2.2689 1.30463 0.595219 36
-2.63842 0.944175 0.740551 47
-2.26969 1.30457 0.408175 36
-2.66051 0.957217 0.542364 49
-2.66054 0.960857 0.342575 42
-1.45916 0.530415 0.0795507 4
-0.612929 0.351421 -0.0353131 53
-1.42771 0.51993 -0.0259168 4
-0.623751 0.229901 -0.055016 49
-1.17244 0.675023 -0.255701 3
-1.90833 0.691413 -0.316346 12
-0.946719 0.545614 -0.283222 4
-1.06981 0.388634 -0.254372 4
-2.25151 1.31036 0.592411 36
-2.63361 0.957517 0.740551 47
-2.25003 1.30898 0.405833 36
-2.65333 0.969832 0.541888 49
-2.24341 1.30462 0.22399 36
-2.6578 0.975626 0.342879 41
-1.46809 0.542337 0.0802048 4
-0.613238 0.355883 -0.0354444 53
-1.4321 0.529729 -0.0260477 4
-0.627216 0.234878 -0.0554509 50
-1.17961 0.687136 -0.258082 3
-1.90237 0.700547 -0.315954 12
-0.933523 0.544303 -0.279989 4
-1.06776 0.39423 -0.254372 4
-2.2345 1.30567 0.588481 36
-2.63194 0.962112 0.740551 49
-2.23495 1.30543 0.403492 36
-2.65377 0.975767 0.542364 50
-2.23253 1.3035 0.223119 35
-2.64911 0.977698 0.341966 38
-1.45777 0.54145 0.0796815 4
-0.61908 0.360736 -0.0358382 53
-1.42414 0.529636 -0.0259168 4
-0.622131 0.23425 -0.055016 49
-1.16359 0.680505 -0.254749 3
-1.89883 0.703015 -0.315563 12
-0.93664 0.548541 -0.281282 4
-1.0625 0.394417 -0.253249 3
-2.20854 1.30657 0.583427 36
-2.62896 0.977176 0.741197 47
-2.21085 1.30743 0.40037 35
-2.64862 0.989649 0.542364 50
-2.2083 1.30542 0.221376 35
-2.63215 0.987677 0.340445 36
-1.45715 0.550205 0.0798123 4
-0.617182 0.363972 -0.0358382 50
-1.42359 0.53821 -0.0259605 4
-0.620896 0.237505 -0.055016 45
-1.89499 0.713278 -0.315563 12
-0.927528 0.549735 -0.279342 4
-1.0672 0.402711 -0.254933 4
-2.19183 1.30132 0.579496 35
-2.62499 0.980921 0.740551 49
-2.19159 1.3012 0.397248 35
-2.64459 0.993411 0.541888 50
-2.19317 1.30163 0.220068 36
-2.61649 0.987039 0.338619 33
-1.46086 0.554504 0.080074 4
-0.625129 0.370153 -0.0363633 47
-1.42733 0.542455 -0.0260477 4
-0.622811 0.239465 -0.0552335 45
-1.88912 0.714848 -0.31478 12
-0.934862 0.556304 -0.281929 4
-1.06193 0.402864 -0.25381 3
-2.17037 1.30399 0.575566 36
-2.61999 0.994195 0.740551 49
-2.17228 1.30464 0.394907 36
-2.64182 1.00765 0.542364 50
-2.17161 1.30374 0.218543 38
-2.59986 0.995851 0.337098 32
-1.4627 0.563673 0.0803357 4
-0.623183 0.373421 -0.0363633 42
-1.42223 0.54878 -0.0260041 4
-0.621549 0.242723 -0.0552335 45
-1.88548 0.7244 -0.31478 12
-0.929967 0.559781 -0.281282 4
-1.06215 0.4091 -0.254372 4
-2.15558 1.30022 0.572196 35
-2.61825 0.998766 0.740551 47
-2.15731 1.30077 0.392566 36
-2.63759 1.01185 0.541888 50
-2.15867 1.30109 0.217454 38
-2.58422 0.995061 0.335273 30
-1.45939 0.56533 0.0802048 4
-0.626804 0.37709 -0.0366259 38
-1.4236 0.552158 -0.0260477 4
-0.618799 0.242914 -0.055016 44
-1.88191 0.726806 -0.314388 12
-0.930955 0.562817 -0.281929 4
-1.05916 0.410083 -0.25381 4
-2.13189 1.3017 0.567704 36
-2.61281 1.01292 0.740551 49
-2.13128 1.30083 0.389054 36
-2.62997 1.02476 0.541411 50
-2.13673 1.30366 0.215928 38
-2.55799 1.00093 0.332535 30
-1.45631 0.573218 0.0802048 4
-0.626951 0.381669 -0.0367572 38
-1.42758 0.56258 -0.0261786 4
-0.622159 0.247962 -0.0554509 44
-1.88268 0.738442 -0.315171 12
-0.932112 0.57021 -0.283222 4
-1.05693 0.415808 -0.25381 4
-2.11946 1.29868 0.564896 35
-2.60653 1.01573 0.739258 47
-2.12081 1.29901 0.387493 38
-2.62818 1.02935 0.541411 50
-2.11959 1.29828 0.214403 39
-2.5541 1.00404 0.33223 29
-1.46005 0.577326 0.0804665 4
-0.632667 0.386681 -0.037151 36
-1.42427 0.564158 -0.026135 4
-0.624044 0.249957 -0.0556684 42
-1.87909 0.740826 -0.31478 12
-0.927004 0.569303 -0.281929 4
-1.054 0.416582 -0.253249 3
-2.09814 1.30076 0.560966 36
-2.60585 1.03068 0.740551 47
-2.10139 1.30229 0.385151 38
-2.62521 1.04354 0.541888 50
-2.10029 1.30111 0.213096 39
-2.5465 1.01648 0.331926 30
-1.45701 0.584963 0.0804665 4
-0.626392 0.387354 -0.0368885 35
-1.41211 0.567659 -0.0259605 4
-0.622727 0.253221 -0.0556684 39
-1.13912 0.706843 -0.25332 3
-1.87748 0.751567 -0.315171 12
-0.92821 0.576541 -0.283222 4
-1.05407 0.422993 -0.25381 3
-2.08139 1.2954 0.557035 38
-2.60629 1.03611 0.741197 47
-2.08654 1.29812 0.38281 38
-2.62321 1.04858 0.541888 49
-2.0811 1.29424 0.211353 38
-2.54472 1.02093 0.331926 33
-1.46062 0.58936 0.0807282 4
-1.41807 0.57291 -0.0260913 4
-0.622284 0.254307 -0.0556684 38
-1.11915 0.697131 -0.249035 4
-0.927101 0.578322 -0.283222 4
-1.05333 0.424832 -0.25381 3
-2.06199 1.29885 0.553666 38
-2.59841 1.0493 0.740551 47
-2.06904 1.30281 0.380859 38
-2.62223 1.06414 0.542841 50
-2.06143 1.29752 0.210045 38
-2.52996 1.03095 0.330709 30
-1.4551 0.596314 0.0805974 4
-1.40569 0.576808 -0.0259168 4
-0.627865 0.260375 -0.0563208 36
-1.11951 0.705799 -0.249987 3
-0.930182 0.587043 -0.285162 3
-1.05328 0.431438 -0.254372 3
-2.04348 1.29166 0.549174 38
-2.59881 1.05474 0.741197 47
-2.0503 1.29549 0.377737 38
-2.62037 1.06871 0.542841 50
-2.05074 1.29579 0.209174 39
-2.53524 1.03773 0.331622 27
-1.46341 0.602372 0.0811207 4
-1.41625 0.583988 -0.026135 4
-0.62741 0.261471 -0.0563208 33
-1.11413 0.705122 -0.249035 3
-0.923041 0.58478 -0.283222 3
-1.04808 0.431258 -0.253249 3
-2.02438 1.29446 0.545805 38
-2.59568 1.06879 0.741843 47
-2.03101 1.29822 0.375396 38
-2.61039 1.08009 0.541888 49
-2.03367 1.29944 0.208084 39
-2.52059 1.0472 0.330405 29
-1.65972 1.06061 0.0337704 11
-1.45793 0.609071 0.0809899 4
-1.41559 0.592107 -0.0261786 4
-0.630634 0.26666 -0.0567557 32
-1.10848 0.709427 -0.248559 4
-0.924133 0.592055 -0.284516 4
-1.05257 0.439527 -0.254933 3
-2.01187 1.29141 0.542997 36
-2.59604 1.07424 0.742489 49
-2.01835 1.29509 0.373445 39
-2.01463 1.29222 0.206341 41
-2.53251 1.05731 0.33223 29
-1.65137 1.05974 0.0336395 12
-1.44995 0.608736 0.0805974 4
-1.40994 0.592654 -0.0260913 4
-1.10931 0.712689 -0.249035 3
-0.920965 0.592519 -0.283869 3
-1.0473 0.439497 -0.25381 3
-1.99668 1.29696 0.540751 38
-2.00096 1.29926 0.371493 39
-1.99508 1.29496 0.205034 41
-1.64161 1.06564 0.0335523 12
-1.44893 0.617544 0.0807282 4
-1.59968 1.03878 -0.0984567 14
-1.41131 0.602221 -0.0261786 4
-1.09927 0.714661 -0.247606 4
-1.48825 0.633279 -0.250962 9
-0.92594 0.602612 -0.286455 3
-1.04715 0.446102 -0.254372 3
-1.9824 1.29211 0.537382 38
-1.98651 1.29431 0.369152 39
-1.98656 1.29436 0.20438 41
-1.64812 1.07397 0.0337268 12
-1.44566 0.618844 0.0805974 4
-1.61459 1.05249 -0.0995069 14
-1.41256 0.605661 -0.0262222 4
-1.09802 0.716578 -0.247606 3
-1.47805 0.63202 -0.249396 8
-0.932966 0.609521 -0.289042 3
-1.0442 0.446798 -0.25381 3
-1.96545 1.29576 0.534574 39
-1.96734 1.29653 0.366811 39
-1.96543 1.2948 0.202855 41
-1.64684 1.08505 0.033814 12
-1.4447 0.627392 0.0807282 4
-1.40948 0.612803 -0.0262222 4
-1.08824 0.718065 -0.246178 4
-1.47245 0.638774 -0.249005 8
-0.935909 0.618236 -0.290982 3
-1.04185 0.452259 -0.25381 3
-1.95303 1.29246 0.531766 38
-1.95684 1.29451 0.36525 39
-1.95486 1.29272 0.201983 42
-2.78403 1.20768 0.367826 14
-1.64267 1.08683 0.0337704 12
-1.44131 0.628921 0.0805974 4
-1.40841 0.615262 -0.0262222 4
-1.08698 0.719963 -0.246178 4
-1.46227 0.637424 -0.247439 4
-0.93271 0.618695 -0.290335 3
-1.03882 0.453112 -0.253249 3
-1.93184 1.29351 0.527836 39
-1.9334 1.29408 0.362128 39
-2.87263 1.2597 0.602415 26
-1.93542 1.29496 0.200676 41
-2.77291 1.22073 0.367218 14
-1.44017 0.637714 0.0807282 4
-1.40277 0.621867 -0.0261786 4
-1.93766 1.29891 -0.281727 41
-1.08103 0.724466 -0.245702 4
-1.46117 0.646063 -0.24783 4
-0.929458 0.62357 -0.290335 3
-1.04528 0.462632 -0.255495 3
-1.92374 1.29247 0.526151 39
-2.85385 1.25156 0.824557 26
-1.92522 1.29298 0.360957 39
-2.83447 1.24894 0.59479 26
-1.92076 1.29 0.199369 41
-2.76872 1.22409 0.366914 27
-1.43688 0.638968 0.0805974 4
-1.40625 0.626335 -0.0262659 4
-1.92327 1.29363 -0.279901 42
-1.07977 0.726351 -0.245702 4
-1.46456 0.650604 -0.248613 4
-0.924365 0.622488 -0.289042 3
-1.04456 0.464273 -0.255495 3
-1.90285 1.29293 0.52222 39
-2.81878 1.25328 0.816157 26
-1.90413 1.29332 0.358226 41
-2.79896 1.2503 0.588594 24
-1.90597 1.29411 0.198497 41
-2.75321 1.23452 0.365697 24
-1.65633 1.12481 0.0343376 11
-1.43579 0.647502 0.0807282 4
-1.40078 0.632423 -0.0262222 4
-1.07405 0.730425 -0.245225 4
-1.45662 0.656248 -0.24783 4
-0.929181 0.632605 -0.291628 3
-1.03988 0.468745 -0.254933 3
-1.88852 1.288 0.518851 39
-2.77245 1.23857 0.803232 24
-1.88759 1.2869 0.355494 41
-2.74279 1.23163 0.577156 24
-1.89548 1.29182 0.197626 41
-2.73067 1.23019 0.362959 15
-1.8771 1.28023 0.0390498 35
-1.44149 0.653078 0.0811207 4
-1.4088 0.638968 -0.0263968 4
-1.07277 0.732298 -0.245225 4
-1.46674 0.663846 -0.249788 4
-0.921989 0.630292 -0.289688 3
-1.03684 0.469563 -0.254372 3
-1.86749 1.28851 0.514921 39
-2.7459 1.24461 0.797417 56
-1.87654 1.29429 0.354714 39
-2.74524 1.25003 0.579062 53
-1.87617 1.29356 0.196318 42
-2.68558 1.22747 0.357787 14
-1.8786 1.29573 0.0392243 42
-1.42885 0.656724 0.0805974 4
-1.40305 0.645544 -0.0263531 4
-1.05669 0.729711 -0.242368 4
-0.92463 0.639238 -0.291628 3
-1.03429 0.475166 -0.254372 3
-1.85946 1.28728 0.513236 39
-2.74152 1.2484 0.79677 44
-1.86435 1.2902 0.352763 39
-2.72519 1.24668 0.575249 32
-1.86572 1.29116 0.195447 42
-2.65657 1.21931 0.354136 14
-1.86606 1.29188 0.0390061 41
-1.4369 0.663125 0.0811207 4
-1.40646 0.650075 -0.0264404 4
-1.05138 0.728753 -0.241416 4
-0.919549 0.638092 -0.290335 3
-1.03797 0.478813 -0.255495 3
-1.84073 1.28861 0.509867 39
-2.70225 1.24714 0.787077 26
-1.84746 1.29286 0.350812 39
-2.6921 1.24812 0.56953 26
-1.84488 1.29059 0.193922 42
-2.62988 1.22381 0.351398 14
-1.84722 1.2927 0.0387443 41
-1.42888 0.668537 0.0808591 4
-1.40089 0.656132 -0.0263968 4
-1.19936 0.839975 -0.175242 9
-1.05772 0.741118 -0.243797 4
-0.918282 0.644127 -0.290982 3
-1.03324 0.483218 -0.254933 4
-1.82851 1.28481 0.507059 39
-2.68034 1.24274 0.781261 26
-1.83308 1.28756 0.34847 41
-2.66521 1.24192 0.564287 30
-1.83244 1.28664 0.192832 42
-2.60075 1.21584 0.347747 14
-1.83655 1.29049 0.0385698 41
-1.42545 0.669975 0.0807282 4
-1.40427 0.66069 -0.026484 4
-1.20601 0.847783 -0.176459 11
-1.0484 0.737307 -0.241892 4
-0.917044 0.645889 -0.290982 3
-1.03239 0.485021 -0.254933 4
-1.81558 1.29044 0.505375 41
-2.66264 1.25211 0.77803 50
-1.81402 1.28887 0.346129 42
-2.6609 1.2569 0.564764 58
-1.8153 1.28932 0.191743 42
-2.56496 1.21612 0.343792 24
-1.81755 1.2914 0.038308 41
-1.42632 0.679812 0.0809899 4
-1.39164 0.664001 -0.0263095 4
-1.0444 0.742969 -0.241892 4
-0.91758 0.653489 -0.292275 3
-1.02314 0.487484 -0.253249 4
-1.79967 1.28338 0.501444 41
-2.65826 1.25572 0.777384 56
-1.80373 1.28629 0.344568 41
-2.66092 1.26259 0.565241 58
-1.80291 1.28525 0.190653 42
-2.55387 1.21634 0.342575 24
-1.80512 1.28731 0.0380899 41
-1.42062 0.680158 0.0807282 4
-1.3995 0.670722 -0.026484 4
-1.02449 0.490311 -0.25381 3
-1.78503 1.28709 0.499198 41
-2.65841 1.27228 0.779323 56
-1.78518 1.28673 0.342227 42
-2.65892 1.27816 0.566194 58
-1.78629 1.28708 0.189564 42
-2.55215 1.2314 0.343183 26
-1.78642 1.28765 0.0378281 41
-1.41941 0.688422 0.0808591 4
-1.39609 0.677797 -0.026484 4
-1.01541 0.49233 -0.252126 4
-1.77489 1.28448 0.496952 41
-2.66273 1.28005 0.781261 58
-1.77293 1.28261 0.340276 42
-2.65867 1.28433 0.56667 59
-1.77799 1.28581 0.18891 44
-2.56564 1.2434 0.345313 26
-1.77788 1.28668 0.0376972 42
-1.42494 0.694158 0.0812516 4
-1.39491 0.680233 -0.026484 4
-1.01674 0.495159 -0.252687 3
-1.75809 1.28687 0.494144 41
-2.65576 1.29443 0.781261 59
-1.758 1.28634 0.338715 41
-2.65632 1.30038 0.567624 61
-1.76297 1.28952 0.188039 44
-2.55665 1.25617 0.345008 27
-1.76507 1.29153 0.0375663 44
-1.41668 0.69966 0.0809899 4
-1.38896 0.686669 -0.0264404 4
-1.76154 1.29083 -0.263472 44
-1.00748 0.497446 -0.251003 4
-1.74822 1.28385 0.491898 41
-2.66218 1.3033 0.783846 65
-1.75001 1.28471 0.337544 42
-2.65846 1.30718 0.568577 68
-1.75068 1.28522 0.186949 44
-2.56358 1.26456 0.346225 27
-1.75475 1.28869 0.0373918 44
-1.41334 0.700783 0.0808591 4
-1.38552 0.687987 -0.0263968 4
-1.75151 1.28771 -0.262255 44
-1.00451 0.497955 -0.250441 4
-1.72583 1.28136 0.487406 41
-2.66205 1.31997 0.785785 74
-1.73136 1.28502 0.335203 42
-2.6584 1.32389 0.570007 79
-1.72816 1.28219 0.185206 42
-2.56581 1.28239 0.347442 33
-1.73015 1.28414 0.0369991 44
-1.41859 0.712629 0.0813824 4
-1.39097 0.699456 -0.0265713 4
-1.73479 1.28946 -0.260734 44
-1.00407 0.504292 -0.251003 4
-1.71969 1.28146 0.486283 42
-2.65108 1.32032 0.7832 59
-1.72318 1.28361 0.334032 42
-2.64927 1.3257 0.568577 52
-1.71993 1.28073 0.184552 44
-2.56579 1.28798 0.347747 21
-1.72768 1.28745 0.0369991 42
-1.41735 0.715104 0.0813824 4
-1.38527 0.699642 -0.026484 4
-1.7226 1.28506 -0.259213 45
-0.996651 0.50278 -0.249318 4
-1.70495 1.28487 0.484037 42
-2.62448 1.32488 0.777384 33
-1.70635 1.28548 0.332081 42
-2.616 1.32628 0.562858 32
-1.70502 1.28402 0.183681 42
-2.55214 1.29848 0.346834 15
-1.70695 1.28595 0.0366937 42
-1.41123 0.721632 0.0812516 4
-1.38147 0.707127 -0.026484 4
-1.7077 1.28838 -0.257996 47
-1.96902 1.00348 -0.344927 12
-0.998264 0.510364 -0.250441 3
-1.69322 1.2802 0.481229 42
-2.60061 1.31857 0.770922 32
-1.69842 1.28369 0.33091 42
-2.58961 1.31864 0.557615 30
-1.69483 1.28098 0.182809 44
-2.52577 1.29011 0.343487 15
-1.69872 1.2844 0.0365628 42
-1.41454 0.726115 0.0815132 4
-1.69645 1.28314 -0.110009 23
-1.38023 0.709537 -0.026484 4
-1.69183 1.28056 -0.255866 47
-1.97826 1.01251 -0.346884 12
-1.00181 0.514138 -0.251564 3
-1.67488 1.28016 0.47786 42
-2.5724 1.32072 0.76446 30
-1.67795 1.28206 0.328179 42
-2.56325 1.32164 0.553326 30
-1.67844 1.28198 0.18172 45
-2.51236 1.29991 0.342575 15
-1.68228 1.28538 0.0363446 45
-1.40629 0.731221 0.0812516 4
-1.68399 1.28716 -0.109615 27
-1.37884 0.717661 -0.0265277 4
-1.97952 1.02625 -0.348059 14
-0.990434 0.514919 -0.249318 3
-1.66901 1.27982 0.476737 42
-2.55075 1.31528 0.758644 30
-1.66984 1.28047 0.327008 42
-2.54567 1.31824 0.54999 32
-1.66829 1.27884 0.180848 45
-2.49025 1.29403 0.339836 15
-1.6721 1.28223 0.0361701 44
-1.40279 0.732526 0.0811207 4
-1.67778 1.28705 -0.109353 32
-1.37537 0.718915 -0.026484 4
-1.96676 1.02403 -0.346101 14
-0.996027 0.520001 -0.251003 3
-1.65244 1.28136 0.473929 42
-2.52883 1.32082 0.754121 30
-1.65531 1.28314 0.325447 44
-2.51698 1.32019 0.545224 30
-1.64977 1.2784 0.179541 44
-2.47905 1.30474 0.339228 21
-1.66141 1.2879 0.0360828 45
-1.40557 0.743342 0.0815132 4
-1.65721 1.2851 -0.108434 35
-1.37601 0.728432 -0.0265713 4
-1.94388 1.02514 -0.342969 14
-0.995449 0.526338 -0.251564 4
-1.64466 1.27947 0.472244 42
-2.50726 1.31517 0.748305 30
-1.64332 1.27844 0.323496 42
-2.49511 1.31432 0.540934 30
-1.64164 1.27669 0.178887 44
-2.46579 1.30329 0.337707 27
-1.64733 1.28158 0.0358211 45
-1.39764 0.742301 0.0811207 4
-1.64709 1.28185 -0.107909 38
-1.37695 0.732 -0.0266149 4
-1.9268 1.02047 -0.340228 14
-0.998842 0.530341 -0.252687 4
-1.63006 1.28232 0.469998 44
-2.48113 1.31811 0.742489 32
-1.62885 1.28092 0.321935 44
-2.47086 1.31815 0.537122 32
-1.62711 1.2791 0.178016 45
-2.4436 1.30801 0.335577 32
-1.63078 1.28246 0.0356029 45
-1.39814 0.751961 0.0813824 4
-1.62859 1.28119 -0.107121 39
-1.36648 0.735665 -0.026484 4
-1.91053 1.02474 -0.338271 14
-0.9896 0.53213 -0.251003 4
-1.62039 1.27883 0.467752 44
-2.46176 1.31338 0.737319 32
-1.6208 1.27917 0.320764 44
-2.45123 1.31322 0.533309 32
-1.61705 1.27577 0.177144 45
-2.43256 1.30759 0.33436 32
-1.62266 1.28065 0.035472 45
-1.39023 0.750861 0.0809899 4
-1.62243 1.28094 -0.106858 42
-1.363 0.736867 -0.0264404 4
-1.61933 1.28076 -0.393789 47
-1.89786 1.02224 -0.336313 14
-0.992967 0.536153 -0.252126 4
-1.60394 1.27998 0.464945 44
-2.43783 1.3171 0.73215 33
-1.60443 1.27993 0.318813 42
-2.42921 1.31787 0.529973 32
-1.60451 1.27955 0.17649 47
-2.40605 1.30967 0.331622 33
-1.60421 1.27977 0.0352102 45
-1.61158 1.28658 -0.106596 44
-1.36571 0.747574 -0.0265713 4
-1.60686 1.28462 -0.392361 52
-1.88163 1.02627 -0.334356 14
-0.983718 0.537867 -0.250441 3
-1.5979 1.27973 0.463822 44
-2.42066 1.31331 0.727626 32
-1.59641 1.27809 0.317643 42
-2.40942 1.31317 0.52616 32
-1.5945 1.27612 0.175619 45
-2.3885 1.30556 0.329492 33
-1.5959 1.27815 0.0350793 47
-1.60544 1.28626 -0.106333 45
-1.36221 0.748759 -0.0265277 4
-1.59505 1.27974 -0.38998 52
-1.86683 1.02247 -0.332007 14
-1.59144 1.2791 -0.537346 56
-0.984918 0.540746 -0.251003 3
-1.58149 1.28068 0.461014 45
-2.39869 1.31828 0.723103 32
-1.57989 1.27894 0.315691 44
-2.38745 1.31749 0.522824 35
-1.57597 1.27532 0.174311 47
-2.3662 1.31008 0.327363 33
-1.58336 1.28177 0.0349484 45
-1.58511 1.28364 -0.105414 45
-1.36032 0.757327 -0.0265713 4
-1.58238 1.28371 -0.388551 53
-1.8528 1.02746 -0.33044 14
-1.57722 1.28132 -0.53476 59
-0.975576 0.542543 -0.249318 3
-1.56814 1.27394 0.457645 44
-2.37733 1.31199 0.717287 33
-1.57213 1.27674 0.314521 44
-2.36796 1.31217 0.519011 33
-1.56987 1.27493 0.173876 47
-2.35111 1.30658 0.325537 33
-1.57143 1.27665 0.0347303 45
-1.57706 1.28168 -0.105021 45
-1.35463 0.757274 -0.026484 4
-1.56683 1.27561 -0.385218 52
-1.83372 1.02112 -0.327308 14
-1.56937 1.27949 -0.53282 58
-0.974722 0.544075 -0.249318 3
-1.5558 1.27749 0.45596 44
-2.35167 1.31344 0.711471 33
-1.55779 1.27868 0.31296 44
-2.34415 1.31457 0.515198 35
-1.5557 1.27653 0.173004 47
-2.32475 1.30796 0.322799 33
-1.56108 1.28141 0.034643 45
-1.56647 1.28675 -0.104758 47
-1.3486 0.762897 -0.0264404 4
-1.55467 1.27885 -0.38379 52
-1.80897 1.01984 -0.323785 14
-1.55543 1.28127 -0.530233 58
-0.982491 0.555117 -0.252126 3
-1.54793 1.27555 0.454276 45
-2.33461 1.3093 0.706948 33
-1.54794 1.27512 0.311399 44
-2.32236 1.30826 0.510909 35
-1.54579 1.27291 0.172133 47
-2.31165 1.30593 0.321278 35
-1.55284 1.27963 0.0345121 44
-1.55267 1.27995 -0.10397 47
-1.34727 0.765249 -0.0264404 4
-1.54676 1.27687 -0.382361 52
-1.78567 1.01088 -0.319869 14
-1.54366 1.27655 -0.527 59
-0.977272 0.554445 -0.251003 3
-1.53166 1.2761 0.451468 45
-2.31068 1.31241 0.701778 35
-1.53722 1.28031 0.310618 44
-2.30907 1.31677 0.509479 36
-1.53505 1.27806 0.171697 47
-2.2873 1.30859 0.318844 35
-1.53652 1.27974 0.034294 44
-1.54019 1.28326 -0.103576 47
-1.34093 0.771288 -0.0263968 4
-1.53229 1.27892 -0.380456 53
-1.76301 1.01075 -0.316737 14
-1.52955 1.27842 -0.524414 59
-0.986964 0.566951 -0.254372 3
-1.52591 1.27538 0.450345 45
-2.29158 1.3069 0.696609 35
-1.52552 1.27507 0.308667 45
-2.28758 1.30985 0.50519 35
-1.52518 1.27435 0.170825 47
-2.26994 1.30396 0.316714 33
-1.52661 1.276 0.0341195 45
-1.53221 1.28114 -0.103183 47
-1.5263 1.27844 -0.379504 53
-1.74839 1.00646 -0.314388 14
-1.52177 1.27643 -0.522474 59
-0.981742 0.566256 -0.253249 3
-1.50597 1.2726 0.446414 45
-2.27215 1.31166 0.692731 35
-1.51128 1.27666 0.307106 44
-2.26794 1.31445 0.50233 36
-1.50898 1.27427 0.169736 47
-2.24375 1.30464 0.313976 33
-1.5161 1.28075 0.0340322 45
-1.51214 1.27785 -0.102264 47
-1.50816 1.27583 -0.237916 47
-1.51397 1.28165 -0.378076 53
-1.7196 1.00198 -0.310082 14
-1.5077 1.27812 -0.519887 59
-0.982982 0.573827 -0.254372 3
-1.4984 1.27024 0.44473 45
-2.2573 1.30838 0.688854 35
-1.50528 1.2761 0.306326 45
-2.24228 1.30488 0.497088 36
-1.50295 1.27368 0.1693 49
-2.22645 1.29982 0.311846 35
-1.50814 1.27854 0.0339013 47
-1.5042 1.27564 -0.10187 47
-1.50026 1.27364 -0.237003 50
-1.50051 1.27475 -0.375219 53
-1.7029 0.996292 -0.307341 14
-1.50363 1.27919 -0.519241 59
-0.975658 0.571873 -0.252687 3
-1.48433 1.27172 0.442484 45
-2.23605 1.31126 0.684331 35
-1.49131 1.27727 0.304765 44
-2.22718 1.31124 0.495181 36
-1.49082 1.27641 0.168646 47
-2.20701 1.30353 0.310021 35
-1.49027 1.27639 0.0336395 47
-1.48803 1.27537 -0.101214 47
-1.48626 1.27475 -0.235786 50
-1.49032 1.27913 -0.374266 53
-1.67443 0.991122 -0.303034 14
-1.48432 1.27575 -0.514714 59
-0.976952 0.579271 -0.25381 4
-1.47842 1.27113 0.44136 45
-2.21709 1.30539 0.679161 35
-1.48346 1.27504 0.303594 45
-2.20563 1.30431 0.490892 35
-1.47915 1.27089 0.167557 49
-2.18764 1.29728 0.307587 35
-1.48592 1.27762 0.0335959 47
-1.4858 1.27797 -0.101214 47
-1.4784 1.27248 -0.234873 52
-1.48251 1.27692 -0.372838 55
-1.66207 0.987762 -0.301077 14
-1.48004 1.27702 -0.514068 61
-0.971742 0.578501 -0.252687 3
-1.46417 1.27271 0.439114 45
-2.19131 1.30627 0.673345 35
-1.46909 1.27656 0.302034 47
-2.18612 1.3083 0.488032 36
-1.46473 1.27233 0.166685 49
-2.16781 1.30146 0.305761 35
-1.46978 1.27718 0.0333777 47
-1.47155 1.27917 -0.100688 47
-1.4584 1.26905 -0.232744 52
-1.47003 1.28008 -0.371409 55
-1.6484 0.991382 -0.299511 15
-1.46061 1.27363 -0.509541 59
-0.976966 0.588744 -0.254933 3
-1.45483 1.2686 0.436868 47
-2.17865 1.30392 0.670114 38
-1.46336 1.27562 0.301253 45
-2.16698 1.30204 0.48422 36
-1.45688 1.26998 0.166032 49
-2.15512 1.29848 0.30424 35
-1.46002 1.27316 0.0332032 45
-1.4618 1.27517 -0.100163 49
-1.45827 1.27297 -0.233048 52
-1.45671 1.27295 -0.368552 55
-1.63185 0.98536 -0.29677 15
-1.45293 1.27141 -0.507601 62
-0.97395 0.589026 -0.254372 4
-1.44452 1.27298 0.435745 47
-2.15341 1.30371 0.664298 36
-1.44926 1.27673 0.299692 45
-2.14987 1.30664 0.481837 36
-1.44296 1.27074 0.16516 49
-2.13769 1.30331 0.302719 35
-1.44981 1.27723 0.0331159 47
-1.44762 1.27619 -0.0996382 47
-1.44415 1.27402 -0.231831 52
-1.44841 1.27868 -0.368076 55
-1.62034 0.990045 -0.295595 15
-1.43744 1.27074 -0.504368 61
-0.970852 0.594118 -0.254372 4
-1.43864 1.27227 0.434622 47
-2.13873 1.29996 0.660421 38
-1.43778 1.27107 0.297741 45
-2.13477 1.30311 0.478977 36
-1.43328 1.26666 0.164289 49
-2.11846 1.29671 0.300285 35
-1.438 1.27172 0.0328978 47
-2.11329 1.29556 0.128092 35
-1.43978 1.27375 -0.0992444 49
-1.43264 1.26831 -0.23031 52
-1.43883 1.27469 -0.366172 55
-1.62282 0.995443 -0.296378 15
-1.42777 1.26708 -0.501782 59
-0.969814 0.595812 -0.254372 4
-1.42448 1.27353 0.432376 49
-2.11725 1.30268 0.655898 38
-1.42536 1.27389 0.29657 45
-2.11329 1.30527 0.475641 36
-1.41899 1.26775 0.163417 47
-2.09663 1.29903 0.298155 35
-1.42573 1.27423 0.0327669 47
-2.09138 1.29779 0.127176 35
-1.43123 1.27961 -0.0991131 49
-1.42391 1.27438 -0.230006 52
-1.42278 1.27426 -0.363791 56
-1.61338 1.00133 -0.295595 15
-1.41573 1.2697 -0.499842 61
-0.96865 0.602328 -0.254933 4
-1.41704 1.27088 0.430691 47
-2.10469 1.30005 0.652667 39
-1.41785 1.27118 0.2954 45
-2.09639 1.29994 0.472305 36
-1.41121 1.26524 0.162763 49
-2.08404 1.29579 0.296634 36
-1.41607 1.27004 0.0325924 47
-2.07661 1.29318 0.126391 36
-1.42157 1.27543 -0.098588 49
-1.41452 1.26998 -0.228789 52
-1.41508 1.27182 -0.362362 55
-1.61163 1.00415 -0.295595 15
-1.40634 1.2657 -0.497256 59
-0.965631 0.602568 -0.254372 4
-1.40135 1.2701 0.427884 49
-2.08578 1.30303 0.648789 38
-1.40386 1.27195 0.293839 47
-2.07521 1.30143 0.468969 38
-1.40295 1.27069 0.162545 50
-2.0604 1.29615 0.2942 36
-1.40407 1.27215 0.0324615 47
-2.05712 1.29607 0.125606 35
-1.4077 1.2759 -0.0980629 49
-1.40234 1.27236 -0.227876 52
-1.40318 1.27401 -0.360934 56
-1.61472 1.01782 -0.297161 15
-1.39634 1.26955 -0.495962 59
-0.970724 0.612782 -0.256618 4
-1.39395 1.26738 0.426199 49
-2.06916 1.29772 0.644266 39
-1.39798 1.27107 0.293058 47
-2.06462 1.29984 0.467062 39
-1.39888 1.27146 0.162328 50
-2.04553 1.29182 0.292375 38
-1.39815 1.27123 0.0323742 47
-2.03795 1.28902 0.12456 35
-1.40178 1.27499 -0.0978003 50
-1.39462 1.26979 -0.226963 53
-1.3937 1.26984 -0.359029 58
-1.39234 1.27036 -0.495316 61
-0.969654 0.614475 -0.256618 4
-1.38349 1.2716 0.425076 49
-2.05009 1.3008 0.640389 39
-1.38768 1.27503 0.292278 47
-2.04535 1.30274 0.464203 38
-1.38304 1.27034 0.161238 49
-2.02408 1.29319 0.290245 36
-1.39147 1.27854 0.0323742 47
-2.02486 1.29565 0.124167 39
-1.38384 1.27241 -0.0970127 49
-1.61796 1.03721 -0.0329414 15
-1.38248 1.27203 -0.226051 53
-1.37982 1.27047 -0.357124 56
-1.37857 1.27108 -0.492729 59
-0.96231 0.616932 -0.255495 4
-1.37232 1.26575 0.422269 49
-2.03761 1.29791 0.637158 39
-1.37638 1.26907 0.290327 47
-2.02421 1.2948 0.459913 38
-1.37716 1.26937 0.160802 50
-2.01137 1.29004 0.288724 39
-1.378 1.27103 0.0321124 49
-2.00997 1.29111 0.123382 39
-1.37795 1.27143 -0.0967501 49
-1.61825 1.04138 -0.032985 15
-1.37297 1.26771 -0.224834 53
-1.37219 1.26787 -0.355696 56
-1.36905 1.26715 -0.490143 59
-0.967394 0.622539 -0.257179 4
-1.36189 1.26983 0.421145 49
-2.01634 1.29978 0.632634 38
-1.36227 1.26976 0.288766 47
-2.00915 1.30007 0.458007 38
-1.36663 1.2734 0.160367 49
-1.99811 1.29687 0.287811 38
-1.36584 1.27311 0.0319815 49
-1.99877 1.29925 0.12312 38
-1.3658 1.27352 -0.0963563 50
-1.61259 1.05012 -0.032985 14
-1.36428 1.27342 -0.224529 53
-1.35994 1.27025 -0.354267 58
-1.35887 1.271 -0.488849 61
-0.964012 0.627764 -0.257179 4
-1.35278 1.26531 0.418899 49
-1.99985 1.29414 0.628111 39
-1.35667 1.26852 0.287985 47
-1.99658 1.29691 0.455624 38
-1.35532 1.26727 0.159277 49
-1.98982 1.29595 0.286899 39
-1.35632 1.26866 0.031807 47
-1.98207 1.29287 0.122204 36
-1.35993 1.27249 -0.0960938 50
-1.35684 1.27047 -0.223617 53
-1.35056 1.2659 -0.352363 58
-1.35313 1.27006 -0.487556 61
-0.967114 0.631926 -0.258303 4
-1.3426 1.26902 0.417776 49
-1.97911 1.29502 0.623587 39
-1.34463 1.27052 0.286815 49
-1.97972 1.30028 0.453241 39
-1.34346 1.26898 0.158623 49
-1.96433 1.29411 0.28416 39
-1.34625 1.27207 0.0317197 47
-1.96484 1.29638 0.12155 38
-1.346 1.27272 -0.0955686 50
-1.34477 1.27244 -0.222704 55
-1.34057 1.26934 -0.35141 58
-1.96255 1.29394 -0.367243 38
-1.33793 1.26858 -0.484323 59
-0.961754 0.635646 -0.257741 4
-1.33508 1.26633 0.416092 50
-1.96674 1.29186 0.620356 39
-1.33704 1.26776 0.285644 47
-1.96901 1.29869 0.451335 39
-1.33763 1.2679 0.158188 50
-1.95378 1.29207 0.282943 39
-1.33656 1.26777 0.0315452 47
-1.95007 1.29156 0.120765 38
-1.34016 1.27163 -0.0953061 50
-1.33535 1.26794 -0.221487 55
-1.32591 1.25984 -0.348077 58
-1.9541 1.29329 -0.366068 39
-1.33199 1.26781 -0.48303 62
-0.960644 0.637324 -0.257741 4
-1.32118 1.26679 0.413846 50
-1.94562 1.29316 0.615833 41
-1.32481 1.26985 0.284473 47
-1.94583 1.29812 0.447522 39
-1.32177 1.26649 0.157098 49
-1.93024 1.29162 0.28051 41
-1.32089 1.26609 0.0313271 49
-1.93474 1.29655 0.120242 38
-1.32808 1.27344 -0.0949123 52
-1.31953 1.26655 -0.219966 55
-1.31554 1.26359 -0.347125 58
-1.93475 1.29562 -0.363719 39
-1.31664 1.26639 -0.479797 61
-0.961238 0.64521 -0.258864 4
-1.31217 1.2621 0.4116 50
-1.93934 1.29388 0.614541 41
-1.31726 1.26702 0.283303 47
-1.93335 1.29471 0.445139 41
-1.31776 1.26707 0.15688 50
-1.92179 1.29085 0.279597 41
-1.31867 1.2684 0.0313271 49
-1.91796 1.2902 0.119326 38
-1.32046 1.27056 -0.0945184 52
-1.31553 1.26713 -0.219661 55
-1.21793 0.821711 -0.125254 12
-1.31157 1.26418 -0.346649 58
-1.91402 1.28664 -0.360196 36
-1.31269 1.26701 -0.47915 59
-0.956058 0.644182 -0.257741 4
-1.30183 1.26578 0.410476 50
-1.92252 1.29728 0.61131 41
-1.3053 1.26873 0.282132 47
-1.91637 1.29796 0.442756 41
-1.30218 1.26527 0.155791 49
-1.90062 1.29116 0.277467 41
-1.30485 1.26831 0.0311525 49
-1.90291 1.29463 0.118803 39
-1.30664 1.27049 -0.0939933 52
-1.30177 1.26707 -0.218445 56
-1.21567 0.829474 -0.125471 12
-1.2979 1.26417 -0.344744 58
-1.30086 1.26881 -0.47721 59
-0.958729 0.653269 -0.259426 4
-1.29462 1.26272 0.408792 52
-1.90623 1.29119 0.606786 41
-1.29624 1.26388 0.280571 47
-1.90394 1.29442 0.440373 41
-1.29641 1.26406 0.155355 49
-1.89243 1.28997 0.276554 41
-1.29548 1.2636 0.030978 49
-1.89055 1.2906 0.118148 38
-1.29906 1.26753 -0.0935995 52
-1.87975 1.28469 -0.039137 36
-1.298 1.26738 -0.21814 56
-1.23275 0.844199 -0.127428 11
-1.29745 1.26815 -0.34522 59
-1.29347 1.266 -0.47527 59
-0.955685 0.653407 -0.258864 4
-1.28799 1.26948 0.408792 50
-1.88969 1.29402 0.603555 41
-1.28257 1.26371 0.27901 47
-1.88521 1.29573 0.437513 41
-1.28468 1.26536 0.154701 49
-1.87337 1.29143 0.274729 41
-1.28729 1.26838 0.0309344 50
-1.86936 1.29058 0.117233 38
-1.2873 1.26883 -0.0932057 52
-1.86498 1.28852 -0.0389625 36
-1.28429 1.26718 -0.216923 56
-1.28054 1.26435 -0.342363 59
-1.27846 1.26404 -0.472037 59
-0.946222 0.654271 -0.257179 4
-1.27387 1.2595 0.404861 50
-1.87348 1.28777 0.599032 42
-1.28037 1.26595 0.27901 50
-1.87283 1.29207 0.43513 42
-1.27362 1.25884 0.153612 50
-1.85886 1.28626 0.272904 41
-1.2833 1.26887 0.0308908 50
-1.86094 1.28959 0.11684 39
-1.28331 1.26932 -0.0930744 52
-1.85245 1.28468 -0.0387443 36
-1.27855 1.26593 -0.216315 56
-1.27311 1.2614 -0.340935 59
-1.27626 1.26627 -0.472037 61
-0.949093 0.658683 -0.258303 4
-1.2636 1.26293 0.403738 50
-1.85877 1.29206 0.596447 42
