# .PCD v0.7 - Point Cloud Data file format
VERSION 0.7
FIELDS x y z intensity
SIZE 4 4 4 4
TYPE F F F F
COUNT 1 1 1 1
WIDTH 1585
HEIGHT 1
VIEWPOINT 0 0 0 1 0 0 0
POINTS 1585
DATA ascii
-1.12536 -2.23661 0.129401 44
-1.16822 -1.56732 -0.100951 14
-1.12972 -2.24338 -0.0432383 47
-1.13128 -2.24645 -0.216585 49
-1.12684 -2.24143 -0.3923 49
-1.65707 -2.21499 -0.731334 50
-1.11736 -2.22823 -0.566581 47
-2.77085 -5.50072 1.63877 14
-2.80409 -5.54282 1.19959 15
-2.84842 -5.61121 0.767294 35
-1.22573 -1.62713 0.0349484 11
-1.13857 -2.23271 0.129531 44
-1.1734 -1.5572 -0.100688 15
-1.14298 -2.23946 -0.043282 47
-1.17171 -1.55327 -0.234265 3
-1.14528 -2.24494 -0.21702 49
-1.13856 -2.2355 -0.3923 47
-1.67156 -2.21014 -0.732627 49
-1.1338 -2.23085 -0.568827 49
-2.82072 -5.57564 1.66268 14
-2.85371 -5.61671 1.21674 21
-2.85273 -5.59788 0.766077 27
-1.22555 -1.621 0.0348612 11
-1.14548 -2.2376 0.129924 44
-1.1716 -1.54918 -0.100295 15
-1.14916 -2.24192 -0.0433692 45
-1.17115 -1.54747 -0.233657 3
-1.15033 -2.24515 -0.217237 49
-1.14358 -2.23571 -0.392692 47
-1.14061 -2.23558 -0.570512 47
-2.86759 -5.59785 1.67367 15
-2.86753 -5.57382 1.21055 18
-2.86853 -5.55911 0.76273 24
-1.23526 -1.61676 0.0349048 11
-1.15947 -2.236 0.130186 44
-1.18094 -1.54521 -0.100426 15
-1.16049 -2.23607 -0.0433692 45
-1.17896 -1.54152 -0.233657 14
-1.16053 -2.23709 -0.21702 45
-1.15601 -2.23209 -0.393083 47
-1.15191 -2.22978 -0.570512 47
-2.86081 -5.56061 1.66398 14
-2.86938 -5.55354 1.20721 15
-2.86455 -5.52764 0.759079 21
-1.24112 -1.61857 0.0349921 11
-1.16413 -2.2364 0.130317 44
-1.18212 -1.54117 -0.100295 14
-1.16745 -2.24091 -0.0435001 45
-1.1756 -1.53159 -0.23244 23
-1.16978 -2.24632 -0.218107 47
-1.15599 -1.505 -0.36141 17
-1.16217 -2.23445 -0.393866 45
-1.15692 -2.22993 -0.571073 47
-2.88795 -5.54656 1.66398 14
-2.884 -5.51552 1.20197 15
-2.88443 -5.49769 0.75695 21
-1.25208 -1.61644 0.0350793 11
-1.17659 -2.23269 0.130447 44
-1.19143 -1.53714 -0.100426 14
-1.18227 -2.24161 -0.043631 45
-1.18334 -1.52562 -0.23244 15
-1.18036 -2.23796 -0.21789 45
-1.15756 -1.49138 -0.359505 18
-1.17462 -2.23073 -0.394258 45
-1.1727 -2.23268 -0.573319 47
-2.88422 -5.51582 1.65622 14
-2.88888 -5.4991 1.19959 15
-2.91712 -5.53657 0.763035 23
-1.26133 -1.62192 0.0352539 11
-1.18514 -2.23946 0.130971 44
-1.20025 -1.54293 -0.100951 14
-1.18618 -2.23954 -0.043631 44
-1.18753 -1.52551 -0.232744 15
-1.18659 -2.2403 -0.218324 45
-1.15413 -1.48162 -0.357601 18
-1.18196 -2.23523 -0.395432 45
-1.17773 -2.23279 -0.573881 47
-2.91966 -5.51081 1.65945 14
-3.03159 -5.69848 1.24677 14
-1.72238 -2.19099 0.240768 11
-3.03338 -5.68276 0.785548 15
-1.27444 -1.62118 0.0353848 11
-1.19842 -2.23522 0.131102 44
-1.2114 -1.54055 -0.101214 14
-1.19945 -2.23529 -0.0436746 44
-1.19423 -1.51712 -0.23244 14
-1.20065 -2.23845 -0.218759 45
-1.15909 -1.4715 -0.356648 18
-1.1952 -2.23098 -0.395824 45
-1.1898 -2.22638 -0.573881 45
-3.04368 -5.72113 1.72472 20
-3.03229 -5.67586 1.24296 15
-1.73237 -2.1958 0.241639 11
-3.02105 -5.63589 0.779768 17
-1.28037 -1.62288 0.035472 11
-1.20586 -2.23973 0.131494 44
-1.21564 -1.54039 -0.101345 14
-1.20572 -2.2376 -0.0437619 44
-1.19995 -1.51892 -0.233048 14
-1.20456 -2.23635 -0.218759 47
-1.16013 -1.46755 -0.356172 17
-1.20142 -2.23325 -0.396607 44
-1.19368 -2.2243 -0.573881 44
-3.04728 -5.6562 1.70986 14
-3.04331 -5.62535 1.23533 18
-3.05052 -5.61999 0.779768 35
-1.28729 -1.6142 0.0354284 11
-1.21876 -2.23558 0.131625 44
-1.23175 -1.54354 -0.102001 14
-1.21622 -2.22906 -0.0437183 44
-1.20944 -1.51456 -0.233352 14
-1.21902 -2.23418 -0.219194 44
-1.1586 -1.44995 -0.353315 15
-1.21545 -2.23127 -0.39739 45
-1.20879 -2.22445 -0.575566 45
-3.04338 -5.62537 1.7021 23
-3.0541 -5.6195 1.23533 35
-3.06151 -5.61684 0.780072 35
-1.29977 -1.62343 0.0356902 11
-1.22385 -2.23564 0.131756 44
-1.236 -1.54334 -0.102132 14
-1.22251 -2.23133 -0.0438055 44
-1.21985 -1.52212 -0.234873 14
-1.22411 -2.23423 -0.219412 44
-1.15344 -1.43836 -0.350934 15
-1.21934 -2.22914 -0.39739 45
-1.21616 -2.22876 -0.57725 45
-3.08073 -5.62153 1.70598 32
-3.08821 -5.61204 1.23724 35
-3.09186 -5.60019 0.780072 21
-1.30825 -1.6166 0.0356902 12
-1.23593 -2.22899 0.131756 44
-1.2535 -1.54848 -0.10292 14
-1.23698 -2.22905 -0.0438928 44
-1.2265 -1.51357 -0.234569 14
-1.23699 -2.22997 -0.219629 44
-1.15502 -1.42448 -0.34903 15
-1.23377 -2.22684 -0.398173 44
-1.23054 -2.22642 -0.578373 45
-3.09286 -5.62038 1.70727 30
-3.09919 -5.60879 1.23772 21
-3.11124 -5.61216 0.782506 33
-1.32053 -1.62595 0.035952 12
-1.24103 -2.22901 0.131887 44
-1.26092 -1.5521 -0.103314 14
-1.24087 -2.22689 -0.0438928 44
-1.23384 -1.5172 -0.235482 14
-1.2433 -2.23217 -0.220064 44
-1.15285 -1.41676 -0.347601 15
-1.24124 -2.23116 -0.399347 44
-1.23678 -2.22853 -0.579496 45
-3.12459 -5.60833 1.70856 26
-3.14167 -5.61605 1.24296 32
-3.14664 -5.60661 0.784027 32
-1.3322 -1.62288 0.0360392 12
-1.25513 -2.22683 0.132148 44
-1.27855 -1.55705 -0.104102 14
-1.25618 -2.2269 -0.0440237 44
-1.24334 -1.51263 -0.235786 14
-1.25863 -2.23214 -0.220716 44
-1.15557 -1.40502 -0.346173 15
-1.25653 -2.23109 -0.400522 44
-1.24963 -2.22415 -0.580058 45
-3.14262 -5.61763 1.71309 32
-3.15747 -5.62126 1.24534 32
-3.16129 -5.60976 0.785244 32
-1.3398 -1.62633 0.0361701 12
-1.26391 -2.23334 0.132672 44
-1.28603 -1.56059 -0.104495 14
-1.26375 -2.23124 -0.0441546 44
-1.2523 -1.51811 -0.237003 14
-1.26374 -2.23211 -0.220934 44
-1.15802 -1.403 -0.346173 14
-1.26042 -2.22889 -0.400522 44
-1.25708 -2.22834 -0.581742 45
-3.17793 -5.61161 1.71632 32
-3.19292 -5.61532 1.24772 32
-3.19676 -5.60391 0.786765 32
-1.3563 -1.62889 0.0363883 12
-1.27559 -2.22669 0.132672 44
-1.29898 -1.55959 -0.104889 14
-1.27789 -2.22893 -0.0442418 44
-1.26501 -1.51725 -0.237916 14
-1.27665 -2.22763 -0.221151 44
-1.16378 -1.39503 -0.345696 14
-1.27575 -2.2287 -0.401697 44
-1.84224 -2.20394 -0.759786 11
-1.26873 -2.22173 -0.581742 44
-4.55961 -5.45156 1.63011 12
-3.19249 -5.61446 1.7189 32
-4.56132 -5.45359 1.11799 11
-3.21001 -5.62254 1.25058 32
-4.58643 -5.48553 0.62251 11
-3.21269 -5.6091 0.788287 30
-1.37037 -1.63994 0.0366937 12
-1.28196 -2.2288 0.132933 44
-1.30811 -1.56498 -0.105414 14
-1.28302 -2.22887 -0.0442855 44
-1.2804 -1.53026 -0.24035 14
-1.28425 -2.23188 -0.221804 44
-1.15675 -1.38172 -0.342839 14
-1.28209 -2.23076 -0.40248 44
-1.84143 -2.19517 -0.757846 11
-1.27503 -2.22374 -0.582865 45
-4.6331 -5.47889 1.64584 9
-3.22786 -5.60813 1.72214 29
-4.65838 -5.51071 1.13477 12
-3.24553 -5.61628 1.25297 33
-4.65529 -5.50899 0.627957 14
-3.2445 -5.5965 0.788895 30
-1.38378 -1.63847 0.0368246 12
-1.29486 -2.22421 0.133064 44
-1.3179 -1.56001 -0.105546 14
-1.29719 -2.22644 -0.0443727 44
-1.29 -1.52543 -0.240654 14
-1.29841 -2.22943 -0.222239 44
-1.1608 -1.37189 -0.341887 14
-1.29622 -2.22829 -0.403263 44
-1.86227 -2.19655 -0.761726 9
-1.28909 -2.22125 -0.583988 45
-4.68268 -5.5199 1.66044 11
-3.24729 -5.61923 1.72731 29
-4.67758 -5.51387 1.13711 12
-3.26025 -5.6191 1.25487 32
-4.67134 -5.50845 0.628829 14
-3.23931 -5.56508 0.785244 26
-1.38826 -1.63796 0.0368682 12
-1.30376 -2.23058 0.133588 44
-1.32385 -1.56152 -0.105808 14
-1.30359 -2.2285 -0.04446 44
-1.29909 -1.53073 -0.241871 14
-1.30356 -2.22932 -0.222456 44
-1.16001 -1.36613 -0.340935 14
-1.30259 -2.23029 -0.404046 44
-1.86923 -2.19697 -0.763019 8
-1.29541 -2.22321 -0.585111 44
-4.70454 -5.48524 1.65763 11
-3.28154 -5.61049 1.72989 29
-4.70156 -5.48368 1.13594 12
-3.29211 -5.60619 1.25583 12
-4.68553 -5.4669 0.626868 12
-3.28601 -5.57799 0.789503 2
-1.40007 -1.63446 0.0369555 12
-1.31923 -2.23018 0.13398 44
-1.34204 -1.5657 -0.106596 14
-1.31651 -2.22379 -0.0445036 44
-1.31679 -1.53521 -0.243696 14
-1.31686 -2.22438 -0.222674 44
-1.16715 -1.36004 -0.340935 14
-1.31676 -2.22769 -0.404829 44
-1.88229 -2.18899 -0.763665 9
-1.31197 -2.2248 -0.587358 45
-4.71729 -5.48071 1.65875 11
-3.28156 -5.58809 1.72472 8
-4.71273 -5.47733 1.13633 12
-3.30287 -5.59986 1.25583 1
-4.70319 -5.46815 0.627957 12
-3.2642 -5.51882 0.781897 1
-1.40973 -1.63935 0.03713 12
-1.32439 -2.23002 0.134111 44
-1.34966 -1.56903 -0.10699 14
-1.32548 -2.2301 -0.0446782 42
-1.32756 -1.5423 -0.245218 14
-1.32582 -2.23065 -0.223543 44
-1.16311 -1.35056 -0.33903 12
-1.32316 -2.22964 -0.405612 44
-1.88964 -2.18902 -0.764959 9
-1.31832 -2.22671 -0.588481 44
-4.75647 -5.46613 1.66212 11
-3.30682 -5.56194 1.72214 1
-4.74068 -5.44989 1.13594 11
-3.34345 -5.60146 1.26011 1
-4.7278 -5.43699 0.627303 12
-3.23799 -5.40737 0.768511 1
-1.41829 -1.63195 0.03713 12
-1.339 -2.2271 0.134373 45
-1.36277 -1.56759 -0.107383 15
-1.34009 -2.22718 -0.0447654 42
-1.33915 -1.53884 -0.245826 14
-1.33876 -2.22581 -0.223761 44
-1.1704 -1.34425 -0.33903 14
-1.33481 -2.22269 -0.405612 44
-1.90426 -2.18274 -0.766252 11
-1.33035 -2.21954 -0.588481 44
-4.76345 -5.45682 1.66156 9
-3.31157 -5.54786 1.71955 3
-4.75898 -5.4536 1.13828 11
-3.33684 -5.56824 1.25392 3
-4.74711 -5.43999 0.628611 11
-3.29627 -5.48526 0.780376 3
-1.42772 -1.637 0.0373045 12
-1.34635 -2.23142 0.134765 45
-1.37043 -1.57085 -0.107777 14
-1.34527 -2.22698 -0.0448091 42
-1.35137 -1.54794 -0.247652 14
-1.34649 -2.22987 -0.224413 42
-1.16628 -1.33482 -0.337125 12
-1.34504 -2.23094 -0.407569 42
-1.90488 -2.17578 -0.764959 11
-1.33759 -2.22372 -0.590165 44
-4.80324 -5.44459 1.66549 8
-3.34086 -5.5331 1.7202 14
-4.78583 -5.42676 1.13789 9
-3.39166 -5.59537 1.26393 2
-4.79764 -5.44204 0.631661 4
-3.39319 -5.58035 0.796501 11
-1.43929 -1.6335 0.0373918 12
-1.35931 -2.22647 0.134896 42
-1.38029 -1.56552 -0.107909 14
-1.35782 -2.22228 -0.0448527 42
-1.36274 -1.54457 -0.24826 14
-1.36203 -2.22918 -0.225066 42
-1.35671 -2.22386 -0.407569 42
-1.92387 -2.17515 -0.768192 12
-1.34921 -2.21668 -0.590165 44
-4.80466 -5.42708 1.66268 4
-3.32675 -5.488 1.70792 12
-4.81821 -5.44428 1.14336 4
-3.39985 -5.58466 1.26297 11
-4.85995 -5.49334 0.638634 8
-3.3913 -5.55535 0.793763 12
-1.44408 -1.63261 0.0374354 12
-1.3671 -2.23049 0.135288 42
-1.38964 -1.57059 -0.108434 14
-1.36691 -2.22844 -0.0450272 42
-1.36872 -1.5459 -0.248869 14
-1.36852 -2.23105 -0.2255 44
-1.36316 -2.22571 -0.408352 42
-1.92644 -2.16965 -0.767545 12
-1.35688 -2.22057 -0.59185 44
-4.8827 -5.45545 1.67953 3
-3.33621 -5.43697 1.69758 12
-4.93488 -5.51565 1.16404 9
-3.40848 -5.53333 1.25535 11
-4.93776 -5.52079 0.644952 11
-3.41349 -5.52425 0.791937 12
-1.45761 -1.63061 0.0375663 12
-1.38309 -2.22943 0.135681 41
-1.40617 -1.57259 -0.10909 14
-1.38026 -2.22313 -0.0450708 42
-1.38369 -1.54586 -0.250086 14
-1.38149 -2.22597 -0.225718 42
-1.37868 -2.22484 -0.409527 42
-1.941 -2.16312 -0.768838 11
-1.37399 -2.22149 -0.594096 45
-4.97429 -5.54021 1.70817 12
-3.32546 -5.39823 1.68724 11
-4.97159 -5.53913 1.17067 9
-3.40781 -5.51067 1.25154 12
-4.97401 -5.54181 0.648439 11
-3.40127 -5.48512 0.78707 14
-1.46212 -1.62992 0.0376099 12
-1.3879 -2.22938 0.135812 39
-1.40892 -1.57013 -0.10909 14
-1.38678 -2.22497 -0.0451581 41
-1.39441 -1.55291 -0.251607 14
-1.38669 -2.22567 -0.225935 42
-1.38386 -2.22453 -0.409918 42
-1.94962 -2.16511 -0.770778 9
-1.37491 -2.21519 -0.592973 44
-5.02451 -5.53754 1.71547 11
-3.3336 -5.35056 1.67755 11
-5.02209 -5.53679 1.17575 11
-3.44346 -5.50584 1.2544 12
-5.01873 -5.53501 0.650618 11
-3.44179 -5.48616 0.789808 12
-1.47707 -1.62991 0.0377845 12
-1.39956 -2.22208 0.135812 38
-1.42215 -1.56828 -0.109484 14
-1.39935 -2.22004 -0.0452017 41
-1.40253 -1.54559 -0.251607 14
-1.40097 -2.2226 -0.22637 42
-1.39812 -2.22144 -0.410701 42
-1.96706 -2.16236 -0.773365 8
-1.39295 -2.21828 -0.59578 45
-5.04237 -5.53776 1.71827 12
-3.31991 -5.30786 1.66592 11
-5.03341 -5.52985 1.17614 11
-3.51009 -5.58862 1.27489 11
-5.04012 -5.53913 0.652143 11
-3.51476 -5.58098 0.804411 12
-1.48357 -1.63076 0.0378717 12
-1.40742 -2.22597 0.136204 36
-1.42993 -1.57133 -0.109878 14
-1.40722 -2.22394 -0.0453326 41
-1.4075 -2.22436 -0.226805 42
-1.40725 -2.22736 -0.412268 42
-1.97447 -2.16214 -0.774658 3
-1.39682 -2.21585 -0.59578 44
-5.08711 -5.52653 1.72333 11
-3.3331 -5.26533 1.65816 11
-5.085 -5.52615 1.18121 11
-3.54456 -5.57846 1.2768 11
-5.08519 -5.52828 0.654104 11
-3.54091 -5.5556 0.803499 12
-1.49378 -1.62481 0.0379153 12
-1.42347 -2.22464 0.136597 33
-1.44829 -1.57484 -0.110665 14
-1.42326 -2.22261 -0.0454635 41
-1.42181 -2.22116 -0.22724 42
-1.42022 -2.22204 -0.412659 42
-1.99723 -2.16419 -0.779185 2
-1.41271 -2.21443 -0.597465 44
-5.11067 -5.53464 1.72838 9
-3.32288 -5.22891 1.64847 11
-5.11545 -5.54174 1.18628 11
-3.54638 -5.55984 1.27394 9
-5.10835 -5.53403 0.655847 11
-3.54429 -5.54167 0.802282 9
-1.50679 -1.63322 0.0381771 12
-1.42562 -2.2203 0.136466 30
-1.44595 -1.56681 -0.110272 14
-1.42849 -2.22223 -0.0455071 42
-1.43105 -2.22707 -0.22811 42
-1.42543 -2.22164 -0.413051 42
-2.00593 -2.16602 -0.781124 2
-1.41749 -2.21426 -0.598027 44
-5.15454 -5.52383 1.73343 9
-3.32975 -5.18153 1.63877 11
-5.15282 -5.52391 1.18823 11
-3.57448 -5.54182 1.27394 11
-5.16348 -5.53724 0.659333 12
-3.57057 -5.51886 0.801673 9
-1.51845 -1.62923 0.0382644 12
-1.44265 -2.22119 0.136989 29
-1.45897 -1.56495 -0.110665 14
-1.44244 -2.21917 -0.0455944 42
-1.44366 -2.22189 -0.228327 42
-1.44106 -2.22037 -0.414225 42
-2.02347 -2.16289 -0.783711 2
-1.43039 -2.20886 -0.598588 42
-5.17986 -5.53351 1.73905 9
-3.31525 -5.13917 1.62714 11
-5.18608 -5.54014 1.1937 9
-3.57482 -5.52115 1.2706 9
-5.17483 -5.53004 0.659551 4
-3.56939 -5.49597 0.799239 8
-1.52129 -1.62657 0.0382644 12
-1.44652 -2.21867 0.136989 26
-1.45658 -1.55693 -0.110272 14
-1.45039 -2.22294 -0.0457253 41
-1.44889 -2.22145 -0.228545 42
-1.44493 -2.21785 -0.414225 42
-2.03882 -2.17167 -0.788237 2
-1.44218 -2.21863 -0.601957 44
-5.2047 -5.50009 1.73737 1
-3.3197 -5.08734 1.61616 11
-5.24727 -5.54699 1.20111 1
-3.59427 -5.48797 1.26726 9
-5.19345 -5.49202 0.658244 9
-3.5954 -5.47305 0.798631 8
-1.46086 -2.21524 0.137251 23
-1.46476 -2.21949 -0.0458126 41
-1.47008 -2.22841 -0.230067 44
-1.45885 -2.21464 -0.415008 42
-2.05349 -2.16447 -0.789531 2
-1.45512 -2.21308 -0.602519 44
-5.22507 -5.50428 1.7413 8
-3.31007 -5.05324 1.60711 11
-5.20667 -5.4868 1.18979 11
-3.60519 -5.48374 1.26774 8
-5.19445 -5.47391 0.657154 9
-3.67629 -5.57726 0.814755 8
-1.46571 -2.21502 0.137382 20
-1.47414 -2.22527 -0.0459871 42
-1.47259 -2.22376 -0.22985 42
-1.46543 -2.21621 -0.415791 42
-1.46127 -2.21487 -0.603642 42
-5.22852 -5.45048 1.73287 9
-3.31962 -5.01224 1.59936 11
-5.22165 -5.44521 1.18667 8
-3.71704 -5.59221 1.29729 9
-3.71782 -5.57652 0.817494 9
-1.48145 -2.21355 0.137774 18
-1.48677 -2.21986 -0.0460307 42
-1.48798 -2.22249 -0.230502 42
-1.18319 -1.23282 -0.324745 14
-1.48249 -2.21673 -0.417357 42
-1.47824 -2.2153 -0.605888 44
-3.31234 -4.9823 1.5916 12
-3.72543 -5.58367 1.29681 8
-3.72341 -5.56384 0.816581 8
-1.4867 -2.21304 0.137905 15
-1.49064 -2.21727 -0.0460307 41
-1.49324 -2.22196 -0.230719 42
-1.18023 -1.22546 -0.323317 14
-1.48773 -2.21619 -0.417749 41
-1.48345 -2.21474 -0.606449 44
-3.31281 -4.92678 1.57932 11
-3.75736 -5.56815 1.29777 9
-3.74138 -5.52782 0.814147 9
-1.50386 -2.21349 0.138429 15
-1.50643 -2.21564 -0.0461616 41
-1.50803 -2.21797 -0.231154 42
-1.19177 -1.22453 -0.324745 12
-1.50208 -2.21246 -0.418532 42
-1.49912 -2.213 -0.608134 44
-3.30521 -4.89696 1.57157 11
-3.75292 -5.53857 1.29252 9
-3.74963 -5.51922 0.813843 8
-1.50912 -2.21293 0.138559 14
-1.5117 -2.21507 -0.0462052 41
-1.5133 -2.2174 -0.231372 41
-1.18361 -1.21192 -0.321888 11
-1.5101 -2.21596 -0.419706 41
-1.50571 -2.21442 -0.609257 42
-3.19313 -3.23665 1.03995 2
-3.31398 -4.85306 1.56317 12
-3.76801 -5.49859 1.28776 9
-3.22075 -3.26687 0.398302 3
-3.75697 -5.46612 0.808975 8
-2.14098 -2.17154 0.052619 38
-1.52814 -2.21502 0.139214 14
-1.52792 -2.21304 -0.0463361 41
-1.52771 -2.21355 -0.231807 41
-1.1936 -1.20899 -0.32284 9
-1.52486 -2.21183 -0.420489 41
-1.52042 -2.21026 -0.61038 42
-3.20507 -3.23855 1.04219 3
-3.29926 -4.81339 1.55218 12
-3.22937 -3.26308 0.719964 8
-3.77343 -5.48594 1.28633 8
-3.20543 -3.24001 0.395687 12
-3.82281 -5.5413 0.821144 8
-2.16939 -2.19267 0.0532298 39
-1.53201 -2.21235 0.139214 14
-1.5344 -2.21498 -0.232242 41
-1.19398 -1.20517 -0.322364 9
-1.53432 -2.2173 -0.422055 41
-1.53118 -2.21764 -0.613188 44
-3.23289 -3.2315 1.04556 4
-3.3093 -4.7742 1.54508 12
-3.24292 -3.24263 0.719183 8
-3.8343 -5.51247 1.29729 8
-3.23468 -3.23551 0.397212 8
-3.87162 -5.54971 0.825404 9
-2.18968 -2.19012 0.053448 39
-1.54214 -2.20225 0.139083 12
-1.55025 -2.21304 -0.232894 41
-1.1968 -1.19543 -0.321412 8
-1.54874 -2.21328 -0.422839 41
-1.54694 -2.21559 -0.614872 44
-3.29696 -4.73867 1.53538 12
-3.88462 -5.56415 1.31111 9
-3.88273 -5.54498 0.825708 9
-2.20059 -2.19335 0.0536225 39
-1.55601 -2.21387 0.139999 12
-1.55554 -2.21237 -0.233111 41
-1.1954 -1.18988 -0.32046 8
-1.55543 -2.21462 -0.423622 41
-1.5536 -2.21688 -0.615995 44
-3.30646 -4.6996 1.52827 12
-3.9137 -5.54373 1.31111 9
-3.90884 -5.52052 0.8251 9
-2.21916 -2.18881 0.053797 39
-1.56469 -2.20162 0.139737 11
-1.55913 -1.53625 -0.264081 15
-1.21386 -1.19565 -0.323793 8
-1.57128 -2.2125 -0.424796 41
-1.56799 -2.2127 -0.617118 44
-5.49916 -5.40221 1.76881 12
-3.29379 -4.66421 1.51858 12
-3.91628 -5.52688 1.30873 9
-5.4907 -5.39576 0.670446 14
-3.90555 -5.49548 0.822361 8
-2.22833 -2.19019 0.0539279 38
-1.57143 -2.20295 0.139999 11
-1.56358 -1.53526 -0.264385 15
-1.21244 -1.1901 -0.32284 4
-1.57608 -2.21592 -0.618803 44
-5.60344 -5.44537 1.79296 11
-3.30274 -4.62527 1.51147 12
-3.93517 -5.49232 1.30539 8
-5.61709 -5.46241 0.682429 12
-3.9227 -5.45882 0.819928 8
-2.24694 -2.18546 0.0541025 38
-1.58731 -2.20078 0.140391 9
-1.17115 -1.62044 -0.034294 11
-1.57338 -1.52878 -0.264689 15
-1.22394 -1.18886 -0.324269 8
-1.59192 -2.21358 -0.620488 44
-5.64874 -5.47215 1.80475 12
-3.29957 -4.60378 1.5063 11
-5.66517 -5.48804 1.24091 12
-3.93759 -5.47548 1.30301 4
-5.52287 -5.35209 0.669792 1
-2.25793 -2.18849 0.054277 38
-1.59261 -2.20003 0.140522 9
-1.16227 -1.60218 -0.0339449 12
-1.5814 -1.53121 -0.265602 14
-1.22778 -1.18842 -0.324745 8
-1.59862 -2.21475 -0.621611 44
-5.69585 -5.45836 1.81036 11
-3.30098 -4.55514 1.49596 11
-5.6867 -5.45147 1.23935 12
-5.67846 -5.44547 0.685262 14
-2.27658 -2.18356 0.0544515 38
-1.61146 -2.20175 0.141176 8
-1.59298 -1.52634 -0.26621 15
-1.23931 -1.18707 -0.326174 8
-1.61449 -2.21226 -0.623295 44
-5.7009 -5.44604 1.80924 12
-3.29758 -4.53373 1.49079 4
-5.69977 -5.44495 1.24013 12
-5.68976 -5.43727 0.68548 14
-2.28943 -2.18821 0.0546697 36
-1.61972 -2.20497 0.141569 4
-1.59923 -1.52698 -0.266819 15
-1.24138 -1.1849 -0.326174 8
-1.62266 -2.21534 -0.62498 44
-5.73736 -5.42181 1.81149 12
-3.30555 -4.49499 1.48369 4
-5.72821 -5.41503 1.24013 12
-5.72358 -5.41254 0.686134 14
-3.29367 -4.44956 0.674501 1
-2.3063 -2.18134 0.0548006 36
-1.63719 -2.20449 0.142092 3
-1.18771 -1.5959 -0.0341195 14
-1.24935 -1.18007 -0.32665 9
-1.15631 -1.5557 -0.30186 12
-1.63713 -2.21074 -0.626103 45
-5.73972 -5.40511 1.80924 12
-3.29191 -4.46005 1.47399 2
-5.73765 -5.40503 1.24013 12
-5.72577 -5.39571 0.685262 12
-3.28812 -4.42586 0.671763 1
-2.31959 -2.18548 0.0550187 35
-1.64252 -2.20363 0.142223 2
-1.18453 -1.5858 -0.0339449 14
-1.24962 -1.17621 -0.326174 8
-1.15903 -1.55368 -0.30186 14
-2.27543 -2.13647 -0.826388 11
-1.64389 -2.21179 -0.627226 44
-5.77958 -5.38393 1.81261 9
-3.30156 -4.42281 1.46753 3
-5.76319 -5.37054 1.23935 9
-5.78403 -5.39182 0.688748 11
-2.34014 -2.18182 0.0552369 36
-1.65442 -2.19471 0.142223 2
-1.19309 -1.57937 -0.0339449 14
-1.25776 -1.1711 -0.32665 9
-1.16593 -1.54541 -0.301468 14
-2.26357 -2.10317 -0.817982 8
-1.66021 -2.20872 -0.628911 44
-5.87552 -5.45606 1.84013 8
-3.28613 -4.38609 1.45719 14
-5.88296 -5.46295 1.26316 11
-5.87191 -5.45458 0.698118 11
-2.35127 -2.18454 0.0554114 36
-1.66276 -2.1978 0.142615 2
-0.720085 -0.670098 -0.0498847 30
-1.19585 -1.57728 -0.0339449 14
-1.2616 -1.17057 -0.327126 9
-1.16566 -1.53943 -0.300685 15
-2.26724 -2.09921 -0.817982 8
-1.66553 -2.20776 -0.629472 44
-5.9211 -5.43902 1.84518 9
-3.29158 -4.34571 1.44944 14
-5.91875 -5.43875 1.26472 9
-5.90772 -5.4305 0.698989 11
-2.37189 -2.18065 0.0556295 36
-1.67727 -2.19304 0.142877 2
-0.718067 -0.661253 -0.0494909 29
-1.20561 -1.57299 -0.0339886 14
-1.27314 -1.16893 -0.328554 9
-1.17493 -1.53548 -0.301077 15
-2.28176 -2.09057 -0.819275 8
-5.93682 -5.43629 1.84742 9
-3.29332 -4.33226 1.44685 14
-5.92365 -5.42611 1.26394 9
-5.91719 -5.42018 0.698989 11
-2.38122 -2.18157 0.0557604 35
-0.715536 -0.656628 -0.0492284 30
-1.21139 -1.57485 -0.0340758 14
-1.28062 -1.17167 -0.329983 11
-1.17761 -1.53342 -0.301077 14
-2.28541 -2.08659 -0.819275 4
-5.95798 -5.39859 1.84518 9
-5.95015 -5.39337 1.26355 9
-5.93348 -5.38013 0.697682 11
-2.40149 -2.17788 0.0559786 36
-0.717 -0.651322 -0.0490971 30
-1.22699 -1.57859 -0.034294 14
-2.40777 -2.18052 -0.393991 35
-1.28835 -1.16682 -0.330459 11
-1.19015 -1.5331 -0.302251 14
-2.29236 -2.07176 -0.817982 4
-5.96826 -5.39086 1.84574 9
-5.96322 -5.38628 1.26433 9
-5.94286 -5.36977 0.697682 9
-2.41457 -2.18206 0.0561967 36
-0.716283 -0.648396 -0.0489658 30
-1.22668 -1.57249 -0.0342067 14
-2.41342 -2.17798 -0.394295 36
-1.28856 -1.16292 -0.329983 11
-1.19434 -1.53297 -0.302643 14
-2.29417 -2.06614 -0.817335 4
-6.00098 -5.36173 1.84686 8
-5.98213 -5.34676 1.26238 3
-2.43528 -2.17772 0.0564149 35
-0.723505 -0.647837 -0.0492284 32
-1.24261 -1.57588 -0.0344249 14
-2.4396 -2.17853 -0.396729 36
-1.2928 -1.15453 -0.329507 12
-1.20539 -1.53058 -0.303426 14
-2.30857 -2.05731 -0.818629 8
-2.45066 -2.18301 0.0566767 35
-0.722769 -0.644914 -0.0490971 32
-1.25154 -1.58156 -0.0345994 14
-2.44896 -2.17921 -0.397642 36
-1.30399 -1.16042 -0.331888 9
-1.20501 -1.5246 -0.302643 14
-2.31251 -2.05287 -0.818629 8
-6.30377 -5.55352 1.32208 1
-6.55647 -5.77809 0.761523 3
-2.46956 -2.17676 0.0568512 35
-0.724262 -0.639471 -0.0489658 32
-1.26475 -1.58064 -0.0347303 14
-2.46817 -2.17248 -0.398859 36
-1.31209 -1.15497 -0.332364 9
-1.21785 -1.52385 -0.303817 14
-2.32142 -2.03914 -0.817982 8
-6.44121 -5.65464 1.96759 3
-6.34872 -5.57346 1.32949 1
-1.74368 -2.18512 0.536168 9
-6.58152 -5.77978 0.763266 3
-2.47899 -2.17739 0.0569821 33
-0.715994 -0.629974 -0.0483094 30
-1.27375 -1.58624 -0.0349048 14
-2.48502 -2.17962 -0.400989 36
-1.32149 -1.15914 -0.334268 9
-1.22359 -1.52558 -0.3046 14
-2.32497 -2.03509 -0.817982 8
-6.4928 -5.64001 1.97433 3
-6.38616 -5.54935 1.33145 2
-1.75011 -2.17053 0.534739 3
-6.61257 -5.74803 0.763484 3
-2.49941 -2.17301 0.0572003 35
-0.715403 -0.623068 -0.0480469 33
-1.28491 -1.58366 -0.0349921 14
-2.50727 -2.17677 -0.402814 36
-1.31807 -1.1444 -0.331888 9
-1.23284 -1.52129 -0.304992 14
-2.34437 -2.0312 -0.821215 8
-6.4335 -5.57081 1.95355 2
-6.41078 -5.55112 1.33457 2
-6.60753 -5.72344 0.761741 3
-2.51265 -2.17682 0.0574184 33
-0.716489 -0.621818 -0.0480469 33
-1.29554 -1.59112 -0.0352102 14
-2.5167 -2.17726 -0.403727 35
-1.32192 -1.1437 -0.332364 9
-1.24171 -1.52682 -0.306558 14
-2.34791 -2.0271 -0.821215 8
-6.4765 -5.54701 1.95748 2
-6.46601 -5.53997 1.34003 2
-6.65632 -5.70497 0.76392 3
-2.53578 -2.17295 0.0576802 35
-0.717946 -0.616309 -0.0479156 32
-1.30254 -1.58216 -0.0351666 14
-2.5356 -2.1705 -0.404944 35
-1.33555 -1.14291 -0.334268 9
-1.2575 -1.52985 -0.308515 12
-2.35333 -2.00967 -0.819275 9
-6.51026 -5.55625 1.96478 3
-6.49542 -5.54357 1.34393 3
-6.55928 -5.60002 0.7515 2
-2.54756 -2.17457 0.0578547 33
-0.719128 -0.61493 -0.0479156 32
-1.3151 -1.59124 -0.0354284 14
-2.5511 -2.17529 -0.406769 35
-1.33961 -1.14194 -0.334745 11
-1.26827 -1.53698 -0.310473 12
-2.36087 -2.00827 -0.820569 9
-6.57851 -5.54735 1.97545 8
-6.54612 -5.52199 1.34783 1
-6.5762 -5.5493 0.749757 2
-2.57304 -2.17159 0.0581601 35
-0.714916 -0.604468 -0.0473905 32
-1.33037 -1.59155 -0.0356029 14
-2.57497 -2.17015 -0.408595 35
-1.3516 -1.13918 -0.336173 11
-1.28499 -1.53914 -0.312431 12
-2.37205 -1.99506 -0.820569 9
-6.63384 -5.57619 1.98949 12
-6.59356 -5.54233 1.35564 3
-6.59731 -5.54743 0.751065 2
-4.55593 -5.46069 0.867693 12
-2.5864 -2.17513 0.0583783 35
-0.717882 -0.604825 -0.0475218 32
-1.33474 -1.59115 -0.0356465 14
-2.58446 -2.17044 -0.409507 35
-1.35547 -1.13839 -0.336649 11
-1.29084 -1.54069 -0.313214 12
-2.37923 -1.99402 -0.821862 9
-1.16796 -1.39622 -0.4116 4
-6.68452 -5.55735 1.99567 14
-6.48007 -5.38933 1.32637 1
-4.59158 -5.46063 1.37879 11
-6.65691 -5.53829 0.754551 12
-4.65478 -5.52028 0.88108 11
-2.60736 -2.16955 0.0585965 35
-1.84144 -2.17626 0.147587 9
-0.717199 -0.597866 -0.0472592 32
-1.35112 -1.59369 -0.0358647 14
-2.60534 -2.1648 -0.411029 35
-1.36519 -1.13441 -0.337602 11
-1.30499 -1.54169 -0.31478 14
-2.3915 -1.98307 -0.822508 8
-1.17212 -1.38636 -0.410476 8
-6.70825 -5.55927 2.00016 15
-6.68627 -5.54301 1.36696 14
-4.65962 -5.52205 1.39642 11
-6.68382 -5.54097 0.756512 14
-4.66505 -5.51486 0.881384 12
-2.61884 -2.17137 0.058771 35
-1.84808 -2.17718 0.147849 4
-0.708627 -0.588652 -0.0466028 33
-1.36036 -1.59896 -0.0360392 14
-2.62403 -2.17336 -0.413463 35
-1.36717 -1.13203 -0.337602 12
-1.31564 -1.54884 -0.316737 14
-2.39868 -1.98197 -0.823802 8
-1.17273 -1.38265 -0.409915 8
-6.66379 -5.46384 1.97826 12
-6.70565 -5.5001 1.365 14
-4.69705 -5.50961 1.39928 12
-6.69252 -5.49127 0.754333 14
-4.69064 -5.48658 0.880776 12
-2.63753 -2.16443 0.0589455 35
-1.86757 -2.17696 0.148503 4
-0.715459 -0.588223 -0.0468654 33
-1.37168 -1.59585 -0.0361265 14
-2.64113 -2.16431 -0.414375 36
-1.37288 -1.1251 -0.337602 11
-1.32828 -1.54779 -0.317912 14
-2.40681 -1.96827 -0.823155 8
-1.17047 -1.36537 -0.406546 9
-6.62331 -5.4133 1.96366 9
-6.64163 -5.43017 1.35018 12
-4.71623 -5.5126 1.40214 11
-6.66353 -5.44806 0.749975 12
-4.70248 -5.48298 0.881384 12
-2.65292 -2.16931 0.0592073 33
-1.87748 -2.1816 0.149027 4
-0.714551 -0.585394 -0.0467341 32
-1.38098 -1.60104 -0.036301 14
-2.66183 -2.17428 -0.417113 35
-1.32712 -1.53884 -0.174399 12
-1.37484 -1.1227 -0.337602 12
-1.33258 -1.54735 -0.318303 14
-2.41211 -1.9656 -0.823802 8
-1.16944 -1.35983 -0.405423 9
-6.62694 -5.35863 1.95636 11
-6.63733 -5.36893 1.34354 12
-4.73445 -5.47751 1.39928 11
-6.67166 -5.3986 0.747796 12
-4.7295 -5.4564 0.88108 11
-2.67358 -2.16372 0.0594254 33
-0.709739 -0.575492 -0.046209 33
-1.39234 -1.59781 -0.0363883 14
-2.6809 -2.16655 -0.41833 35
-1.33978 -1.53774 -0.175051 14
-1.38624 -1.12035 -0.33903 12
-1.34848 -1.54991 -0.320261 14
-2.42015 -1.95185 -0.823155 8
-1.16858 -1.34447 -0.402615 9
-6.62966 -5.34363 1.95468 9
-6.62652 -5.343 1.33964 12
-4.74079 -5.46553 1.39833 8
-6.64229 -5.35569 0.743438 12
-4.74132 -5.45271 0.881688 11
-2.68709 -2.16689 0.0596436 33
-0.708798 -0.572686 -0.0460777 33
-1.40005 -1.60103 -0.0365192 14
-2.69396 -2.17011 -0.419852 35
-1.35391 -1.54855 -0.176573 14
-1.39393 -1.12254 -0.340459 12
-1.35604 -1.55315 -0.321436 14
-2.42355 -1.94762 -0.823155 8
-1.15473 -1.32423 -0.397 11
-6.6785 -5.32555 1.96085 11
-6.66213 -5.31439 1.3412 12
-4.77001 -5.44331 1.3988 8
-6.64984 -5.30647 0.74126 12
-4.76981 -5.42781 0.881688 9
-2.70584 -2.15949 0.0598181 33
-0.71364 -0.570648 -0.046209 32
-1.41309 -1.59955 -0.0366501 14
-2.71888 -2.1668 -0.421981 35
-1.40151 -1.117 -0.340935 12
-1.36877 -1.55183 -0.32261 14
-2.43905 -1.93984 -0.825095 8
-1.15041 -1.30534 -0.393069 3
-6.72119 -5.34233 1.97096 9
-6.68207 -5.31314 1.34354 12
-4.78112 -5.43682 1.39928 8
-6.68249 -5.31345 0.743874 12
-4.80128 -5.44639 0.885948 4
-2.7233 -2.16565 0.0601235 33
-0.710725 -0.566296 -0.0459465 32
-1.42084 -1.60271 -0.0367809 14
-2.732 -2.17024 -0.423502 35
-1.37148 -1.54944 -0.32261 14
-1.12994 -1.27792 -0.385208 3
-6.7912 -5.34019 1.98331 8
-3.30903 -3.73543 1.32601 1
-4.83952 -5.44743 1.40834 4
-6.76998 -5.3273 0.750629 11
-4.88581 -5.48421 0.896292 4
-2.74602 -2.16111 0.0603853 33
-0.707791 -0.557939 -0.0455526 32
-1.4306 -1.59736 -0.0368246 14
-2.76284 -2.17123 -0.426545 32
-1.13338 -1.26834 -0.384085 4
-6.98463 -5.47254 2.03722 9
-3.27868 -3.6881 1.31115 3
-6.93281 -5.43389 1.38647 11
-4.93648 -5.53526 1.4336 8
-4.96148 -5.54971 0.908461 11
-2.76197 -2.16508 0.0606471 33
-0.706798 -0.555164 -0.0454214 32
-1.43838 -1.60045 -0.0369555 14
-2.77249 -2.17099 -0.427458 15
-1.13073 -1.26091 -0.3824 3
-3.3002 -3.6721 1.3118 4
-4.99331 -5.54034 1.4417 11
-5.00474 -5.53752 0.910895 11
-2.7871 -2.16131 0.0609525 33
-0.713643 -0.554513 -0.0456839 30
-1.4487 -1.5945 -0.0369991 14
-1.14243 -1.2602 -0.384085 4
-3.28722 -3.64479 1.30404 4
-5.01284 -5.54255 1.44456 11
-5.01843 -5.53517 0.911808 9
-2.80076 -2.16408 0.0611707 35
-0.706704 -0.547165 -0.0451588 30
-1.45652 -1.59752 -0.03713 14
-1.14114 -1.25479 -0.382962 4
-2.86037 -2.18709 0.563484 3
-5.05737 -5.53523 1.44932 11
-2.86445 -2.19099 0.312453 9
-5.06744 -5.53079 0.915459 9
-2.83154 -2.16505 0.061607 44
-0.711543 -0.544972 -0.0452901 29
-1.47134 -1.5975 -0.0373045 14
-1.14934 -1.25059 -0.383523 3
-2.84575 -2.1673 0.816461 9
-2.84453 -2.16714 0.559582 9
-5.08291 -5.5418 1.45361 9
-2.83855 -2.16335 0.309185 9
-5.08884 -5.53473 0.917589 9
-2.83171 -2.15658 0.0615197 38
-0.704545 -0.537684 -0.044765 27
-1.47582 -1.59677 -0.0373481 14
-1.14658 -1.2432 -0.381839 4
-2.86327 -2.15626 0.818145 9
-2.85227 -2.14875 0.558801 11
-5.13186 -5.53672 1.45933 9
-2.84424 -2.14347 0.308531 14
-5.1339 -5.52348 0.920327 9
-2.85095 -2.14774 0.0616943 24
-1.48785 -1.59242 -0.0374354 14
-1.15826 -1.24234 -0.383523 12
-2.86081 -2.14738 0.816461 8
-2.86354 -2.15019 0.560362 15
-5.15488 -5.54214 1.46314 9
-2.84997 -2.13999 0.308749 15
-5.15779 -5.53175 0.923065 9
-2.8447 -2.13526 0.0614761 11
-1.49233 -1.59165 -0.037479 14
-1.15191 -1.2316 -0.380715 12
-2.87397 -2.13382 0.817022 8
-2.89459 -2.14989 0.564264 1
-5.19798 -5.53208 1.46743 8
-2.88876 -2.14633 0.3118 1
-5.21559 -5.53539 0.928237 1
-2.84945 -2.11637 0.0613452 2
-1.50551 -1.58953 -0.0376099 14
-1.15334 -1.22022 -0.379031 14
-2.86361 -2.11916 0.813092 2
-2.88245 -2.13309 0.561142 2
-5.21099 -5.52658 1.46839 1
-2.87648 -2.12943 0.310057 2
-5.20139 -5.50102 0.923978 11
-2.86922 -2.12328 0.0616943 2
-1.51172 -1.59053 -0.0376972 14
-0.871108 -0.643526 -0.280636 44
-1.15213 -1.21466 -0.377908 14
-2.899 -2.12039 0.81983 2
-2.88997 -2.11454 0.560362 2
-5.23574 -5.49297 1.46696 8
-5.20024 -5.44049 0.918501 8
-2.92304 -2.13871 0.0626105 1
-0.694581 -0.509328 -0.0434522 21
-1.52376 -1.58594 -0.0377845 14
-0.866114 -0.633543 -0.201418 41
-0.864818 -0.631694 -0.277403 41
-1.15364 -1.20312 -0.376223 14
-2.93687 -2.14096 0.0628287 20
-0.693451 -0.506646 -0.043321 20
-1.52825 -1.58508 -0.0378281 14
-0.868164 -0.633405 -0.127477 41
-0.855307 -0.623373 -0.198561 41
-0.863964 -0.628765 -0.276756 42
-1.15384 -1.19955 -0.375662 14
-2.9862 -2.15384 0.0636576 21
-0.692042 -0.50009 -0.0430584 18
-1.53974 -1.58091 -0.0379153 14
-0.865426 -0.624503 -0.126564 41
-0.858451 -0.619036 -0.198561 41
-0.869097 -0.625793 -0.277403 41
-1.15334 -1.18648 -0.373416 14
-3.00251 -2.15684 0.0639194 20
-0.688857 -0.495971 -0.0427959 17
-1.54424 -1.58002 -0.037959 14
-0.866515 -0.622991 -0.126564 42
-0.859531 -0.617537 -0.198561 41
-0.864404 -0.619909 -0.275463 41
-1.15371 -1.18272 -0.372854 14
-3.21926 -3.27252 0.558585 3
-3.02599 -2.14977 0.0641812 18
-1.55802 -1.57698 -0.0380899 14
-0.863799 -0.613989 -0.125651 42
-1.52076 -1.53962 -0.185924 15
-0.864862 -0.614296 -0.199037 42
-0.867638 -0.615375 -0.275463 42
-1.16009 -1.17646 -0.372854 14
-3.08672 -2.18482 0.863629 2
-3.21565 -3.27787 1.21939 2
-3.1083 -2.20007 0.596263 3
-3.20254 -3.25316 0.879793 1
-3.07532 -2.17754 0.326616 9
-3.21974 -3.26159 0.557672 9
-3.05015 -2.15892 0.0646175 26
-1.56604 -1.5796 -0.0382208 14
-0.862843 -0.611049 -0.125347 42
-1.53044 -1.54406 -0.186794 15
-0.857912 -0.607125 -0.197133 41
-1.52889 -1.54407 -0.339054 14
-0.864763 -0.611077 -0.274169 42
-1.15702 -1.16922 -0.37117 14
-3.10249 -2.17088 0.864752 4
-3.21578 -3.24382 1.21293 1
-3.09347 -2.16537 0.59119 9
-3.18149 -3.19803 0.869308 1
-3.07648 -2.15427 0.325527 11
-3.24553 -3.25348 0.559194 8
-3.06755 -2.14722 0.0647484 29
-1.57606 -1.57315 -0.0382644 14
-0.86603 -0.606523 -0.125347 41
-1.54026 -1.53778 -0.187011 15
-0.859066 -0.60122 -0.196656 41
-1.54017 -1.53981 -0.339837 14
-0.86795 -0.606541 -0.274169 42
-1.16141 -1.16142 -0.370608 14
-3.08991 -2.15486 0.86026 9
-3.23335 -3.2502 1.21745 4
-3.08877 -2.15486 0.589629 9
-3.08432 -2.15174 0.325962 12
-3.0713 -2.14186 0.0647484 12
-1.58234 -1.57393 -0.0383517 14
-0.866982 -0.605162 -0.125347 42
-1.54118 -1.53333 -0.186794 15
-0.860114 -0.59972 -0.196656 41
-1.54984 -1.5441 -0.341403 14
-0.86504 -0.602271 -0.272876 42
-1.16323 -1.1596 -0.370608 14
-3.10315 -2.14004 0.860821 8
-3.10407 -2.14146 0.590409 8
-3.08697 -2.13045 0.325091 12
-3.09033 -2.13197 0.064923 11
-0.864007 -0.596393 -0.124434 42
-1.55423 -1.53077 -0.187446 15
-0.857072 -0.591187 -0.195228 42
-1.56317 -1.54118 -0.342577 14
-0.868077 -0.597885 -0.272876 42
-1.16237 -1.14663 -0.368362 14
-3.10049 -2.13102 0.859137 2
-3.1017 -2.13184 0.589239 2
-3.10711 -2.13634 0.326834 2
-5.49085 -5.41553 0.941319 12
-3.10023 -2.13081 0.0650538 1
-0.860953 -0.592078 -0.123826 42
-1.5569 -1.52805 -0.187446 15
-0.858103 -0.58969 -0.195228 42
-1.57113 -1.54365 -0.343752 14
-0.863141 -0.592278 -0.270936 42
-1.16783 -1.14802 -0.369485 14
-3.10189 -2.10738 0.856329 2
-5.497 -5.3988 2.05235 11
-3.12508 -2.1239 0.59158 2
-3.11619 -2.11864 0.326616 3
-5.54043 -5.40752 0.94497 12
-3.12168 -2.12157 0.065272 1
-0.85788 -0.583384 -0.122913 42
-1.56666 -1.52162 -0.187663 15
-0.85102 -0.578305 -0.192847 42
-1.57566 -1.53195 -0.342969 12
-0.86223 -0.585044 -0.269643 42
-1.17034 -1.13848 -0.368362 14
-3.12336 -2.11479 0.861383 2
-5.52884 -5.41117 2.06075 11
-3.13083 -2.11982 0.59197 2
-3.13226 -2.12157 0.327923 4
-5.63341 -5.47921 0.95927 12
-3.13573 -2.12313 0.0654901 11
-0.854785 -0.579108 -0.122305 41
-1.57825 -1.52756 -0.188751 15
-0.856096 -0.579565 -0.193799 42
-1.57125 -1.52231 -0.341403 11
-0.861247 -0.582189 -0.268996 42
-1.17582 -1.13984 -0.369485 15
-3.13678 -2.09921 0.861944 3
-5.67499 -5.49647 2.10469 8
-3.1583 -2.11438 0.595092 4
-5.67908 -5.48133 1.52605 12
-3.1516 -2.11068 0.328795 11
-5.67632 -5.46341 0.961703 14
-3.15511 -2.11224 0.0656647 15
-0.853678 -0.571867 -0.121696 41
-1.59008 -1.52245 -0.189186 15
-0.848912 -0.568263 -0.191419 41
-1.56853 -1.50379 -0.339054 11
-0.862274 -0.576332 -0.26835 42
-1.18177 -1.13367 -0.369485 15
-3.15058 -2.10049 0.864752 3
-5.70541 -5.5067 2.11244 11
-3.17021 -2.11435 0.596653 3
-5.69666 -5.47722 1.52796 12
-3.1615 -2.10933 0.329449 3
-5.68584 -5.45349 0.961703 14
-3.17789 -2.11865 0.0660574 2
-0.848477 -0.566253 -0.120783 41
-1.59633 -1.52312 -0.18962 15
-0.847859 -0.565422 -0.190942 42
-1.56046 -1.49079 -0.336705 11
-0.857342 -0.570669 -0.26641 42
-1.18024 -1.12823 -0.368362 15
-3.17207 -2.09011 0.86756 3
-5.73338 -5.47408 2.1118 11
-3.19397 -2.10531 0.598994 3
-5.72171 -5.44393 1.52701 12
-3.1791 -2.0963 0.330102 4
-5.71347 -5.42094 0.961399 12
-3.16389 -2.08548 0.0655338 9
-2.3069 -2.18028 -0.0548006 36
-0.851529 -0.561654 -0.120783 41
-1.6079 -1.51817 -0.190055 15
-0.85911 -0.566217 -0.192847 42
-1.57003 -1.4843 -0.337096 11
-0.864357 -0.568822 -0.267703 42
-1.18632 -1.12182 -0.368362 15
-5.75516 -5.47573 2.11632 11
-5.73476 -5.43732 1.52796 12
-3.15777 -2.07435 0.327488 3
-5.72558 -5.41537 0.962008 12
-3.16543 -2.07858 0.0654901 3
-2.3216 -2.18655 -0.0550623 36
-0.848259 -0.557595 -0.120175 41
-1.61779 -1.5222 -0.190925 15
-0.85599 -0.562028 -0.191895 42
-1.56545 -1.47477 -0.33553 11
-0.855241 -0.560706 -0.26447 42
-1.18985 -1.12164 -0.368923 15
-5.7951 -5.45812 2.12084 9
-5.76221 -5.40822 1.52796 11
-3.17868 -2.06512 0.328577 2
-5.75748 -5.38871 0.962616 9
-3.16123 -2.05301 0.0651847 2
-2.33994 -2.1816 -0.0552369 35
-0.853249 -0.554495 -0.120479 41
-1.62755 -1.51541 -0.191143 14
-0.852644 -0.553687 -0.190466 42
-1.56954 -1.46318 -0.334747 11
-0.860096 -0.557681 -0.265117 42
-1.20104 -1.12039 -0.370608 14
-5.79934 -5.44304 2.11891 9
-5.77796 -5.40218 1.52939 9
-3.18228 -2.05957 0.328577 2
-5.83579 -5.44301 0.974177 8
-3.16097 -2.04423 0.0650975 1
-2.35472 -2.18774 -0.0554986 36
-0.847961 -0.548968 -0.119566 41
-1.64295 -1.52446 -0.192665 14
-0.853609 -0.552198 -0.190466 42
-1.56487 -1.4537 -0.333181 11
-0.853043 -0.550801 -0.26253 42
-1.20121 -1.11663 -0.370046 15
-5.87293 -5.45269 2.13506 8
-5.90339 -5.46191 1.55513 11
-3.17029 -2.02757 0.32618 2
-5.90708 -5.45009 0.981175 11
-3.1632 -2.02226 0.064923 2
-2.37019 -2.17836 -0.0555859 36
-0.848827 -0.543038 -0.119262 41
-1.64908 -1.51414 -0.192447 14
-0.850375 -0.543615 -0.189038 41
-1.57609 -1.44883 -0.333964 11
-0.85184 -0.543734 -0.261237 42
-1.21081 -1.11342 -0.37117 15
-5.96748 -5.52121 2.16608 12
-5.91832 -5.4566 1.55656 9
-3.16542 -2.01668 0.325309 9
-5.91563 -5.4408 0.981175 11
-3.15829 -2.01137 0.0647484 12
-2.3832 -2.18267 -0.0558041 36
-0.849679 -0.541704 -0.119262 41
-1.65355 -1.51295 -0.192665 4
-0.84925 -0.540814 -0.188562 42
-1.5768 -1.44441 -0.333573 11
-0.856867 -0.544832 -0.26253 42
-1.20719 -1.10657 -0.369485 14
-6.01314 -5.50726 2.17254 11
-5.94224 -5.42326 1.5556 9
-5.9312 -5.39805 0.979045 8
-3.16632 -1.99403 0.0647048 23
-2.40531 -2.18067 -0.0560658 35
-0.852504 -0.537248 -0.119262 41
-1.66145 -1.50427 -0.192665 4
-0.856134 -0.539119 -0.189514 42
-1.58252 -1.43447 -0.333181 11
-0.853475 -0.53664 -0.26059 42
-1.21656 -1.10351 -0.370608 14
-6.04057 -5.51304 2.179 11
-5.95082 -5.41019 1.55513 9
-5.93142 -5.37935 0.977524 8
-3.15955 -1.98131 0.0644866 24
-2.41652 -2.18318 -0.0562404 35
-0.851337 -0.534443 -0.118958 41
-0.857074 -0.537624 -0.189514 42
-1.5905 -1.43669 -0.334356 11
-0.858601 -0.537558 -0.261884 44
-1.22209 -1.10467 -0.371731 14
-6.08465 -5.49324 2.18417 11
-7.31589 -4.53239 1.35447 41
-5.98089 -5.3806 1.5556 9
-7.42191 -4.59982 0.76087 36
-3.16988 -1.96474 0.0644866 24
-2.43574 -2.17675 -0.0564149 35
-0.852105 -0.528524 -0.118654 41
-0.851618 -0.527819 -0.187609 42
-1.59458 -1.42476 -0.333573 11
-0.855238 -0.529251 -0.259944 42
-1.23348 -1.10293 -0.373416 14
-7.31268 -4.51277 1.97265 41
-6.11576 -5.502 2.19193 9
-7.30908 -4.51054 1.35174 42
-7.40661 -4.57248 0.758473 33
-3.16054 -1.95133 0.0642248 26
-2.45072 -2.18249 -0.0566767 36
-0.853026 -0.527036 -0.118654 41
-0.856719 -0.528904 -0.188562 42
-1.59706 -1.42197 -0.333573 11
-0.854103 -0.526493 -0.259297 41
-1.23541 -1.10077 -0.373416 14
-7.31749 -4.46301 1.96759 39
-6.16516 -5.49026 2.19968 11
-7.32549 -4.46963 1.35057 41
-7.4084 -4.52196 0.756294 32
-6.58176 -5.82483 1.07336 2
-3.16397 -1.93141 0.064094 27
-2.46923 -2.17668 -0.0568512 35
-0.847205 -0.517549 -0.117437 41
-0.848902 -0.518182 -0.186181 41
-1.59869 -1.40896 -0.332398 12
-0.852629 -0.519656 -0.258004 42
-1.24461 -1.09774 -0.374539 14
-7.30653 -4.43885 1.96254 36
-6.20362 -5.50516 2.21002 9
-7.31007 -4.44273 1.34627 39
-6.48155 -5.72995 1.67332 2
-7.40564 -4.50255 0.755204 32
-6.56029 -5.78541 1.06819 2
-3.16981 -1.92663 0.0641376 27
-2.48428 -2.18228 -0.057113 35
-0.854472 -0.51993 -0.118349 41
-0.854002 -0.519244 -0.187133 42
-1.59745 -1.4029 -0.331615 12
-0.855692 -0.519268 -0.25865 42
-1.24652 -1.09556 -0.374539 14
-7.30537 -4.38421 1.9558 33
-6.25327 -5.48905 2.21713 9
-7.30647 -4.3866 1.3412 35
-6.53731 -5.71857 1.67999 3
-7.41068 -4.45088 0.753244 32
-6.57094 -5.73188 1.06484 3
-3.17128 -1.90486 0.0639631 29
-2.5017 -2.17373 -0.0572439 33
-0.855144 -0.514024 -0.118045 42
-0.852588 -0.512094 -0.186181 41
-1.59733 -1.38802 -0.330049 12
-0.854253 -0.512302 -0.257357 42
-1.25243 -1.0888 -0.374539 14
-7.29343 -4.36148 1.95075 30
-6.28828 -5.5004 2.22618 9
-7.2964 -4.36497 1.33808 32
-6.55653 -5.71522 1.68238 3
-7.3992 -4.42644 0.751283 32
-6.5818 -5.72318 1.06515 3
-3.16817 -1.89547 0.0638322 30
-2.51682 -2.1792 -0.0575057 35
-0.849559 -0.508864 -0.117132 41
-2.48859 -2.15543 -0.284431 24
-0.855588 -0.511863 -0.186657 41
-1.60534 -1.3901 -0.331223 12
-0.861371 -0.514517 -0.259297 42
-1.26332 -1.09484 -0.377346 14
-7.29309 -4.30961 1.94457 29
-6.34341 -5.49223 2.23587 9
-7.30427 -4.31792 1.33535 33
-6.59465 -5.68998 1.68476 3
-7.40007 -4.37626 0.749104 32
-6.6192 -5.69512 1.06636 3
-3.17342 -1.87687 0.0637449 30
-2.54108 -2.17783 -0.0578111 35
-0.850075 -0.503148 -0.116828 41
-2.53006 -2.16835 -0.28791 30
-0.845483 -0.500048 -0.1838 41
-1.60324 -1.37362 -0.329266 12
-0.853558 -0.504026 -0.256064 42
-1.27273 -1.09139 -0.378469 14
-7.2838 -4.28699 1.94008 30
-6.36943 -5.49536 2.24168 9
-7.29264 -4.29389 1.33184 33
-6.61487 -5.68531 1.68714 4
-7.38624 -4.3507 0.746925 33
-6.60842 -5.66578 1.06302 3
-3.16624 -1.86443 0.0635268 30
-2.55058 -2.17827 -0.057942 35
-0.844533 -0.497892 -0.115916 41
-2.55087 -2.17851 -0.289867 33
-0.846354 -0.498571 -0.1838 41
-1.60001 -1.366 -0.328091 12
-0.854524 -0.502386 -0.256064 42
-1.27832 -1.09234 -0.379592 14
-7.28372 -4.23405 1.9339 29
-6.42478 -5.48278 2.25073 9
-7.29869 -4.24444 1.32871 33
-6.58101 -5.59651 1.67094 3
-7.40105 -4.30566 0.746053 33
-6.54439 -5.54964 1.0478 2
-3.16948 -1.84406 0.0633959 30
-2.57568 -2.17575 -0.0582474 35
-0.849361 -0.494561 -0.11622 41
-2.57364 -2.17478 -0.291172 29
-0.846916 -0.492753 -0.183324 41
-1.60149 -1.35281 -0.326917 12
-0.857143 -0.497905 -0.256064 42
-1.28978 -1.09015 -0.381277 14
-7.27982 -4.2165 1.93109 30
-6.46744 -5.49974 2.26236 9
-7.28825 -4.22307 1.32559 33
-6.57392 -5.57072 1.66665 2
-7.38916 -4.2815 0.744092 32
-6.59099 -5.57142 1.05389 2
-3.16404 -1.83352 0.0632213 32
-0.68427 -0.39762 -0.0397765 32
-2.5852 -2.17609 -0.0583783 35
-0.843692 -0.489499 -0.115307 41
-2.58695 -2.17832 -0.292259 24
-0.84565 -0.490047 -0.182848 41
-1.60385 -1.35001 -0.326917 12
-0.847551 -0.490377 -0.252831 42
-1.29521 -1.09127 -0.3824 14
-7.28488 -4.16865 1.9266 29
-6.51181 -5.48094 2.26818 9
-7.29741 -4.17749 1.32325 33
-6.56257 -5.50424 1.65664 2
-7.39993 -4.23786 0.743003 32
-6.641 -5.55435 1.05723 1
-3.17111 -1.81624 0.0631777 32
-0.686274 -0.394152 -0.0397765 33
-2.60385 -2.16939 -0.0585528 33
-0.850553 -0.487537 -0.115916 41
-2.60367 -2.16999 -0.292911 27
-0.845988 -0.484544 -0.182372 41
-1.60143 -1.33367 -0.324959 12
-0.847924 -0.484885 -0.252184 42
-1.30091 -1.08447 -0.3824 14
-7.27661 -4.14876 1.92267 27
-6.55096 -5.49442 2.27852 9
-7.28967 -4.15619 1.32052 32
-6.65686 -5.56364 1.67809 9
-7.39217 -4.21631 0.741477 32
-6.67545 -5.56342 1.06119 14
-3.16559 -1.80575 0.0630032 33
-2.61916 -2.17444 -0.0588146 33
-0.842776 -0.481143 -0.114699 39
-2.61702 -2.17341 -0.293999 27
-0.846832 -0.483067 -0.182372 41
-1.59048 -1.3198 -0.322219 12
-0.846668 -0.482212 -0.251538 42
-1.30654 -1.08532 -0.383523 14
-7.27347 -4.09499 1.91593 24
-6.60379 -5.4801 2.28692 9
-7.29412 -4.10827 1.3174 33
-6.71993 -5.55688 1.68667 14
-7.39462 -4.16654 0.739516 32
-6.69683 -5.52207 1.05997 14
-3.16193 -1.78179 0.0627414 32
-2.64787 -2.175 -0.0592073 33
-0.845283 -0.476724 -0.114699 41
-2.64759 -2.17552 -0.296173 33
-0.842931 -0.475021 -0.180943 39
-1.60118 -1.3146 -0.323002 12
-0.847075 -0.476591 -0.250891 44
-1.31971 -1.08468 -0.385769 12
-7.26715 -4.07641 1.91256 23
-6.6338 -5.48551 2.29403 9
-7.27974 -4.08346 1.31349 33
-6.68418 -5.50766 1.67523 14
-7.38667 -4.1451 0.737991 32
-6.67197 -5.482 1.0545 14
-3.16504 -1.77627 0.0627414 33
-2.6536 -2.17196 -0.0592509 33
-0.850445 -0.477672 -0.115307 42
-2.65523 -2.17406 -0.296608 33
-0.843758 -0.473549 -0.180943 41
-1.59393 -1.30397 -0.321044 12
-0.854231 -0.478644 -0.252831 44
-1.33288 -1.09166 -0.389138 12
-7.26991 -4.02642 1.90751 20
-6.69607 -5.47825 2.30566 9
-7.29022 -4.03931 1.31154 33
-6.68821 -5.45242 1.66903 11
-7.38649 -4.0943 0.735812 32
-6.66401 -5.41723 1.04872 12
-3.16336 -1.75362 0.0625232 33
-0.698331 -0.388037 -0.0401703 41
-2.6824 -2.17222 -0.0596436 33
-0.844248 -0.468409 -0.11409 42
-2.68049 -2.17065 -0.29813 33
-0.846226 -0.469124 -0.180943 42
-1.60074 -1.2956 -0.321044 12
-0.854611 -0.472999 -0.252184 44
-1.34614 -1.09083 -0.391385 12
-7.25773 -4.00314 1.90245 17
-6.72807 -5.48488 2.31341 8
-7.28428 -4.01942 1.3092 33
-6.63773 -5.39003 1.65378 12
-7.38272 -4.07538 0.734723 33
-6.64647 -5.38371 1.04446 12
-3.16234 -1.74513 0.062436 33
-2.66861 -2.15485 0.177942 3
-0.701193 -0.388023 -0.0403016 42
-2.69007 -2.17068 -0.0597309 32
-0.851585 -0.470526 -0.115003 42
-2.69202 -2.17223 -0.299 32
-0.851344 -0.470013 -0.181895 42
-1.59533 -1.28659 -0.319478 12
-0.851284 -0.469032 -0.250891 44
-1.34993 -1.09001 -0.391946 12
-7.24291 -3.94401 1.89291 15
-6.78771 -5.47266 2.32375 9
-7.29508 -3.97404 1.30725 33
-6.65439 -5.34597 1.65092 11
-7.38717 -4.02585 0.73298 33
-6.66002 -5.33525 1.04202 14
-3.15607 -1.72018 0.0621306 33
-2.69193 -2.14974 0.178727 3
-0.69883 -0.381959 -0.0400391 42
-2.71544 -2.16702 -0.0600363 33
-0.845398 -0.461171 -0.113786 42
-2.71891 -2.17056 -0.30074 32
-0.838778 -0.4572 -0.178562 42
-0.855851 -0.46572 -0.251538 44
-1.3634 -1.08879 -0.394192 12
-7.22982 -3.92218 1.88785 14
-6.82925 -5.48654 2.33474 9
-7.28395 -3.95316 1.30413 33
-6.6752 -5.34356 1.65378 9
-7.38762 -4.00939 0.732326 33
-6.66839 -5.32479 1.04202 12
-3.16126 -1.71586 0.0621742 33
-2.70896 -2.15641 0.179643 3
-0.703885 -0.383118 -0.0403016 44
-2.72703 -2.16851 -0.0602108 33
-0.846121 -0.459842 -0.113786 44
-2.72658 -2.16892 -0.301175 20
-0.841734 -0.456903 -0.179038 42
-0.856662 -0.464225 -0.251538 44
-1.36892 -1.0897 -0.395315 12
-7.2159 -3.86587 1.87887 14
-6.8796 -5.46995 2.34249 8
-7.28278 -3.90331 1.30023 35
-6.72908 -5.33105 1.66045 9
-7.38806 -3.96136 0.730365 32
-6.72537 -5.31289 1.04659 12
-3.1633 -1.6963 0.0620433 35
-2.73784 -2.15612 0.180821 4
-0.699213 -0.376015 -0.0399078 45
-2.75563 -2.16862 -0.0606035 33
-0.841953 -0.451895 -0.112873 44
-2.75317 -2.16744 -0.302914 14
-0.8462 -0.453793 -0.179515 42
-0.850478 -0.455337 -0.248951 44
-1.38224 -1.08856 -0.397561 12
-7.18972 -3.83733 1.87045 14
-6.91374 -5.47745 2.35089 8
-7.27869 -3.88478 1.29828 35
-6.76918 -5.34365 1.66808 11
-7.38398 -3.94259 0.729276 32
-6.75607 -5.31804 1.04993 11
-3.15964 -1.68724 0.0619124 35
-2.74553 -2.15443 0.181082 4
-0.704274 -0.377144 -0.0401703 45
-2.76334 -2.1669 -0.0606907 33
-0.847121 -0.452758 -0.113482 44
-2.75694 -2.16263 -0.302914 11
-0.844824 -0.451163 -0.179038 42
-0.853404 -0.454985 -0.249598 44
-7.17158 -3.77794 1.86034 14
-6.97842 -5.4695 2.36317 8
-7.27927 -3.83626 1.29476 33
-7.38469 -3.89342 0.727315 32
-3.15958 -1.66602 0.0617379 35
-2.78041 -2.15843 0.182652 4
-0.697403 -0.368798 -0.0396452 47
-2.79044 -2.16468 -0.0610398 33
-0.842891 -0.444851 -0.112569 42
-0.84283 -0.44445 -0.178086 42
-0.855775 -0.45051 -0.249598 44
-7.16456 -3.75988 1.85697 15
-7.28376 -3.8224 1.29437 33
-7.38045 -3.87474 0.726225 33
-3.15584 -1.65702 0.061607 35
-2.79601 -2.16275 0.183438 8
-0.698045 -0.36758 -0.0396452 47
-2.80606 -2.16899 -0.0613016 38
-0.845865 -0.44453 -0.112873 42
-0.850128 -0.446392 -0.179515 44
-0.85442 -0.447898 -0.248951 44
-7.16533 -3.71098 1.85192 18
-7.28614 -3.77512 1.29125 33
-7.38516 -3.82803 0.7247 35
-2.86766 -2.19756 0.438714 3
-3.16226 -1.63932 0.0615634 36
-2.82116 -2.15872 0.184353 9
-0.697807 -0.362651 -0.039514 47
-2.83325 -2.16644 -0.0616506 47
-0.843772 -0.437816 -0.112265 44
-0.866427 -0.658317 -0.0919833 41
-0.843732 -0.437429 -0.17761 42
-0.85246 -0.441204 -0.247658 44
-0.850937 -0.648701 -0.238649 26
-7.1523 -3.68842 1.84686 20
-7.27955 -3.75561 1.28891 33
-2.86295 -2.19151 0.693444 3
-7.38297 -3.81056 0.723828 33
-2.838 -2.16691 0.433542 9
-3.15873 -1.62981 0.0614325 36
-2.82691 -2.15531 0.184484 11
-0.700658 -0.362576 -0.0396452 47
-2.82908 -2.15542 -0.0614761 36
-0.842329 -0.435207 -0.11196 42
-0.869554 -0.658316 -0.0922008 45
-0.848859 -0.438201 -0.178562 44
-0.84686 -0.436258 -0.245718 42
-0.855934 -0.65018 -0.239772 33
-7.15261 -3.63973 1.84181 21
-2.87144 -2.18209 0.955737 8
-7.28215 -3.70721 1.28579 33
-2.85484 -2.16165 0.688679 11
-7.38351 -3.76039 0.721868 33
-2.85166 -2.15302 0.433847 14
-3.16054 -1.60985 0.0613016 36
-2.84251 -2.143 0.184746 14
-0.695871 -0.355507 -0.0392514 49
-2.84669 -2.1446 -0.061607 17
-0.842459 -0.429519 -0.111656 44
-0.844652 -0.430269 -0.177134 44
-0.840516 -0.427452 -0.243131 42
-7.14528 -3.62189 1.83844 23
-2.86371 -2.16832 0.951859 9
-7.27099 -3.68557 1.28267 33
-2.86839 -2.16407 0.691062 9
-7.37673 -3.74074 0.72056 33
-2.86333 -2.15401 0.435064 24
-3.15443 -1.59981 0.061127 36
-2.84425 -2.13653 0.184615 14
-0.698717 -0.355419 -0.0393827 49
-2.85242 -2.14113 -0.0616506 2
-0.843207 -0.428048 -0.111656 44
-0.843211 -0.427687 -0.176658 44
