# .PCD v0.7 - Point Cloud Data file format
VERSION 0.7
FIELDS x y z intensity
SIZE 4 4 4 4
TYPE F F F F
COUNT 1 1 1 1
WIDTH 1511
HEIGHT 1
VIEWPOINT 0 0 0 1 0 0 0
POINTS 1511
DATA ascii
-1.69996 -0.619699 -0.030978 50
-0.825842 -0.147626 -0.0985738 52
-0.845337 -0.305586 -0.0754568 53
-0.822053 -0.146665 -0.15523 52
-0.833537 -0.301876 -0.135073 49
-0.814313 -0.144583 -0.212093 47
-0.820255 -0.297912 -0.193165 45
-7.20078 -1.24004 1.67616 35
-7.03551 -1.21287 1.12268 1
-3.13578 -1.1368 0.641019 2
-7.0314 -1.21341 0.621203 1
-3.15084 -1.13735 0.406465 2
-1.67481 -0.289793 0.0290583 44
-1.70574 -0.612044 0.093158 47
-0.67392 -0.117328 -0.0341317 55
-1.70094 -0.609643 -0.0309344 50
-0.829075 -0.143575 -0.0988781 53
-0.839899 -0.298614 -0.0748044 53
-0.822834 -0.142215 -0.15523 50
-0.830463 -0.295825 -0.13429 49
-0.81982 -0.141129 -0.213387 47
-0.821855 -0.29347 -0.193165 45
-7.19792 -1.22791 1.67504 35
-7.03254 -1.20099 1.12189 1
-3.14237 -1.133 0.641972 2
-7.05069 -1.20407 0.622728 1
-3.12928 -1.12397 0.403423 2
-1.68764 -0.288969 0.0292764 44
-1.70435 -0.608518 0.0930272 47
-0.671663 -0.115732 -0.0340004 55
-1.69729 -0.604982 -0.0308471 52
-0.826853 -0.141857 -0.0985738 53
-0.840419 -0.297148 -0.0748044 53
-0.820661 -0.140369 -0.154754 50
-0.828655 -0.293538 -0.133899 49
-0.820065 -0.139698 -0.213387 47
-0.813151 -0.288865 -0.190919 44
-7.20425 -1.19021 1.67504 36
-7.03142 -1.16294 1.12072 1
-3.12726 -1.10966 0.637683 2
-7.0567 -1.16837 0.622728 1
-3.13045 -1.10591 0.402814 2
-1.69894 -0.282053 0.0294509 12
-1.70516 -0.598753 0.0928963 49
-0.667314 -0.111518 -0.0337378 55
-1.69798 -0.59555 -0.0308035 52
-0.822687 -0.13672 -0.0979654 50
-0.837216 -0.291229 -0.0743695 53
-0.823783 -0.136611 -0.15523 50
-0.825526 -0.287545 -0.133116 49
-0.820762 -0.135545 -0.213387 47
-0.814652 -0.284604 -0.190919 45
-7.19889 -1.17771 1.67335 35
-7.0237 -1.14907 1.11916 1
-7.03906 -1.15283 0.620985 1
-3.10897 -1.09219 0.399772 2
-1.69913 -0.593288 0.0925038 49
-0.669971 -0.110756 -0.0338691 55
-1.6943 -0.590927 -0.0307162 52
-0.822924 -0.135284 -0.0979654 53
-0.837724 -0.289767 -0.0743695 55
-0.821598 -0.13478 -0.154754 50
-0.828356 -0.286924 -0.133507 49
-0.820997 -0.134113 -0.213387 47
-0.817444 -0.283994 -0.191481 45
-7.20516 -1.13875 1.67335 36
-7.02962 -1.11228 1.11916 1
-7.27623 -1.15254 0.641466 36
-3.10761 -1.07346 0.398859 2
-1.70458 -0.5852 0.0926346 49
-0.663162 -0.105963 -0.0334753 58
-1.69973 -0.582865 -0.0307599 52
-0.82117 -0.130588 -0.0976611 53
-0.841633 -0.286044 -0.074587 53
-0.822292 -0.130476 -0.154754 50
-0.827514 -0.281774 -0.133116 49
-0.821688 -0.129812 -0.213387 50
-0.816619 -0.278909 -0.190919 45
-7.1951 -1.12429 1.67054 35
-7.01691 -1.09772 1.11682 1
-7.29053 -1.14177 0.642556 33
-3.12121 -1.07208 0.40038 3
-1.69851 -0.579786 0.0922421 49
-0.665813 -0.10519 -0.0336066 58
-1.69365 -0.577458 -0.030629 53
-0.823849 -0.129536 -0.0979654 53
-0.835065 -0.282145 -0.0739346 53
-0.820093 -0.128665 -0.154278 52
-0.830339 -0.281134 -0.133507 47
-0.814775 -0.12713 -0.211447 47
-0.817105 -0.277484 -0.190919 45
-7.21072 -1.0868 1.67279 27
-7.30599 -1.10243 1.16209 41
-7.28675 -1.10082 0.641684 29
-3.13872 -1.05916 0.401901 3
-1.69926 -0.569788 0.0921113 49
-0.663886 -0.10133 -0.0334753 56
-1.69439 -0.567486 -0.0305853 53
-0.822084 -0.124708 -0.0976611 53
-0.84125 -0.279364 -0.0743695 53
-0.820778 -0.124226 -0.154278 52
-0.829461 -0.275991 -0.133116 47
-0.822596 -0.123929 -0.213387 50
-0.813981 -0.271491 -0.189796 45
-7.12567 -1.06255 1.65257 14
-7.2955 -1.08913 1.16014 41
-7.03249 -1.0499 0.619024 1
-1.69542 -0.565525 0.0918496 49
-0.661592 -0.0998042 -0.033344 56
-1.69537 -0.564528 -0.0305853 53
-0.824733 -0.123781 -0.0979654 53
-0.834654 -0.275515 -0.0737171 55
-0.818565 -0.122434 -0.153802 52
-0.820581 -0.271389 -0.13155 49
-0.818032 -0.12179 -0.212093 49
-0.816714 -0.270992 -0.190358 45
-7.07085 -1.01657 1.63854 26
-7.02491 -1.01121 1.11604 1
-7.02045 -1.01181 0.617498 1
-1.69836 -0.55664 0.0918496 49
-0.667048 -0.0970475 -0.0336066 55
-1.68871 -0.552804 -0.0304108 52
-0.82537 -0.119461 -0.0979654 53
-0.83372 -0.27036 -0.0734997 53
-0.816745 -0.117943 -0.153325 52
-0.826679 -0.268641 -0.132333 49
-0.828202 -0.119006 -0.21468 50
-0.813498 -0.265176 -0.189235 45
-7.06538 -1.0032 1.63685 26
-7.01933 -0.99791 1.11487 1
-7.01481 -0.998506 0.616845 1
-1.69696 -0.552895 0.0917188 49
-0.667217 -0.0958831 -0.0336066 55
-1.6968 -0.552195 -0.0305417 55
-0.820663 -0.117326 -0.0973569 53
-0.827092 -0.266573 -0.0728473 55
-0.81938 -0.11686 -0.153802 50
-0.824801 -0.266426 -0.131941 49
-0.821254 -0.116411 -0.21274 49
-0.811647 -0.262992 -0.188673 45
-6.85587 -0.935685 1.58688 1
-7.29865 -0.997309 1.15858 41
-7.00777 -0.958852 0.615755 1
-7.03216 -2.27035 0.901768 1
-1.69755 -0.542939 0.0915879 49
-0.665236 -0.0920512 -0.0334753 55
-1.69739 -0.542239 -0.0304981 55
-0.818827 -0.112551 -0.0970526 52
-0.833217 -0.263768 -0.0732822 53
-0.815136 -0.111766 -0.152849 50
-0.823881 -0.2612 -0.13155 49
-0.821852 -0.112109 -0.21274 50
-0.813058 -0.258596 -0.188673 45
-7.0698 -0.953527 1.63629 26
-7.02139 -0.946997 1.11409 1
-6.94672 -2.23998 1.41072 1
-7.0045 -0.945954 0.61532 1
-7.05501 -2.26415 0.904202 1
-3.11121 -0.420391 0.0541897 35
-1.69849 -0.539975 0.0915879 50
-0.662921 -0.0905572 -0.033344 53
-1.68881 -0.536225 -0.0303236 52
-0.823941 -0.11178 -0.0976611 53
-0.831305 -0.261553 -0.0730648 55
-0.81533 -0.110343 -0.152849 52
-0.821985 -0.259006 -0.131158 49
-0.824441 -0.110993 -0.213387 49
-0.815826 -0.257924 -0.189235 47
-6.85242 -0.887747 1.58463 1
-6.96807 -2.22134 1.94766 1
-7.0212 -0.910812 1.11331 1
-7.23163 -2.29171 1.46648 42
-7.01167 -0.910809 0.615537 1
-7.09241 -2.23664 0.907549 1
-3.11329 -0.404638 0.0541897 30
-1.69882 -0.530621 0.0914571 50
-0.66091 -0.0867651 -0.0332127 53
-1.69388 -0.528421 -0.0303672 53
-0.822035 -0.107292 -0.0973569 53
-0.830287 -0.256448 -0.0728473 53
-0.818312 -0.106528 -0.153325 52
-0.823286 -0.254843 -0.131158 49
-0.822597 -0.106513 -0.21274 50
-0.814799 -0.253056 -0.188673 47
-7.06661 -0.902915 1.63404 27
-6.99035 -2.21502 1.95283 1
-7.01543 -0.897617 1.11214 1
-7.23368 -2.27708 1.466 36
-7.01078 -0.898254 0.61532 1
-7.32594 -2.29639 0.93706 32
-3.1215 -0.39961 0.0543206 18
-1.69975 -0.527655 0.0914571 50
-0.656108 -0.0849805 -0.0329502 55
-1.69719 -0.52621 -0.0304108 53
-0.819759 -0.105544 -0.0970526 53
-0.828357 -0.254255 -0.0726299 53
-0.818497 -0.105099 -0.153325 52
-0.823729 -0.253405 -0.131158 49
-0.815611 -0.104029 -0.2108 49
-0.815239 -0.251634 -0.188673 47
-7.0714 -0.864668 1.63404 26
-7.24432 -2.25262 2.02068 36
-7.01773 -0.859348 1.11175 1
-7.22909 -2.2341 1.46267 32
-7.00565 -0.859099 0.614448 1
-7.3264 -2.25307 0.935539 32
-3.11115 -0.381743 0.0541025 24
-1.70258 -0.518451 0.0914571 50
-0.656544 -0.081544 -0.0329502 55
-1.69762 -0.516286 -0.0303672 55
-0.820319 -0.101107 -0.0970526 55
-0.827296 -0.249183 -0.0724124 55
-0.819053 -0.100669 -0.153325 52
-0.825045 -0.249089 -0.131158 49
-0.816145 -0.0997571 -0.2108 49
-0.811934 -0.245781 -0.18755 45
-7.06549 -0.852685 1.63236 26
-7.23902 -2.23711 2.0181 32
-7.02152 -0.848619 1.11214 1
-7.22829 -2.22003 1.46171 32
-7.00713 -0.84687 0.614448 1
-7.32044 -2.23865 0.934322 33
-3.10933 -0.376014 0.0540588 29
-1.69861 -0.514316 0.0911954 49
-0.664121 -0.0812926 -0.033344 56
-1.68896 -0.510404 -0.0301927 53
-0.820476 -0.0998185 -0.0970526 55
-0.82773 -0.247738 -0.0724124 55
-0.821665 -0.0995307 -0.153802 52
-0.823117 -0.246926 -0.130767 49
-0.818716 -0.0986172 -0.211447 50
-0.807662 -0.243074 -0.186427 47
-7.06986 -0.815679 1.63236 27
-7.24331 -2.19834 2.01616 32
-7.01851 -0.810994 1.11097 1
-7.23004 -2.18058 1.45981 32
-7.00886 -0.811108 0.61423 1
-7.32493 -2.19814 0.933409 32
-3.11119 -0.360271 0.0540588 30
-1.69889 -0.504698 0.0910646 50
-0.659577 -0.0772437 -0.0330815 55
-1.69391 -0.502567 -0.0302363 53
-0.820988 -0.0955211 -0.0970526 55
-0.82663 -0.242686 -0.0721949 53
-0.817281 -0.0948132 -0.152849 53
-0.819669 -0.241192 -0.129984 49
-0.816805 -0.0941995 -0.2108 50
-0.818253 -0.241655 -0.188673 47
-7.06401 -0.802515 1.63068 26
-7.23558 -2.1822 2.01293 33
-7.0101 -0.797628 1.10941 1
-7.22011 -2.16246 1.45695 30
-7.00036 -0.797748 0.613359 1
-7.31925 -2.18252 0.932192 32
-3.10691 -0.353734 0.0539716 29
-1.69738 -0.501018 0.0909337 50
-0.65475 -0.0755307 -0.0328189 56
-1.69239 -0.498896 -0.0301927 56
-0.816222 -0.0935314 -0.0964442 55
-0.824665 -0.240532 -0.0719775 53
-0.815007 -0.0931122 -0.152373 52
-0.822455 -0.240467 -0.130375 49
-0.816984 -0.0926312 -0.2108 49
-0.811673 -0.238129 -0.186989 47
-7.0634 -0.76376 1.62955 26
-7.23802 -2.14027 2.01034 33
-7.01923 -0.760219 1.11019 1
-7.23368 -2.12532 1.45742 33
-7.28437 -0.790157 0.63798 36
-7.32142 -2.14009 0.930975 32
-3.1112 -0.33773 0.0540152 26
-1.69767 -0.491127 0.0908029 50
-0.655136 -0.0721014 -0.0328189 56
-1.69027 -0.488332 -0.0301054 56
-0.816716 -0.0891139 -0.0964442 55
-0.828304 -0.236909 -0.0721949 53
-0.817939 -0.0889625 -0.152849 53
-0.823703 -0.236157 -0.130375 49
-0.817458 -0.0883522 -0.2108 50
-0.812949 -0.233734 -0.186989 47
-7.05975 -0.752149 1.62843 27
-7.2348 -2.12559 2.0084 33
-7.01059 -0.748146 1.10863 1
-7.22561 -2.10924 1.45504 33
-7.21392 -0.769792 0.631661 36
-7.31286 -2.12512 0.929454 33
-3.10185 -0.331243 0.0538407 21
-1.69844 -0.48846 0.0908029 50
-0.657744 -0.0712214 -0.0329502 56
-1.69112 -0.485381 -0.0301054 56
-0.819322 -0.088092 -0.0967484 55
-0.819149 -0.232687 -0.0713251 52
-0.813211 -0.0870209 -0.151897 53
-0.821743 -0.23403 -0.129984 49
-0.817611 -0.0869253 -0.2108 50
-0.810977 -0.231774 -0.186427 47
-6.85515 -0.694111 1.58014 1
-7.23618 -2.08626 2.00582 33
-7.00458 -0.710434 1.10707 1
-7.23855 -2.07332 1.45552 35
-7.28462 -0.740053 0.637544 36
-7.31912 -2.08544 0.928846 33
-3.10348 -0.315538 0.0538407 17
-1.69377 -0.477508 0.0904104 52
-0.658096 -0.0678914 -0.0329502 58
-1.69355 -0.476815 -0.0301054 61
-0.817303 -0.0835527 -0.0964442 55
-0.817921 -0.227857 -0.0711077 52
-0.811199 -0.0826591 -0.151421 52
-0.820582 -0.229047 -0.129592 49
-0.815638 -0.0825469 -0.210153 50
-0.814521 -0.228195 -0.186989 47
-6.85138 -0.68286 1.57901 1
-7.23517 -2.07229 2.00453 33
-6.99844 -0.697475 1.1059 1
-7.22563 -2.05597 1.45218 33
-7.2859 -0.727338 0.637544 30
-7.31081 -2.06927 0.927324 32
-3.109 -0.310616 0.0539279 14
-1.697 -0.475231 0.0905412 50
-0.663182 -0.067236 -0.0332127 58
-1.69438 -0.473858 -0.0301054 74
-0.817448 -0.0821261 -0.0964442 56
-0.820713 -0.227106 -0.0713251 52
-0.813785 -0.0814836 -0.151897 53
-0.823357 -0.228287 -0.129984 49
-0.818184 -0.081358 -0.2108 50
-0.814918 -0.226773 -0.186989 47
-6.8477 -0.645097 1.57733 1
-7.2436 -2.03373 2.00388 33
-6.99462 -0.660127 1.10472 1
-7.23866 -2.01877 1.45266 35
-7.27721 -0.688009 0.636455 36
-7.32393 -2.03163 0.927629 33
-3.10063 -0.293396 0.0537534 12
-1.70187 -0.467006 0.090672 50
-1.70166 -0.466315 -0.0301927 90
-0.812926 -0.0773829 -0.0958357 55
-0.82193 -0.222663 -0.0713251 52
-0.809313 -0.0767664 -0.150945 52
-0.82692 -0.224634 -0.130375 50
-0.816194 -0.0768507 -0.210153 50
-0.818441 -0.223157 -0.18755 47
-6.92401 -0.640081 1.59474 1
-7.24016 -2.01913 2.00194 33
-7.00068 -0.648372 1.10551 1
-7.23307 -2.00225 1.45075 35
-7.27592 -0.675078 0.636237 36
-7.31551 -2.01554 0.926107 33
-3.10617 -0.287902 0.0538407 11
-1.69546 -0.462047 0.0902795 53
-1.69524 -0.461355 -0.0300618 90
-0.81553 -0.0761906 -0.0961399 55
-0.812712 -0.218586 -0.0704553 50
-0.814334 -0.0758003 -0.151897 52
-0.82493 -0.222534 -0.129984 49
-0.813935 -0.075066 -0.209507 50
-0.814134 -0.220428 -0.186427 47
-7.07542 -0.615457 1.62899 1
-7.24632 -1.97865 2.00065 33
-6.99425 -0.60963 1.10394 1
-7.23872 -1.96306 1.4498 35
-7.27699 -0.635485 0.636019 36
-7.32152 -1.97464 0.925499 33
-3.0902 -0.270118 0.0535353 11
-1.69794 -0.452866 0.0902795 52
-0.651528 -0.0579337 -0.0325564 56
-1.69288 -0.450876 -0.0299745 86
-0.810986 -0.0713506 -0.0955314 55
-0.818655 -0.215623 -0.0708902 52
-0.809841 -0.0709731 -0.150945 52
-0.821317 -0.216923 -0.129201 50
-0.814317 -0.0708032 -0.209507 50
-0.815314 -0.21602 -0.186427 47
-7.07153 -0.603929 1.62787 1
-7.23811 -1.96284 1.99742 35
-6.99765 -0.598853 1.10433 1
-7.22554 -1.94594 1.44646 35
-7.27064 -0.622148 0.635365 36
-7.31982 -1.96184 0.92489 33
-3.10312 -0.265785 0.0537534 11
-1.69141 -0.44826 0.089887 52
-0.651628 -0.0567965 -0.0325564 56
-1.69367 -0.447921 -0.0299745 82
-0.81357 -0.070286 -0.0958357 56
-0.814218 -0.212906 -0.0704553 52
-0.81241 -0.0697654 -0.151421 53
-0.816925 -0.21421 -0.128418 50
-0.816846 -0.0695827 -0.210153 50
-0.810948 -0.213471 -0.185304 47
-7.06002 -0.56573 1.6245 1
-7.24095 -1.92431 1.99548 33
-6.99331 -0.561614 1.10316 1
-7.23293 -1.90872 1.44599 35
-7.2737 -0.58534 0.635365 36
-7.32519 -1.92223 0.924282 33
-3.09944 -0.249676 0.0536661 11
-1.69857 -0.440665 0.0901487 52
-0.646939 -0.0529869 -0.0322938 56
-1.69591 -0.439343 -0.0299745 74
-0.808979 -0.0656324 -0.0952272 55
-0.817731 -0.209271 -0.0706728 50
-0.810306 -0.0654591 -0.150945 53
-0.825199 -0.211811 -0.129592 49
-0.817187 -0.0654474 -0.210153 50
-0.816766 -0.210465 -0.186427 47
-7.08528 -0.555305 1.63011 1
-7.22795 -1.90735 1.99096 32
-6.99428 -0.549407 1.10316 1
-7.22946 -1.89296 1.44456 35
-7.27719 -0.572839 0.635583 36
-7.31893 -1.90693 0.923065 35
-3.09743 -0.243531 0.0536225 11
-1.68967 -0.435183 0.0896253 52
-0.659476 -0.0528284 -0.0329502 58
-1.68216 -0.432607 -0.0297127 74
-0.814041 -0.0646045 -0.0958357 56
-0.808454 -0.205336 -0.069803 50
-0.810419 -0.0640448 -0.150945 53
-0.820789 -0.209124 -0.128809 49
-0.817312 -0.0638784 -0.210153 52
-0.810062 -0.207187 -0.184742 49
-7.07118 -0.515725 1.62618 1
-7.23349 -1.867 1.98966 32
-6.99222 -0.511198 1.10238 1
-7.22976 -1.85264 1.44265 35
-7.28018 -0.533458 0.635583 36
-7.31952 -1.86485 0.921848 33
-3.11611 -0.228582 0.0539279 8
-1.68958 -0.425418 0.0894945 52
-0.659743 -0.0493746 -0.0329502 58
-1.66752 -0.419186 -0.0294073 15
-0.814378 -0.0601992 -0.0958357 56
-0.804691 -0.199872 -0.069368 50
-0.810754 -0.0596591 -0.150945 52
-0.814696 -0.202992 -0.127635 50
-0.820044 -0.0597695 -0.2108 52
-0.808811 -0.202197 -0.184181 47
-7.07684 -0.504963 1.62731 1
-7.21802 -1.84957 1.98449 32
-6.98809 -0.499862 1.1016 1
-7.22585 -1.8382 1.44122 35
-7.2811 -0.52075 0.635583 35
-7.32244 -1.85335 0.921848 33
-3.1564 -0.225981 0.054626 2
-1.68783 -0.422151 0.0893636 52
-0.654848 -0.0478696 -0.0326876 56
-0.811997 -0.0587451 -0.0955314 56
-0.800209 -0.197247 -0.0689331 49
-0.810856 -0.058244 -0.150945 53
-0.817442 -0.202176 -0.128026 49
-0.815328 -0.0580038 -0.209507 50
-0.81385 -0.202128 -0.185304 47
-7.07209 -0.467422 1.62562 1
-7.22495 -1.81242 1.98385 35
-6.99061 -0.463266 1.1016 1
-7.2184 -1.79744 1.43788 33
-7.28613 -0.484056 0.635801 35
-7.32241 -1.81259 0.920631 33
-3.21736 -0.213957 0.0556732 2
-1.69001 -0.413308 0.0893636 52
-0.660072 -0.0447676 -0.0329502 58
-0.814769 -0.0546546 -0.0958357 56
-0.803649 -0.193652 -0.0691506 49
-0.811141 -0.0541391 -0.150945 53
-0.81849 -0.197893 -0.128026 49
-0.815612 -0.0538763 -0.209507 52
-0.814897 -0.197864 -0.185304 47
-7.07047 -0.454922 1.62506 1
-7.21873 -1.79747 1.98126 33
-6.99388 -0.451223 1.10199 1
-7.21469 -1.78181 1.43645 35
-7.28199 -0.471018 0.635365 35
-7.31352 -1.79684 0.91911 35
-1.68831 -0.409762 0.0892328 53
-0.652675 -0.0431374 -0.0325564 58
-1.58122 -0.382881 -0.027793 14
-0.812387 -0.0530749 -0.0955314 56
-0.801567 -0.191655 -0.0689331 49
-0.811234 -0.0527233 -0.150945 53
-0.816436 -0.195875 -0.127635 49
-0.815713 -0.0523103 -0.209507 52
-0.815241 -0.196441 -0.185304 47
-6.97311 -0.410807 1.60204 1
-7.22366 -1.75724 1.97997 35
-6.99375 -0.413231 1.1016 1
-7.20722 -1.73996 1.43312 33
-7.27946 -0.431318 0.63493 33
-7.32072 -1.75667 0.918806 35
-1.68564 -0.399457 0.0889711 53
-0.655384 -0.0398657 -0.0326876 59
-1.56625 -0.370244 -0.0274875 18
-0.815139 -0.0488228 -0.0958357 56
-0.802559 -0.187456 -0.0689331 47
-0.816408 -0.0486168 -0.151897 53
-0.815083 -0.190878 -0.127243 50
-0.813565 -0.0479008 -0.20886 50
-0.811556 -0.190884 -0.184181 49
-6.86431 -0.3936 1.57677 1
-7.21967 -1.74292 1.97803 33
-7.27551 -0.417081 1.14609 38
-7.20786 -1.72681 1.43264 33
-7.28518 -0.418897 0.635365 33
-7.31171 -1.741 0.917284 35
-1.68634 -0.396514 0.0889711 53
-0.65296 -0.0385798 -0.0325564 58
-1.56203 -0.366354 -0.0274003 21
-0.807791 -0.0469806 -0.094923 56
-0.793193 -0.183749 -0.0680633 45
-0.80914 -0.0467795 -0.150468 53
-0.817817 -0.190027 -0.127635 50
-0.808825 -0.0462137 -0.207567 52
-0.809519 -0.1889 -0.183619 49
-6.8566 -0.355951 1.57452 1
-7.224 -1.70398 1.97674 33
-7.28006 -0.379109 1.14648 38
-7.21203 -1.68792 1.43169 35
-7.27981 -0.380358 0.634712 33
-7.30381 -1.69875 0.915155 32
-1.68596 -0.387114 0.0888403 53
-0.65066 -0.0350315 -0.0324251 59
-1.5615 -0.357605 -0.0273566 23
-0.810504 -0.0428773 -0.0952272 56
-0.794145 -0.179594 -0.0680633 44
-0.814276 -0.0427914 -0.151421 53
-0.816396 -0.185183 -0.127243 50
-0.816292 -0.0423408 -0.209507 50
-0.815241 -0.185769 -0.184742 49
-6.86689 -0.345668 1.57677 1
-7.21991 -1.68972 1.9748 35
-7.27331 -0.366032 1.14531 36
-7.21018 -1.67422 1.43074 35
-7.28793 -0.368027 0.635365 33
-7.08918 -1.63565 0.887773 1
-1.6842 -0.383609 0.0887094 55
-0.645733 -0.0336467 -0.0321625 59
-1.57186 -0.357123 -0.0275312 23
-0.808099 -0.0413401 -0.094923 55
-0.806996 -0.0410093 -0.149992 53
-0.816718 -0.183757 -0.127243 50
-0.81154 -0.0406827 -0.208214 49
-0.810818 -0.183244 -0.183619 47
-6.8686 -0.309709 1.57677 1
-7.2166 -1.65045 1.97157 33
-7.27014 -0.328991 1.14453 36
-7.21617 -1.63716 1.43026 35
-7.29467 -0.33136 0.635801 33
-7.08527 -1.59701 0.886252 1
-1.68612 -0.37508 0.0887094 55
-0.648394 -0.0303767 -0.0322938 59
-0.808298 -0.0372494 -0.094923 55
-0.812097 -0.03714 -0.150945 52
-0.81282 -0.178534 -0.12646 49
-0.811736 -0.0365746 -0.208214 50
-0.809359 -0.178599 -0.183058 49
-6.8667 -0.297616 1.57621 1
-7.21711 -1.63732 1.97092 35
-7.27563 -0.316516 1.14531 36
-7.20972 -1.62114 1.42835 35
-7.29275 -0.31852 0.635583 32
-7.30354 -1.63297 0.913329 33
-1.68434 -0.371592 0.0885786 53
-0.648446 -0.029245 -0.0322938 59
-0.810841 -0.0359443 -0.0952272 56
-0.809708 -0.0356189 -0.150468 53
-0.810721 -0.176576 -0.126069 50
-0.811804 -0.0350161 -0.208214 50
-0.807293 -0.176651 -0.182496 49
-6.86821 -0.260459 1.57621 1
-7.22115 -1.5972 1.96963 33
-7.27231 -0.276959 1.14453 36
-7.21571 -1.58284 1.42788 35
-7.29188 -0.278963 0.635365 32
-7.07955 -1.54256 0.884122 1
-1.68388 -0.361942 0.0884478 55
-0.651085 -0.0259435 -0.0324251 59
-0.811024 -0.0315567 -0.0952272 56
-0.812342 -0.0313278 -0.150945 52
-0.809222 -0.171801 -0.125677 50
-0.811977 -0.0307651 -0.208214 50
-0.805857 -0.171759 -0.181935 47
-7.0585 -0.256534 1.62001 21
-7.21685 -1.58304 1.96769 33
-7.27026 -0.265446 1.14414 36
-7.20888 -1.56816 1.42597 35
-7.28987 -0.266146 0.635147 32
-7.06984 -1.52881 0.882601 1
-3.12989 -0.114513 0.0540588 9
-1.68201 -0.358769 0.0883169 53
-0.64614 -0.0246276 -0.0321625 59
-1.66221 -0.353585 -0.0290583 52
-0.808593 -0.0301944 -0.094923 56
-0.809942 -0.0298239 -0.150468 52
-0.81676 -0.171957 -0.126852 50
-0.812029 -0.0293478 -0.208214 50
-0.808506 -0.171011 -0.182496 49
-6.86252 -0.213477 1.57452 1
-7.22241 -1.54598 1.96705 35
-7.27155 -0.227375 1.14414 36
-7.21432 -1.53114 1.42549 35
-7.29112 -0.229245 0.635147 30
-7.07532 -1.49125 0.882297 1
-3.12043 -0.0983594 0.0538843 9
-1.68631 -0.350472 0.0884478 55
-0.651251 -0.0213974 -0.0324251 59
-1.67377 -0.347226 -0.0292328 56
-0.806259 -0.0258848 -0.0946187 55
-0.80763 -0.0256504 -0.149992 52
-0.815234 -0.167168 -0.12646 50
-0.812167 -0.0252374 -0.208214 50
-0.804624 -0.165764 -0.181373 49
-6.85801 -0.201357 1.5734 1
-7.21565 -1.53136 1.96446 33
-7.27441 -0.214756 1.14453 36
-7.20764 -1.51526 1.42359 33
-7.28653 -0.216372 0.634712 30
-7.06577 -1.47636 0.880776 1
-3.11312 -0.0921499 0.0537534 12
-1.68203 -0.346507 0.0881861 56
-0.656278 -0.0204054 -0.0326876 61
-1.67682 -0.344814 -0.0292764 56
-0.808784 -0.0245486 -0.094923 56
-0.810127 -0.0243102 -0.150468 52
-0.813107 -0.165239 -0.126069 50
-0.8098 -0.023612 -0.207567 50
-0.804913 -0.16436 -0.181373 49
-6.86387 -0.164365 1.57452 1
-7.21437 -1.49034 1.96188 33
-7.27053 -0.175277 1.14375 36
-7.21548 -1.4775 1.42359 35
-7.2851 -0.176886 0.634494 29
-7.07122 -1.43761 0.880471 1
-3.10856 -0.0757289 0.0536661 12
-1.68143 -0.336904 0.0880552 56
-0.648888 -0.0167911 -0.0322938 59
-1.67866 -0.335737 -0.0292764 61
-0.808905 -0.0201724 -0.094923 56
-0.8127 -0.0199827 -0.150945 52
-0.806703 -0.1595 -0.124894 50
-0.814741 -0.0194786 -0.20886 50
-0.808177 -0.160491 -0.181935 49
-6.86899 -0.153691 1.57565 1
-7.21696 -1.47775 1.96188 33
-7.27573 -0.163966 1.14453 36
-7.21083 -1.46343 1.42216 35
-7.2854 -0.16417 0.634494 32
-7.0686 -1.42552 0.879863 1
-3.10369 -0.0701926 0.0535789 15
-1.67706 -0.333276 0.0877936 56
-0.648917 -0.0156586 -0.0322938 59
-1.68169 -0.333299 -0.02932 62
-0.811416 -0.0189554 -0.0952272 56
-0.805372 -0.0184088 -0.149516 53
-0.809401 -0.158581 -0.125285 50
-0.81236 -0.0180073 -0.208214 50
-0.808428 -0.159221 -0.181935 49
-6.88675 -0.118012 1.57958 1
-7.21724 -1.43978 1.95994 33
-7.26908 -0.125742 1.14336 35
-7.20852 -1.42501 1.42025 35
-7.28863 -0.127337 0.634712 30
-7.06867 -1.38705 0.87895 1
-3.10151 -0.0544398 0.0535353 29
-1.68614 -0.325932 0.0881861 58
-0.64899 -0.0122606 -0.0322938 59
-1.676 -0.323342 -0.0291891 64
-0.809023 -0.0146659 -0.094923 56
-0.807909 -0.0143716 -0.149992 53
-0.81022 -0.15434 -0.125285 50
-0.81244 -0.0138953 -0.208214 50
-0.806861 -0.154514 -0.181373 49
-6.90887 -0.106325 1.58463 1
-7.21027 -1.4253 1.95735 33
-7.26435 -0.112979 1.14258 35
-7.20883 -1.41069 1.41977 35
-7.06864 -1.37423 0.878646 1
-3.10161 -0.0484852 0.0535353 36
-1.6769 -0.321083 0.0876627 56
-0.646514 -0.0110905 -0.0321625 59
-1.67656 -0.320416 -0.0291891 64
-0.809048 -0.0132539 -0.094923 58
-0.803025 -0.0128913 -0.14904 53
-0.808064 -0.152454 -0.124894 50
-0.812466 -0.0123356 -0.208214 50
-0.807129 -0.153105 -0.181373 49
-7.20839 -1.38444 1.95477 33
-7.21371 -1.37247 1.4193 35
-7.0711 -1.33505 0.878037 1
-3.09432 -0.03217 0.0534044 24
-1.68107 -0.312469 0.0877936 55
-0.654052 -0.00777838 -0.0325564 61
-1.67827 -0.311341 -0.0291891 64
-0.804145 -0.00883042 -0.0943145 58
-0.810445 -0.00861188 -0.150468 53
-0.808852 -0.148221 -0.124894 49
-0.810104 -0.00806153 -0.207567 50
-0.812732 -0.149647 -0.182496 50
-7.20842 -1.3714 1.95412 33
-7.20886 -1.35851 1.41787 35
-3.1056 -0.0274036 0.268658 8
-7.07075 -1.32348 0.877733 1
-3.09187 -0.0267489 0.0533607 23
-1.67665 -0.308909 0.0875319 56
-0.649072 -0.00659675 -0.0322938 59
-1.67144 -0.307036 -0.0290583 58
-0.801676 -0.0075482 -0.0940102 58
-0.715536 -0.128778 -0.0604524 36
-0.808005 -0.00717981 -0.149992 53
-0.811536 -0.147264 -0.125285 49
-0.805287 -0.00661643 -0.206274 50
-0.805784 -0.147015 -0.180812 50
-7.20815 -1.33358 1.95218 33
-3.10187 -0.0111426 0.484659 4
-7.21081 -1.32111 1.41691 35
-3.09076 -0.0116349 0.26735 9
-7.07026 -1.2851 0.87682 1
-3.07447 -0.0110443 0.0530553 15
-1.67578 -0.29968 0.087401 55
-0.646601 -0.00319117 -0.0321625 59
-1.66805 -0.29768 -0.028971 49
-0.804186 -0.00335662 -0.0943145 58
-0.7113 -0.124141 -0.0600175 36
-0.810485 -0.00309519 -0.150468 53
-0.807437 -0.142128 -0.124502 49
-0.81014 -0.00254718 -0.207567 52
-0.808939 -0.143233 -0.181373 47
-7.20572 -1.32012 1.95089 35
-3.12164 -0.00575635 0.48778 2
-7.20126 -1.30507 1.41453 35
-3.09575 -0.00624832 0.267786 1
-7.07005 -1.27232 0.876516 1
-3.07199 -0.00513865 0.0530117 15
-1.67385 -0.296312 0.0872702 39
-0.646606 -0.00206263 -0.0321625 59
-1.65873 -0.293001 -0.0287965 49
-0.804191 -0.00195304 -0.0943145 58
-0.704161 -0.121579 -0.0593651 36
-0.805581 -0.00167891 -0.149516 53
-0.810114 -0.141157 -0.124894 49
-0.807729 -0.000993085 -0.20692 50
-0.806791 -0.141386 -0.180812 47
-7.20324 -1.27942 1.94831 35
-3.05496 0.0108657 0.477244 11
-7.20317 -1.2665 1.41358 35
-3.05092 0.0103292 0.263864 14
-7.06949 -1.23276 0.875603 1
-3.05447 0.010876 0.0527063 20
-1.68526 -0.288967 0.0877936 39
-0.649104 0.00133346 -0.0322938 61
-1.66768 -0.285307 -0.0289274 49
-0.801708 0.00238636 -0.0940102 59
-0.702335 -0.117463 -0.0591477 38
-0.803124 0.00266728 -0.14904 55
-0.810842 -0.136913 -0.124894 49
-0.810138 0.00325008 -0.207567 50
-0.807544 -0.137019 -0.180812 49
-7.20071 -1.26601 1.94701 33
-3.05741 0.0156782 0.477634 9
-7.19811 -1.25265 1.41215 35
-3.0484 0.0156401 0.263646 15
-7.06164 -1.21996 0.874387 1
-3.04445 0.0161494 0.0525317 23
-1.6931 -0.287594 0.0881861 14
-0.654094 0.00249598 -0.0325564 61
-1.67803 -0.284093 -0.0291019 11
-0.794259 0.00359891 -0.0930975 59
-0.700084 -0.115814 -0.0589302 38
-0.808027 0.00410241 -0.149992 53
-0.81108 -0.135498 -0.124894 50
-0.807716 0.0046459 -0.20692 50
-0.805358 -0.135332 -0.18025 47
-7.2094 -1.22995 1.94766 36
-3.07703 0.0319002 0.480756 9
-7.20678 -1.21662 1.41263 36
-3.05575 0.0311488 0.2643 14
-7.06549 -1.18256 0.874082 1
-3.04183 0.0315315 0.0524881 32
-1.72659 -0.284082 0.089887 14
-0.649079 0.00586499 -0.0322938 61
-1.7041 -0.279713 -0.0295382 11
-0.79423 0.00775757 -0.0930975 59
-0.698224 -0.111736 -0.0587128 38
-0.816649 -0.132066 -0.125677 50
-0.805267 0.0087037 -0.206274 52
-0.813262 -0.13233 -0.181935 49
-7.19487 -1.21454 1.94314 35
-3.04981 0.0369293 0.476464 9
-7.19458 -1.20035 1.40977 35
-3.0557 0.036482 0.2643 15
-7.06264 -1.16941 0.873474 1
-3.05426 0.0375305 0.0527063 23
-1.75171 -0.285146 0.0911954 14
-0.646572 0.00696559 -0.0321625 61
-1.72431 -0.279997 -0.0298872 11
-0.796696 0.00917666 -0.0934018 61
-0.695961 -0.110111 -0.0584953 38
-0.807134 -0.129024 -0.124111 50
-0.802835 0.0102147 -0.205627 52
-0.808686 -0.130108 -0.180812 49
-7.20372 -1.17599 1.94378 36
-3.14833 0.0552053 0.492073 1
-7.19834 -1.16227 1.40929 36
-3.08035 0.0534576 0.266479 2
-7.05662 -1.12921 0.871953 1
-3.07902 0.0539714 0.0531426 3
-1.77295 -0.278819 0.0922421 14
-0.64403 0.0103056 -0.0320313 62
-1.73814 -0.272634 -0.0301054 14
-0.799116 0.0135334 -0.093706 68
-0.800555 0.0138337 -0.148564 55
-0.802923 -0.124013 -0.123328 50
-0.805184 0.0144658 -0.206274 52
-0.802163 -0.124566 -0.179127 49
-7.19861 -1.16225 1.94184 36
-6.96289 -1.11162 1.36258 1
-3.08524 0.0589311 0.266914 11
-7.06083 -1.11852 0.872257 1
-3.07642 0.0592959 0.0530989 14
-1.79805 -0.279939 0.0935505 14
-0.644011 0.0114296 -0.0320313 62
-1.72133 -0.266872 -0.0298 15
-0.799094 0.0147886 -0.093706 67
-0.802983 0.0152819 -0.14904 55
-0.805577 -0.122999 -0.123719 50
-0.800329 0.0157674 -0.20498 52
-0.804764 -0.12369 -0.179689 49
-7.19486 -1.12431 1.93926 35
-6.96842 -1.07636 1.36258 1
-7.06414 -1.08115 0.871953 1
-3.08607 0.075114 0.0532735 15
-0.648937 0.0148137 -0.0322938 67
-0.796525 0.0189092 -0.0934018 70
-0.684927 -0.0998409 -0.057408 42
-0.805349 0.0194093 -0.149516 55
-0.803769 -0.118405 -0.123328 50
-0.802653 0.0198821 -0.205627 52
-0.802993 -0.119103 -0.179127 49
-7.15082 0.188338 1.64078 33
-7.19442 -1.11138 1.93861 35
-7.26271 0.191319 1.14258 38
-6.96302 -1.06308 1.36115 1
-7.06111 -1.06808 0.871344 1
-3.09593 0.0807653 0.053448 14
-0.651405 0.016013 -0.0324251 73
-0.79649 0.0202994 -0.0934018 70
-0.677713 -0.0975294 -0.0567557 42
-0.805314 0.0208149 -0.149516 58
-0.801533 -0.116632 -0.122936 50
-0.802617 0.0212829 -0.205627 52
-0.800791 -0.117334 -0.178566 49
-7.14969 0.227025 1.64078 33
-7.19537 -1.07298 1.93732 33
-7.25914 0.229266 1.14219 38
-6.95635 -1.02481 1.35877 1
-7.27868 0.228627 0.634058 27
-7.06661 -1.03109 0.871344 1
-3.09297 0.096895 0.0534044 11
-0.653808 0.0195032 -0.0325564 74
-0.793893 0.024389 -0.0930975 70
-0.675749 -0.0936205 -0.0565382 45
-0.805194 0.0250312 -0.149516 58
-0.802133 -0.112433 -0.122936 50
-0.802495 0.0254851 -0.205627 52
-0.798984 -0.112784 -0.178004 47
-7.14933 0.238255 1.64078 33
-7.19006 -1.05935 1.93538 33
-7.25626 0.241852 1.1418 38
-6.95813 -1.01267 1.35877 1
-7.26831 0.240998 0.633186 27
-7.29433 -1.05148 0.899334 35
-3.12277 0.103298 0.0539279 11
-0.656268 0.0207284 -0.0326876 80
-0.798809 0.0259443 -0.093706 71
-0.668516 -0.0913766 -0.0558859 45
-0.810054 0.0266061 -0.150468 58
-0.804772 -0.111386 -0.123328 50
-0.800036 0.0268006 -0.20498 53
-0.808823 -0.112793 -0.18025 49
-7.14793 0.276933 1.64078 33
-7.19312 -1.02135 1.93474 33
-7.25983 0.280034 1.14258 36
-6.95847 -0.975541 1.35782 1
-7.27939 0.279532 0.634276 30
-7.0466 -0.977963 0.867997 1
-3.1172 0.119454 0.0538407 3
-0.658641 0.0243764 -0.0328189 82
-0.786265 0.0296372 -0.0921848 74
-0.669001 -0.0877582 -0.0558859 47
-0.802547 0.0305542 -0.14904 58
-0.800453 -0.106491 -0.122545 50
-0.802297 0.0310869 -0.205627 53
-0.804577 -0.10788 -0.179127 49
-7.14744 0.289408 1.64078 35
-7.1925 -1.00846 1.93409 33
-7.2618 0.292804 1.14297 36
-6.95304 -0.961166 1.35639 1
-7.27143 0.291935 0.633622 32
-7.04338 -0.964986 0.867389 1
-3.06251 -0.414684 0.160148 9
-0.658597 0.0255259 -0.0328189 85
-0.788691 0.0311116 -0.092489 79
-0.666685 -0.0862533 -0.0556684 47
-0.804945 0.0320568 -0.149516 58
-0.80553 -0.105765 -0.123328 50
-0.802236 0.0326272 -0.205627 53
-0.802351 -0.106141 -0.178566 49
-7.14334 0.327963 1.64022 35
-7.19067 -0.968558 1.93215 32
-7.26011 0.33209 1.14297 32
-6.95311 -0.924097 1.35543 1
-7.2797 0.331728 0.634494 27
-7.04604 -0.926538 0.867085 1
-3.05976 -0.397457 0.159886 9
-0.658455 0.0289739 -0.0328189 88
-0.795948 0.0357251 -0.0934018 77
-0.669597 -0.0830856 -0.0558859 47
-0.799856 0.0361811 -0.148564 56
-0.803625 -0.101223 -0.122936 50
-0.799642 0.0367122 -0.20498 52
-0.805329 -0.10212 -0.179127 50
-7.15011 0.339531 1.64191 36
-7.18756 -0.955367 1.93086 32
-7.26204 0.343611 1.14336 33
-6.94985 -0.911319 1.35448 1
-7.28159 0.344552 0.634712 27
-7.04502 -0.915148 0.866781 1
-3.05543 -0.392007 0.159625 9
-0.655909 0.0300037 -0.0326876 90
-0.790933 0.0367364 -0.0927933 79
-0.667271 -0.0815969 -0.0556684 47
-0.797341 0.0374576 -0.148088 56
-0.806249 -0.100139 -0.123328 50
-0.804401 0.0383462 -0.206274 52
-0.805488 -0.100855 -0.179127 50
-7.1458 0.376836 1.64134 33
-7.18991 -0.918667 1.93021 32
-7.25768 0.3815 1.14297 36
-6.95437 -0.876131 1.35448 1
-7.28224 0.381533 0.63493 26
-7.04479 -0.877631 0.866172 1
-3.05744 -0.376004 0.159625 9
-0.658236 0.0335701 -0.0328189 90
-0.788252 0.0407447 -0.092489 79
-0.665218 -0.077795 -0.0554509 47
-0.804493 0.0418884 -0.149516 58
-0.804312 -0.0956101 -0.122936 50
-0.804197 0.0424172 -0.206274 53
-0.801171 -0.0960267 -0.178004 50
-7.14027 0.389041 1.64022 33
-7.18911 -0.905813 1.92957 32
-7.25454 0.394032 1.14258 36
-6.95117 -0.862171 1.35353 1
-7.27659 0.393972 0.634494 27
-7.04631 -0.865334 0.866172 1
-3.05066 -0.369754 0.159232 11
-0.658177 0.0347188 -0.0328189 90
-0.78818 0.0421204 -0.092489 83
-0.665353 -0.0766339 -0.0554509 49
-0.804419 0.0432925 -0.149516 58
-0.806928 -0.0945079 -0.123328 52
-0.799291 0.0436889 -0.20498 53
-0.801338 -0.0946282 -0.178004 50
-7.14292 0.42796 1.64134 33
-7.1915 -0.866613 1.92892 32
-7.25476 0.433424 1.14297 38
-6.95072 -0.825181 1.35257 1
-7.27933 0.433634 0.63493 30
-7.0435 -0.826325 0.865259 1
-3.04766 -0.352662 0.15897 11
-0.655494 0.0380148 -0.0326876 90
-0.787941 0.0463843 -0.092489 82
-0.668218 -0.0734388 -0.0556684 50
-0.804173 0.0476441 -0.149516 58
-0.80496 -0.0899927 -0.122936 50
-0.796641 0.0477247 -0.204334 53
-0.799419 -0.090004 -0.177443 50
-7.14468 0.43933 1.64191 33
-7.19061 -0.853774 1.92827 32
-7.25407 0.444819 1.14297 38
-6.95702 -0.813622 1.35353 1
-7.27359 0.446032 0.634494 30
-7.27648 -0.842231 0.893858 33
-3.05317 -0.348448 0.159232 11
-0.657918 0.0393129 -0.0328189 90
-0.790344 0.047776 -0.0927933 85
-0.668346 -0.0722724 -0.0556684 52
-0.804088 0.0490476 -0.149516 58
-0.797757 -0.0877336 -0.121762 50
-0.796557 0.049115 -0.204334 53
-0.799559 -0.0887482 -0.177443 50
-7.14471 0.476896 1.64247 35
-7.18764 -0.816545 1.92634 32
-7.25657 0.483125 1.14375 38
-7.18541 -0.803645 1.39737 35
-7.26875 0.482676 0.634276 32
-7.26846 -0.80275 0.892337 33
-3.0475 -0.331635 0.15884 11
-0.655212 0.04259 -0.0326876 91
-0.785131 0.0515794 -0.0921848 85
-0.663764 -0.0682271 -0.0552335 52
-0.798933 0.0527847 -0.148564 59
-0.798206 -0.0835554 -0.121762 50
-0.801117 0.0534763 -0.205627 53
-0.795171 -0.0840191 -0.17632 50
-7.139 0.489031 1.64134 33
-7.18425 -0.803459 1.92504 32
-7.25326 0.49562 1.14336 38
-6.94302 -0.762875 1.34971 1
-7.26044 0.494852 0.633622 35
-7.27478 -0.790603 0.892945 35
-3.04808 -0.326315 0.15884 11
-0.655137 0.0437335 -0.0326876 95
-0.792466 0.0534638 -0.0930975 86
-0.663882 -0.0670685 -0.0552335 50
-0.801288 0.0543493 -0.14904 58
-0.80326 -0.0826972 -0.122545 52
-0.798604 0.0548445 -0.20498 53
-0.800159 -0.0831641 -0.177443 50
-7.14111 0.528009 1.64247 33
-7.1861 -0.76432 1.9244 32
-7.25047 0.534856 1.14336 38
-6.94203 -0.725997 1.34876 1
-7.25766 0.534127 0.633622 33
-7.28389 -0.751744 0.893554 35
-3.0498 -0.309819 0.15884 11
-0.657389 0.0473478 -0.0328189 99
-0.792165 0.0577506 -0.0930975 88
-0.659269 -0.0630812 -0.0547986 52
-0.800982 0.0586839 -0.14904 58
-0.79877 -0.0779809 -0.121762 50
-0.800713 0.0592075 -0.205627 53
-0.795752 -0.0783269 -0.17632 50
-7.13542 0.538858 1.64134 33
-7.18502 -0.751524 1.92375 32
-7.25208 0.546431 1.14375 38
-6.94573 -0.714133 1.34924 1
-7.25672 0.546793 0.633622 35
-7.27272 -0.739039 0.892032 35
-3.0478 -0.304776 0.158709 11
-0.652326 0.0481172 -0.0325564 101
-0.789599 0.0588062 -0.0927933 88
-0.664334 -0.0624321 -0.0552335 50
-0.798431 0.0598939 -0.148564 58
-0.796448 -0.0763363 -0.12137 50
-0.790978 0.0598588 -0.203041 53
-0.791027 -0.0765777 -0.175197 50
-7.13492 0.576408 1.64191 35
-7.18392 -0.714667 1.92246 32
-7.24666 0.584196 1.14336 39
-6.94682 -0.678728 1.34876 1
-7.24393 0.582715 0.632751 35
-7.28143 -0.701428 0.892641 33
-3.05184 -0.289053 0.15884 11
-0.659531 0.052138 -0.0329502 105
-0.786807 0.0627382 -0.092489 89
-0.662172 -0.058715 -0.055016 50
-0.800564 0.0641346 -0.14904 58
-0.791922 -0.07169 -0.120587 52
-0.795478 0.064259 -0.204334 53
-0.798691 -0.0731455 -0.176881 52
-6.8717 0.567165 1.58126 1
-7.18516 -0.702127 1.92246 30
-7.24809 0.597046 1.14375 38
-6.94322 -0.664919 1.34781 1
-7.24538 0.595562 0.632969 35
-7.28017 -0.688483 0.892337 33
-3.05482 -0.283961 0.15897 11
-0.654463 0.0528764 -0.0326876 107
-0.786697 0.0641113 -0.092489 88
-0.662274 -0.0575592 -0.055016 52
-0.802896 0.0657363 -0.149516 59
-0.792045 -0.0703077 -0.120587 52
-0.79776 0.0659894 -0.20498 53
-0.798817 -0.0717514 -0.176881 50
-7.1379 0.628091 1.64359 36
-7.17683 -0.662124 1.91923 30
-7.24475 0.636253 1.14375 38
-6.94172 -0.628109 1.34686 1
-7.2495 0.635408 0.633622 33
-7.28132 -0.648862 0.892032 33
-3.05631 -0.267429 0.15897 12
-0.65169 0.0560831 -0.0325564 111
-0.793753 0.0690246 -0.0934018 90
-0.662566 -0.0540908 -0.055016 52
-0.800084 0.0698616 -0.14904 58
-0.794862 -0.06638 -0.120979 50
-0.802214 0.0705974 -0.206274 53
-0.799194 -0.0674284 -0.176881 52
-7.11749 0.63756 1.6391 23
-7.18038 -0.649817 1.91987 32
-7.23145 0.646531 1.1418 35
-6.94036 -0.615774 1.34638 1
-7.24838 0.64806 0.633622 35
-7.27738 -0.636988 0.891424 33
-3.05673 -0.262627 0.15897 12
-0.654078 0.0574441 -0.0326876 115
-0.793644 0.0702714 -0.0934018 90
-0.667622 -0.0533667 -0.0554509 53
-0.799961 0.0712579 -0.14904 58
-0.794977 -0.0649926 -0.120979 50
-0.799685 0.0717773 -0.205627 55
-0.794446 -0.0657415 -0.175758 50
-7.17395 -0.612637 1.91729 30
-6.94094 -0.580432 1.3459 1
-7.2732 -0.59826 0.890511 35
-3.05309 -0.24621 0.158709 12
-0.656253 0.0611047 -0.0328189 122
-0.793265 0.0744259 -0.0934018 90
-0.662928 -0.0494639 -0.055016 53
-0.797147 0.0750716 -0.148564 58
-0.792845 -0.0606261 -0.120587 50
-0.789696 0.0748947 -0.203041 53
-0.792351 -0.0613779 -0.175197 50
-7.16538 -0.599303 1.9147 29
-6.9396 -0.566904 1.34543 1
-7.27176 -0.585364 0.890207 33
-3.05351 -0.240881 0.158709 12
-0.661115 0.062732 -0.0330815 126
-0.793134 0.0758103 -0.0934018 90
-0.660531 -0.048108 -0.0547986 55
-0.799458 0.0767014 -0.14904 58
-0.795411 -0.0594411 -0.120979 50
-0.791954 0.0766476 -0.203687 53
-0.797313 -0.0603924 -0.17632 50
-2.85342 0.290435 0.653056 47
-7.17093 -0.560716 1.91535 30
-6.93268 -0.529806 1.34352 1
-7.27729 -0.546199 0.890511 33
-3.04979 -0.223983 0.158447 12
-0.658294 0.0659387 -0.0329502 131
-0.790244 0.0798467 -0.0930975 90
-0.66574 -0.0450205 -0.0552335 53
-0.799031 0.0810257 -0.14904 58
-0.793249 -0.0550895 -0.120587 52
-0.796346 0.0812922 -0.20498 53
-0.797628 -0.0560777 -0.17632 52
-2.85054 0.294665 0.652495 47
-7.15986 -0.547271 1.91212 29
-6.93604 -0.517889 1.344 1
-7.26824 -0.534033 0.889294 35
-3.05512 -0.219557 0.158709 12
-0.658178 0.0670875 -0.0329502 134
-0.792586 0.0813455 -0.0934018 90
-0.663334 -0.043677 -0.055016 55
-0.794007 0.081908 -0.148088 58
-0.798269 -0.0540684 -0.12137 52
-0.796203 0.0826819 -0.20498 52
-0.792857 -0.0544611 -0.175197 50
-2.84895 0.309586 0.652495 47
-7.16735 -0.511372 1.91341 29
-6.93368 -0.482432 1.34304 1
-7.27589 -0.496311 0.889903 33
-3.05125 -0.203218 0.158447 12
-0.655336 0.0702614 -0.0328189 135
-0.792149 0.0854944 -0.0934018 90
-0.661069 -0.0400347 -0.0547986 55
-0.8009 0.0867311 -0.149516 58
-0.791151 -0.0493815 -0.120196 52
-0.798175 0.0869766 -0.205627 53
-0.793131 -0.0503089 -0.175197 52
-2.84841 0.314558 0.652495 47
-7.16101 -0.498354 1.91147 29
-6.9248 -0.46845 1.34114 1
-7.26932 -0.483113 0.88899 35
-3.0516 -0.197893 0.158447 12
-0.657694 0.0716808 -0.0329502 140
-0.794465 0.0871517 -0.093706 90
-0.661138 -0.0388808 -0.0547986 55
-0.79587 0.0875834 -0.148564 58
-0.7937 -0.0481651 -0.120587 52
-0.795606 0.0882384 -0.20498 53
-0.793218 -0.0489246 -0.175197 52
-2.84425 0.329683 0.651933 49
-7.15878 -0.459289 1.91018 27
-2.85565 0.330518 0.448758 50
-6.93451 -0.43265 1.34257 1
-2.87242 0.331972 0.249919 53
-7.27678 -0.444081 0.889599 33
-3.05511 -0.181531 0.158578 14
-0.657309 0.0751235 -0.0329502 146
-0.793981 0.0914488 -0.093706 90
-0.658846 -0.0352674 -0.0545811 55
-0.797822 0.0921741 -0.14904 58
-0.78902 -0.0435678 -0.119804 52
-0.792735 0.09212 -0.204334 52
-0.788608 -0.0443288 -0.174073 50
-2.83889 0.33358 0.65081 49
-7.15234 -0.446338 1.90824 26
-2.85262 0.335212 0.448368 53
-6.9328 -0.420396 1.34209 1
-2.86689 0.336402 0.249483 55
-7.27011 -0.430934 0.888686 33
-3.05543 -0.176199 0.158578 14
-0.657177 0.0762706 -0.0329502 148
-0.791356 0.0925419 -0.0934018 90
-0.661393 -0.0342643 -0.0547986 56
-0.795223 0.0932762 -0.148564 59
-0.791559 -0.0423375 -0.120196 52
-0.799767 0.094365 -0.206274 53
-0.791116 -0.0430998 -0.174635 50
-2.83952 0.348738 0.651372 50
-7.15933 -0.410411 1.90953 27
-2.85088 0.349646 0.448368 53
-6.93484 -0.3853 1.34209 1
-2.86021 0.3503 0.249048 55
-7.26972 -0.393995 0.888382 33
-3.05379 -0.160597 0.158447 14
-0.659247 0.0800165 -0.0330815 146
-0.790878 0.0965462 -0.0934018 90
-0.659077 -0.030667 -0.0545811 56
-0.797176 0.0976025 -0.14904 58
-0.794229 -0.0384649 -0.120587 50
-0.794486 0.0978131 -0.20498 52
-0.786459 -0.0388248 -0.173512 52
-2.83649 0.353391 0.65081 50
-6.97678 -0.387605 1.86042 1
-2.85272 0.354928 0.448758 55
-6.92576 -0.371453 1.34018 1
-2.85959 0.355292 0.249048 55
-7.27288 -0.381438 0.888686 32
-3.05905 -0.155528 0.158709 14
-0.654152 0.0805464 -0.0328189 141
-0.788246 0.0976171 -0.0930975 90
-0.661616 -0.0296461 -0.0547986 56
-0.799439 0.0993004 -0.149516 58
-0.789363 -0.0368185 -0.119804 52
-0.794297 0.0993382 -0.20498 52
-0.786526 -0.0374521 -0.173512 52
-2.83453 0.368732 0.65081 52
-6.97154 -0.349484 1.85848 1
-2.85565 0.370996 0.449538 55
-6.93252 -0.335426 1.34114 1
-2.85516 0.370437 0.24883 55
-7.27236 -0.341965 0.888382 32
-3.05236 -0.138623 0.158316 14
-0.658672 0.0846169 -0.0330815 133
-0.787706 0.10188 -0.0930975 89
-0.659275 -0.026065 -0.0545811 56
-0.79889 0.103624 -0.149516 58
-0.792012 -0.0328021 -0.120196 50
-0.791372 0.103179 -0.204334 53
-0.794017 -0.0335492 -0.175197 49
-2.83395 0.373184 0.65081 50
-6.97455 -0.337434 1.85913 1
-2.84283 0.373865 0.447587 53
-7.16598 -0.334349 1.38641 36
-2.86191 0.376397 0.249483 55
-7.26793 -0.330312 0.887773 32
-3.05258 -0.133828 0.158316 14
-0.653573 0.0851112 -0.0328189 124
-0.782626 0.102465 -0.092489 88
-0.659319 -0.0249144 -0.0545811 56
-0.79141 0.104046 -0.148088 58
-0.797001 -0.0316454 -0.120979 50
-0.793584 0.104881 -0.20498 52
-0.794068 -0.032302 -0.175197 50
-2.82954 0.387686 0.650249 50
-6.97134 -0.301916 1.85784 1
-2.84083 0.388745 0.447587 52
-6.93219 -0.288126 1.34066 1
-2.8501 0.389524 0.248612 50
-7.27452 -0.292456 0.888382 33
-3.05573 -0.117943 0.158447 15
-0.653134 0.0884181 -0.0328189 115
-0.721666 -0.0239514 -0.0119985 11
-0.784537 0.1069 -0.0927933 88
-0.664414 -0.021776 -0.055016 56
-0.790873 0.10805 -0.148088 55
-0.792222 -0.027272 -0.120196 50
-0.785867 0.107898 -0.203041 52
-0.791793 -0.0280426 -0.174635 50
-2.82893 0.39213 0.650249 49
-6.97186 -0.289749 1.85784 1
-2.84259 0.394043 0.447977 50
-7.16563 -0.285465 1.38594 36
-2.85435 0.395183 0.249048 50
-7.27502 -0.279759 0.888382 33
-3.05094 -0.112418 0.158185 15
-0.650506 0.0892135 -0.0326876 111
-0.724204 -0.0227869 -0.0120422 9
-0.784349 0.10827 -0.0927933 86
-0.659473 -0.020426 -0.0545811 56
-0.797975 0.110453 -0.149516 58
-0.792268 -0.0258893 -0.120196 52
-0.785678 0.109269 -0.203041 52
-0.794275 -0.0267576 -0.175197 50
-2.82436 0.407081 0.649687 49
-6.98052 -0.253508 1.85978 1
-2.83805 0.408568 0.447587 50
-7.16458 -0.247855 1.38546 35
-2.84485 0.409056 0.248394 50
-7.27638 -0.241663 0.888382 33
-3.05149 -0.0964421 0.158185 15
-0.65003 0.0926183 -0.0326876 106
-0.77886 0.111662 -0.0921848 85
-0.659571 -0.0169727 -0.0545811 58
-0.794957 0.114276 -0.14904 58
-0.792393 -0.0217407 -0.120196 52
-0.794653 0.11478 -0.205627 53
-0.791969 -0.0225143 -0.174635 50
-2.82372 0.411517 0.649687 50
-6.97613 -0.241154 1.85848 1
-2.83733 0.413521 0.447587 49
-7.165 -0.235351 1.38546 35
-2.8392 0.413301 0.247958 50
-7.26935 -0.228724 0.887469 33
-3.04916 -0.0910376 0.158055 15
-0.647397 0.093391 -0.0325564 103
-0.781119 0.113382 -0.092489 82
-0.6596 -0.0158215 -0.0545811 58
-0.792328 0.115305 -0.148564 56
-0.789961 -0.0202792 -0.119804 52
-0.789674 0.115459 -0.204334 52
-0.792007 -0.021132 -0.174635 49
-2.81663 0.426058 0.648564 49
-6.97971 -0.204697 1.85913 1
-2.83024 0.427631 0.446807 49
-7.1784 -0.198179 1.38784 35
-2.83946 0.428534 0.248176 50
-7.27541 -0.190793 0.888077 33
-3.04959 -0.0750711 0.158055 17
-0.649368 0.0971541 -0.0326876 100
-0.785421 0.118217 -0.0930975 80
-0.659674 -0.0123677 -0.0545811 58
-0.791714 0.119452 -0.148564 58
-0.790057 -0.0161427 -0.119804 50
-0.793832 0.120324 -0.205627 52
-0.787237 -0.0168504 -0.173512 50
-2.81596 0.430482 0.648564 49
-6.96557 -0.192105 1.85525 1
-2.82461 0.431821 0.446026 50
-7.18119 -0.185715 1.38832 35
-2.83625 0.433112 0.247958 50
-7.27325 -0.178032 0.887773 32
-3.04473 -0.0696265 0.157793 15
-0.651665 0.0986662 -0.0328189 98
-0.780308 0.118832 -0.092489 77
-0.659694 -0.0112163 -0.0545811 58
-0.785147 -0.0146414 -0.119021 52
-0.788848 0.120969 -0.204334 52
-0.784829 -0.0154135 -0.17295 52
-2.80878 0.444946 0.647441 49
-6.97131 -0.155742 1.85655 1
-2.82231 0.446605 0.446026 50
-7.16979 -0.14785 1.38594 35
-2.8364 0.448346 0.248176 53
-7.2716 -0.139898 0.887469 30
-3.05254 -0.0538272 0.158185 17
-0.648656 0.101798 -0.0326876 96
-0.779675 0.122916 -0.092489 80
-0.654765 -0.00755298 -0.0541462 58
-0.79015 -0.0106268 -0.119804 53
-0.792973 0.125863 -0.205627 52
-0.782464 -0.0112538 -0.172389 50
-2.8104 0.450235 0.648003 49
-6.97157 -0.143575 1.85655 1
-2.81909 0.451139 0.445636 50
-7.16761 -0.134038 1.38546 33
-2.82824 0.452113 0.247522 55
-7.25695 -0.126936 0.885643 29
-0.681333 0.108094 0.0114313 8
-3.05263 -0.0484995 0.158185 20
-0.648477 0.10293 -0.0326876 95
-0.781909 0.124672 -0.0927933 76
-0.657268 -0.00645278 -0.0543637 56
-0.792636 -0.00929162 -0.120196 52
-0.795113 0.127773 -0.206274 52
-0.782482 -0.0098881 -0.172389 50
-2.80071 0.464235 0.646318 49
-6.99398 -0.106198 1.86236 1
-2.81417 0.46598 0.445246 50
-2.82821 0.467816 0.24774 56
-0.675826 0.110841 0.0113441 4
-3.04785 -0.0319224 0.157924 21
-0.650392 0.106734 -0.0328189 91
-0.778776 0.128492 -0.092489 76
-0.657292 -0.00301126 -0.0543637 58
-0.787525 0.130228 -0.148088 56
-0.792674 -0.00514128 -0.120196 52
-0.78967 0.131135 -0.20498 52
-0.78496 -0.00568707 -0.17295 50
-2.80479 0.46944 0.647441 50
-2.811 0.469992 0.444856 52
-2.82984 0.473164 0.247958 73
-3.05289 -0.0271871 0.158185 23
-0.645281 0.107041 -0.0325564 90
-0.78102 0.130128 -0.0927933 73
-0.659787 -0.00188928 -0.0545811 58
-0.792137 0.13242 -0.14904 55
-0.790213 -0.00373107 -0.119804 53
-0.794202 0.133321 -0.206274 52
-0.78984 -0.00451188 -0.174073 50
-2.80229 0.48412 0.647441 50
-2.81093 0.485125 0.445246 55
-3.10228 -0.0179032 0.595743 9
-2.83232 0.488329 0.248394 90
-3.08677 -0.0135156 0.374216 8
-3.048 -0.0111757 0.157924 23
-0.647171 0.110845 -0.0326876 90
-0.780328 0.134215 -0.0927933 73
-0.654807 0.00158971 -0.0541462 58
-0.789038 0.136007 -0.148564 55
-0.790222 0.000406503 -0.119804 52
-0.795896 0.137755 -0.20692 50
-0.782545 -0.000327773 -0.172389 52
-2.79664 0.48817 0.646318 52
-2.81252 0.490455 0.445636 55
-3.09986 -0.0119339 0.595266 2
-2.82656 0.492415 0.247958 98
-3.05205 -0.00798265 0.369956 3
-0.682219 0.118028 0.011475 4
-3.05301 -0.0058734 0.158185 17
-0.644518 0.111543 -0.0325564 90
-0.787425 0.136865 -0.093706 70
-0.657293 0.00272474 -0.0543637 58
-0.783966 0.136533 -0.147611 56
-0.797627 0.00175726 -0.120979 55
-0.780108 0.00104993 -0.171827 52
-2.79396 0.503294 0.646318 52
-2.80739 0.505227 0.445246 56
-3.06307 0.00430344 0.588117 8
-2.82875 0.508584 0.248394 95
-3.04212 0.00851842 0.368739 11
-0.679132 0.121154 0.0114313 8
-3.0505 0.0106402 0.158055 20
-0.643925 0.114917 -0.0325564 90
-0.786672 0.141123 -0.093706 71
-0.652289 0.00615583 -0.0539288 58
-0.783216 0.140773 -0.147611 55
-0.795138 0.00593013 -0.120587 55
-0.784963 0.00527324 -0.17295 52
-2.79077 0.507245 0.645756 52
-2.80659 0.509636 0.445246 56
-3.06306 0.00964949 0.588117 4
-2.82051 0.512182 0.24774 89
-3.03962 0.01329 0.368435 11
-0.691215 0.124581 0.0116495 8
-3.04548 0.0154144 0.157793 24
-0.643723 0.11604 -0.0325564 90
-0.78645 0.142358 -0.093706 68
-0.654768 0.00730384 -0.0541462 58
-0.79021 0.143467 -0.14904 55
-0.792657 0.00731014 -0.120196 52
-0.782518 0.00650114 -0.172389 52
-2.78568 0.521401 0.645195 52
-2.79903 0.523414 0.444465 50
-3.06542 0.0251691 0.588594 4
-2.81788 0.526452 0.24774 64
-3.04447 0.029245 0.369043 11
-0.685662 0.127156 0.0115622 9
-3.04786 0.0313821 0.157924 26
-0.648035 0.120218 -0.0328189 90
-0.785694 0.146474 -0.093706 68
-0.652232 0.0105956 -0.0539288 58
-0.784651 0.146555 -0.148088 55
-0.790139 0.0114397 -0.119804 53
-0.796268 0.149303 -0.207567 52
-0.782473 0.0105983 -0.172389 52
-2.78964 0.526682 0.646318 52
-2.79811 0.528298 0.444465 44
-3.06537 0.0305192 0.588594 4
-2.81206 0.530443 0.247304 58
-3.0469 0.0345828 0.369348 11
-0.692807 0.129748 0.0116931 11
-3.0478 0.0367015 0.157924 23
-0.640466 0.119954 -0.0324251 90
-0.782999 0.147382 -0.0934018 61
-0.652213 0.011734 -0.0539288 58
-0.791627 0.149302 -0.149516 53
-0.787649 0.0127937 -0.119413 53
-0.791262 0.149786 -0.206274 52
-0.780017 0.0119418 -0.171827 52
-2.78436 0.541302 0.645756 52
-2.79531 0.542942 0.444465 39
-3.0848 0.0468362 0.592407 3
-2.80925 0.54516 0.247304 56
-3.10126 0.0513552 0.376041 2
-0.692118 0.133373 0.0116931 12
-3.05006 0.0526984 0.158055 23
-0.642258 0.123896 -0.0325564 90
-0.779781 0.151004 -0.0930975 61
-0.65712 0.0153426 -0.0543637 58
-0.786017 0.152501 -0.148564 55
-0.794977 0.0170314 -0.120587 55
-0.788097 0.153461 -0.205627 52
-0.779944 0.0160258 -0.171827 52
-2.78102 0.54569 0.645195 49
-2.79678 0.548296 0.444856 50
-2.80585 0.549582 0.247087 56
-0.686956 0.133737 0.0116058 12
-3.04248 0.057891 0.157662 23
-0.646939 0.125981 -0.0328189 90
-0.784386 0.153325 -0.093706 61
-0.654602 0.0164451 -0.0541462 58
-0.78575 0.153873 -0.148564 55
-0.797415 0.0184611 -0.120979 55
-0.787801 0.154974 -0.205627 52
-0.779915 0.017387 -0.171827 53
-2.77803 0.560729 0.645195 49
-2.79135 0.562931 0.444465 50
-2.80039 0.564262 0.246869 56
-3.04711 0.0744656 0.157924 23
-0.643824 0.128872 -0.0326876 88
-0.636778 0.019563 -0.0105151 4
-0.785976 0.15806 -0.0940102 59
-0.652017 0.019815 -0.0539288 59
-0.789716 0.1591 -0.149516 53
-0.794835 0.0227197 -0.120587 55
-0.789345 0.159579 -0.206274 50
-0.779809 0.0216065 -0.171827 52
-2.77715 0.565092 0.645195 50
