# .PCD v0.7 - Point Cloud Data file format
VERSION 0.7
FIELDS x y z intensity
SIZE 4 4 4 4
TYPE F F F F
COUNT 1 1 1 1
WIDTH 1581
HEIGHT 1
VIEWPOINT 0 0 0 1 0 0 0
POINTS 1581
DATA ascii
-0.877784 -2.24134 0.0414058 50
-0.453223 -2.24375 0.118148 2
-0.881152 -2.24761 -0.125106 50
-0.459447 -2.2708 -0.0398351 49
-0.882102 -2.24774 -0.291766 55
-0.458806 -2.26753 -0.198971 45
-0.880524 -2.24145 -0.460452 52
-0.456324 -2.2632 -0.360587 42
-0.88496 -2.24816 -0.637573 59
-0.453289 -2.2601 -0.523343 45
-2.19473 -5.56695 1.37125 14
-1.10958 -5.58883 1.51535 14
-2.21992 -5.63364 0.951367 26
-1.11611 -5.56594 1.09569 14
-0.866255 -2.20177 0.203944 3
-0.88392 -2.2443 0.0414931 52
-0.457138 -2.24295 0.118148 3
-0.88599 -2.24839 -0.125237 52
-0.462914 -2.26754 -0.0397915 49
-0.886936 -2.24851 -0.292071 53
-0.462763 -2.26673 -0.198971 45
-0.88624 -2.24447 -0.461405 52
-0.460274 -2.2624 -0.360587 42
-0.891055 -2.25095 -0.638867 61
-0.457233 -2.25931 -0.523343 44
-2.24838 -5.61379 1.38585 20
-1.13114 -5.54014 1.50372 14
-2.25129 -5.62384 0.951757 27
-1.1551 -5.6081 1.10522 9
-0.882783 -2.20861 0.205034 3
-0.896589 -2.24196 0.0415367 52
-0.469774 -2.24289 0.118279 2
-0.900537 -2.25068 -0.125631 50
-0.475176 -2.265 -0.0397915 47
-0.900937 -2.24828 -0.292679 53
-0.475131 -2.26671 -0.199188 45
-0.899286 -2.24192 -0.461881 52
-0.474113 -2.26963 -0.362153 45
-0.901927 -2.24401 -0.63822 59
-0.469942 -2.25919 -0.523905 45
-2.24992 -5.59217 1.38136 17
-2.2509 -5.59739 0.947855 26
-1.21262 -5.83679 1.15097 2
-0.883847 -2.20014 0.20438 3
-0.901434 -2.24271 0.0415804 52
-0.473296 -2.24215 0.118279 2
-0.904464 -2.2491 -0.125631 50
-0.479641 -2.26662 -0.0398351 49
-0.905395 -2.24917 -0.292983 52
-0.479597 -2.26832 -0.199406 44
-0.904117 -2.24262 -0.462357 52
-0.477569 -2.26638 -0.361762 44
-0.909465 -2.25139 -0.640806 61
-0.47349 -2.25845 -0.523905 45
-2.2718 -5.56227 1.37686 15
-1.22401 -5.79464 1.57545 8
-2.27551 -5.5741 0.945904 26
-1.23552 -5.79937 1.14478 9
-0.899679 -2.20716 0.20547 2
-0.914664 -2.24275 0.0416676 52
-0.485553 -2.24208 0.11841 2
-0.917173 -2.24665 -0.125762 50
-0.491107 -2.26416 -0.0398351 47
-0.918099 -2.24669 -0.293288 53
-0.49199 -2.26821 -0.199623 44
-0.916386 -2.24029 -0.462833 52
-0.489946 -2.26626 -0.362153 45
-0.920849 -2.24676 -0.640806 61
-0.484801 -2.25355 -0.523343 45
-2.27502 -5.54252 1.37293 15
-1.23212 -5.78305 1.57286 26
-2.27961 -5.55641 0.943562 26
-1.23689 -5.75139 1.13572 14
-0.904475 -2.20789 0.205688 2
-0.919918 -2.2433 0.0417112 52
-0.489465 -2.24123 0.11841 2
-0.922041 -2.24735 -0.125893 50
-0.496116 -2.26819 -0.0399224 47
-0.922019 -2.24508 -0.293288 52
-0.495421 -2.26492 -0.199406 44
-0.920295 -2.23869 -0.462833 52
-0.49338 -2.26299 -0.361762 42
-0.92516 -2.24499 -0.640806 59
-0.489756 -2.25747 -0.524467 45
-2.30404 -5.52788 1.37237 18
-1.25568 -5.7409 1.56317 12
-2.30298 -5.52804 0.940831 26
-1.25645 -5.69689 1.12619 24
-0.917366 -2.20527 0.205905 3
-0.933575 -2.24306 0.0417985 53
-0.503747 -2.2483 0.118933 3
-0.935718 -2.2471 -0.126156 50
-0.508381 -2.26547 -0.0399224 45
-0.935109 -2.24235 -0.293592 53
-0.508353 -2.26715 -0.199841 44
-0.936181 -2.24273 -0.464738 52
-0.505222 -2.26037 -0.361762 41
-0.938768 -2.24457 -0.6421 59
-0.500915 -2.25003 -0.523343 39
-2.30895 -5.51527 1.37013 18
-1.25481 -5.68917 1.5496 21
-2.3069 -5.51303 0.938879 26
-0.923137 -2.20826 0.206341 3
-0.937488 -2.24143 0.0417985 53
-0.5051 -2.23776 0.11841 3
-0.940603 -2.24777 -0.126287 52
-0.511241 -2.2597 -0.0398351 36
-0.94055 -2.24546 -0.2942 52
-0.510132 -2.25654 -0.198971 20
-0.940094 -2.2411 -0.464738 52
-0.507015 -2.24985 -0.360196 12
-0.943622 -2.24515 -0.642746 65
-0.50392 -2.24686 -0.522782 3
-2.33971 -5.50759 1.37125 14
-2.33959 -5.50997 0.94044 15
-0.935276 -2.20585 0.206559 3
-0.949799 -2.23896 0.0418421 52
-0.519597 -2.24725 0.119064 3
-0.95236 -2.24281 -0.126287 50
-0.520436 -2.24734 -0.0396606 36
-0.954238 -2.24507 -0.294809 52
-0.519713 -2.24413 -0.198101 20
-0.952387 -2.23857 -0.465214 52
-0.518238 -2.24476 -0.359804 12
-0.955921 -2.24257 -0.643393 59
-0.513515 -2.23469 -0.520536 2
-2.37802 -5.57071 1.3881 14
-2.39284 -5.60807 0.958 27
-0.938147 -2.20192 0.206341 3
-0.956059 -2.24173 0.0419294 50
-0.523518 -2.24634 0.119064 4
-0.957254 -2.24344 -0.126418 50
-0.524921 -2.24886 -0.0397042 8
-0.957179 -2.24112 -0.294505 53
-0.52419 -2.24565 -0.198319 9
-0.959191 -2.24367 -0.466643 52
-0.520491 -2.23663 -0.35863 9
-0.96213 -2.24517 -0.644686 59
-0.520138 -2.24566 -0.523343 8
-2.43235 -5.61364 1.40213 20
-2.42511 -5.59957 0.958781 27
-0.954006 -2.20595 0.207213 3
-0.531519 -2.23283 0.277163 2
-0.968777 -2.23899 0.041973 52
-0.532791 -2.23133 0.11841 11
-0.968987 -2.2384 -0.126418 50
-0.533623 -2.23139 -0.0394424 12
-0.971267 -2.24046 -0.295113 53
-0.533646 -2.23318 -0.197449 9
-0.971316 -2.23845 -0.466643 52
-0.531628 -2.23147 -0.358238 9
-0.974837 -2.24231 -0.645333 59
-0.530608 -2.2357 -0.521659 8
-2.43533 -5.59641 1.39876 17
-2.42996 -5.5867 0.95722 26
-0.958848 -2.20657 0.207431 3
-0.534452 -2.22958 0.276859 8
-0.973682 -2.23958 0.0420167 52
-0.536873 -2.23292 0.118541 12
-0.976881 -2.24586 -0.126944 50
-0.539258 -2.23775 -0.0395733 11
-0.975777 -2.2412 -0.295417 52
-0.538121 -2.23466 -0.197666 11
-0.975221 -2.23675 -0.466643 52
-0.535521 -2.23054 -0.358238 8
-0.979717 -2.24282 -0.645979 58
-0.53412 -2.23486 -0.521659 8
-2.46067 -5.57467 1.39652 17
-2.45419 -5.56261 0.955269 24
-0.973021 -2.20852 0.208084 3
-0.546119 -2.22675 0.276859 8
-0.987024 -2.2392 0.0421039 50
-0.547375 -2.22522 0.118279 11
-0.990645 -2.24528 -0.127206 50
-0.549392 -2.23014 -0.0394861 12
-0.987499 -2.23607 -0.295417 50
-0.549223 -2.2294 -0.197449 11
-0.988517 -2.23627 -0.467595 52
-0.547777 -2.23011 -0.35863 9
-0.992035 -2.24004 -0.646626 58
-0.546388 -2.2344 -0.52222 8
-2.46348 -5.55478 1.39259 15
-2.45889 -5.54703 0.953318 23
-0.980912 -2.21593 0.208956 3
-0.550004 -2.2258 0.276859 8
-0.992335 -2.23958 0.0421476 53
-0.551258 -2.22427 0.118279 11
-0.996588 -2.24811 -0.127469 50
-0.553283 -2.22918 -0.0394861 12
-0.993415 -2.23887 -0.296026 52
-0.554898 -2.23569 -0.198101 11
-0.993416 -2.23679 -0.468071 50
-0.550492 -2.22435 -0.357847 9
-0.998301 -2.24254 -0.647919 59
-0.549709 -2.23108 -0.521659 8
-2.49249 -5.53914 1.39203 15
-2.48177 -5.51788 0.950586 18
-0.99493 -2.21513 0.209392 3
-0.562039 -2.22279 0.276859 9
-1.0061 -2.23892 0.0422348 52
-0.564501 -2.22609 0.118541 11
-1.00937 -2.24514 -0.1276 49
-0.565946 -2.22857 -0.0395297 12
-1.00857 -2.24025 -0.296939 52
-0.566596 -2.23275 -0.198101 11
-1.00752 -2.23585 -0.469023 52
-0.563933 -2.22862 -0.359021 8
-1.01003 -2.23728 -0.647919 58
-2.49617 -5.52412 1.38922 15
-2.49654 -5.52748 0.952928 26
-1.00187 -2.2202 0.210045 3
-0.566137 -2.22431 0.277163 9
-1.01104 -2.23944 0.0422784 50
-0.567997 -2.2252 0.118541 11
-1.01535 -2.24792 -0.127862 50
-0.569835 -2.22758 -0.0395297 12
-1.01209 -2.23867 -0.296939 50
-0.569269 -2.22693 -0.197666 11
-1.01345 -2.23856 -0.469976 53
-0.569032 -2.23242 -0.359804 8
-1.01593 -2.23991 -0.649213 58
-2.52912 -5.51984 1.39146 15
-2.52751 -5.51882 0.953708 21
-1.01206 -2.21284 0.209827 3
-0.577156 -2.21891 0.276859 8
-1.02548 -2.24111 0.0424093 50
-0.579641 -2.2222 0.118541 9
-1.02775 -2.24502 -0.127994 49
-0.581729 -2.22709 -0.0395733 11
-1.02691 -2.2401 -0.297851 52
-0.580533 -2.22402 -0.197666 9
-1.02579 -2.23563 -0.470452 49
-0.58133 -2.2318 -0.360196 8
-1.02826 -2.23694 -0.649859 58
-2.549 -5.5402 1.39764 14
-2.58567 -5.61982 0.972049 26
-1.018 -2.21559 0.210263 3
-0.57978 -2.2131 0.27625 8
-1.02939 -2.23931 0.0424093 50
-0.585406 -2.22843 0.118933 9
-1.03062 -2.24096 -0.127862 50
-0.584984 -2.22365 -0.0395297 11
-1.03081 -2.2383 -0.297851 52
-0.584414 -2.22301 -0.197666 9
-1.03278 -2.24052 -0.47188 49
-0.586468 -2.23556 -0.360979 4
-1.03521 -2.24172 -0.651799 58
-2.61604 -5.60579 1.41786 15
-2.6161 -5.60845 0.972439 26
-1.03169 -2.21474 0.210699 3
-0.593269 -2.21723 0.277163 4
-1.04427 -2.24069 0.0425402 50
-0.597708 -2.22775 0.119064 8
-1.04696 -2.2444 -0.128388 49
-0.596619 -2.22056 -0.0395297 11
-1.04672 -2.24187 -0.299068 52
-0.597715 -2.22463 -0.198101 8
-1.04554 -2.23731 -0.472356 50
-0.594995 -2.22053 -0.359021 4
-1.04693 -2.23626 -0.651799 58
-2.61651 -5.58137 1.4128 15
-2.61436 -5.57928 0.968146 18
-1.03873 -2.21971 0.211353 3
-0.59906 -2.22338 0.278076 4
-1.04857 -2.23868 0.0425402 49
-0.602242 -2.22911 0.119195 9
-1.05087 -2.24257 -0.128388 50
-0.601142 -2.22193 -0.0395733 9
-1.05063 -2.24004 -0.299068 50
-0.599661 -2.21636 -0.197449 8
-1.04944 -2.23548 -0.472356 50
-0.598231 -2.2171 -0.35863 4
-1.05328 -2.23862 -0.653092 58
-2.62783 -5.52753 1.4027 14
-2.62436 -5.52268 0.960732 15
-1.05179 -2.2163 0.211571 3
-0.608466 -2.21053 0.276859 3
-1.06243 -2.23767 0.0426275 52
-0.610997 -2.21378 0.118541 12
-1.06367 -2.23929 -0.128519 50
-0.610511 -2.209 -0.0393988 4
-1.06274 -2.23432 -0.299068 50
-0.610599 -2.21079 -0.197231 4
-1.06258 -2.23198 -0.472833 50
-0.611133 -2.2187 -0.359413 4
-1.06915 -2.24179 -0.655679 56
-2.64281 -5.53658 1.40606 14
-2.64367 -5.54083 0.964634 17
-1.05995 -2.22345 0.212442 3
-0.612595 -2.21197 0.277163 3
-1.06741 -2.23807 0.0426711 52
-0.615137 -2.21523 0.118672 9
-1.06758 -2.23743 -0.128519 50
-0.612371 -2.2007 -0.0392679 11
-1.07053 -2.2416 -0.300285 52
-0.61247 -2.20252 -0.196579 11
-1.06753 -2.23234 -0.473309 50
-0.607801 -2.19145 -0.355106 9
-1.07411 -2.2421 -0.656326 56
-2.65478 -5.48759 1.39708 14
-2.65543 -5.49135 0.958391 20
-1.07011 -2.21582 0.212224 3
-0.622159 -2.20156 0.27625 8
-1.0809 -2.23714 0.0427584 52
-0.622674 -2.19756 0.117887 11
-1.08146 -2.2363 -0.128781 52
-0.62147 -2.19036 -0.039137 9
-1.08225 -2.23597 -0.300285 52
-0.62332 -2.19688 -0.196362 9
-1.0831 -2.23574 -0.475213 50
-0.623938 -2.20488 -0.357847 8
-1.0865 -2.2388 -0.656972 55
-2.66862 -5.49171 1.39933 15
-2.67257 -5.50225 0.961122 23
-1.07615 -2.21843 0.21266 3
-0.626001 -2.20047 0.27625 9
-1.08519 -2.23506 0.0427584 52
-0.623789 -2.18686 0.117363 9
-1.08645 -2.23666 -0.128913 50
-0.625292 -2.18927 -0.039137 9
-1.08724 -2.23631 -0.300589 52
-0.628511 -2.20059 -0.196796 9
-1.08807 -2.23605 -0.47569 50
-0.627114 -2.20141 -0.357455 8
-1.09503 -2.24539 -0.659559 55
-2.70583 -5.49249 1.40326 15
-2.70012 -5.48328 0.960342 24
-1.09474 -2.22598 0.213967 3
-0.637897 -2.19705 0.27625 9
-1.10019 -2.23607 0.0428893 52
-0.639076 -2.19544 0.118018 9
-1.10036 -2.23542 -0.129175 49
-0.639211 -2.19306 -0.0392679 9
-1.10262 -2.23707 -0.301502 52
-0.639333 -2.19487 -0.196579 9
-1.10233 -2.23453 -0.476642 50
-0.642735 -2.21233 -0.359804 8
-1.1057 -2.23747 -0.658912 56
-2.70905 -5.47731 1.40045 14
-2.7142 -5.4901 0.962293 23
-1.09862 -2.22406 0.213967 4
-1.1041 -2.23415 0.0428893 52
-0.642524 -2.19444 0.118018 9
-1.10536 -2.23573 -0.129306 50
-0.643038 -2.19194 -0.0392679 9
-1.10613 -2.23533 -0.301502 52
-0.654293 -2.23201 -0.200058 8
-1.10623 -2.23261 -0.476642 49
-0.649348 -2.22069 -0.36137 4
-1.11391 -2.24418 -0.661498 56
-0.650771 -2.23419 -0.528397 8
-2.75407 -5.49572 1.40887 15
-2.75619 -5.50231 0.966976 21
-1.11544 -2.22961 0.215057 4
-1.11987 -2.23747 0.0430638 52
-0.661805 -2.21737 0.119457 8
-1.11817 -2.23214 -0.129438 50
-0.666918 -2.23179 -0.0400533 11
-1.11893 -2.23173 -0.301806 52
-0.665263 -2.22617 -0.199841 14
-1.12082 -2.23356 -0.47807 50
-0.667971 -2.24094 -0.365285 17
-1.12416 -2.23636 -0.660852 56
-0.663149 -2.23309 -0.528959 29
-2.77133 -5.50613 1.4128 14
-2.77689 -5.51954 0.970878 20
-1.12157 -2.23211 0.215493 4
-1.12529 -2.23755 0.0431074 52
-0.66924 -2.22818 0.120111 15
-1.12544 -2.23688 -0.129832 52
-0.677961 -2.25458 -0.0404896 36
-1.1273 -2.23863 -0.303023 52
-0.679833 -2.2608 -0.203103 52
-1.12361 -2.22941 -0.477594 50
-0.677518 -2.2587 -0.368418 52
-1.13173 -2.24066 -0.662792 56
-0.671202 -2.24594 -0.532328 50
-2.85646 -5.59955 1.44088 18
-2.85609 -5.60122 0.988048 27
-1.13137 -2.22157 0.215057 4
-1.1404 -2.23831 0.0432383 52
-0.691452 -2.25796 0.121943 49
-1.14054 -2.23762 -0.130225 50
-0.692333 -2.25805 -0.0406205 52
-1.13713 -2.22808 -0.302415 47
-0.691661 -2.25721 -0.203103 52
-1.13901 -2.22985 -0.479023 50
-0.691163 -2.25972 -0.369201 52
-1.14564 -2.239 -0.664085 56
-0.68546 -2.24927 -0.534012 50
-2.86303 -5.59072 1.43976 17
-2.85911 -5.58304 0.985706 23
-1.14092 -2.23067 0.216146 4
-1.1443 -2.23631 0.0432383 52
-0.696853 -2.26153 0.122204 47
-1.1433 -2.23341 -0.130094 49
-0.696273 -2.25684 -0.0406205 53
-1.14442 -2.23272 -0.303328 52
-0.697786 -2.26315 -0.203755 52
-1.14402 -2.23004 -0.479499 50
-0.694385 -2.25615 -0.368809 56
-1.15066 -2.23915 -0.664732 56
-0.690094 -2.2504 -0.534574 50
-2.87976 -5.5492 1.43302 15
-2.87465 -5.5417 0.981024 21
-1.15373 -2.22688 0.216364 4
-1.74826 -5.60721 0.715877 20
-1.15715 -2.23251 0.043282 52
-0.706456 -2.2507 0.121812 47
-1.15843 -2.23404 -0.130488 47
-0.710314 -2.26032 -0.0407514 52
-1.15953 -2.2333 -0.30424 52
-0.708885 -2.25708 -0.203538 50
-1.15795 -2.22838 -0.480451 50
-0.707995 -2.25968 -0.369984 58
-1.1646 -2.23738 -0.666025 55
-0.702589 -2.24908 -0.535136 50
-2.87947 -5.52739 1.42853 14
-2.87308 -5.51746 0.977512 18
-1.74941 -5.6039 1.13334 15
-1.16222 -2.2337 0.217236 4
-1.76743 -5.63761 0.720137 21
-1.15989 -2.22827 0.0432383 50
-0.712977 -2.25911 0.122335 47
-1.16002 -2.22759 -0.130225 49
-0.712761 -2.25431 -0.0406641 49
-1.16303 -2.23147 -0.30424 52
-0.713569 -2.25822 -0.203755 52
-1.16411 -2.2307 -0.481404 50
-0.711201 -2.25609 -0.369592 52
-1.1685 -2.23534 -0.666025 56
-0.706121 -2.24798 -0.535136 49
-2.89472 -5.48638 1.42179 15
-1.7742 -5.6176 1.56705 15
-2.8881 -5.47614 0.972829 20
-1.79036 -5.63475 1.14144 17
-1.17351 -2.22779 0.217236 4
-1.80822 -5.66375 0.7247 26
-1.17348 -2.22679 0.0433256 52
-0.724037 -2.25297 0.122204 47
-1.17867 -2.23473 -0.131013 49
-0.725683 -2.25543 -0.0407514 49
-1.17818 -2.23194 -0.305153 50
-0.726899 -2.2592 -0.20419 64
-1.17883 -2.23129 -0.482832 49
-0.723754 -2.25469 -0.369984 52
-1.18432 -2.23793 -0.668611 55
-0.718619 -2.24657 -0.535697 49
-2.9351 -5.53944 1.43695 11
-1.72564 -5.43031 1.51535 1
-3.00287 -5.66964 1.00834 35
-1.80937 -5.65702 1.14669 20
-1.17973 -2.23014 0.217671 4
-1.81885 -5.66294 0.725005 27
-1.18127 -2.23116 0.0434565 50
-0.73102 -2.26121 0.122728 49
-1.1849 -2.23708 -0.131276 50
-0.731148 -2.25892 -0.0408386 50
-1.18324 -2.23207 -0.305457 50
-0.730841 -2.25792 -0.20419 53
-1.18157 -2.22706 -0.482356 49
-0.728442 -2.25577 -0.370375 55
-1.18975 -2.23779 -0.669258 55
-0.72328 -2.24763 -0.536259 50
-3.04917 -5.68015 1.47794 15
-1.82993 -5.65302 1.58062 20
-3.04402 -5.67289 1.01185 17
-1.83897 -5.64747 1.14669 20
-1.19413 -2.22811 0.218107 4
-1.84716 -5.64594 0.724092 24
-1.19648 -2.23155 0.0435874 50
-0.743244 -2.25723 0.122728 49
-1.19542 -2.22864 -0.131144 50
-0.74336 -2.25493 -0.0408386 50
-1.19882 -2.23219 -0.30637 50
-0.744203 -2.2588 -0.204625 49
-1.19825 -2.22928 -0.484261 49
-0.740243 -2.25192 -0.370375 52
-1.2026 -2.23365 -0.669905 55
-0.737692 -2.25064 -0.537943 58
-3.03266 -5.62817 1.46559 15
-1.83681 -5.64063 1.57803 15
-3.03184 -5.62898 1.00483 15
-1.84425 -5.63025 1.14383 15
-1.1992 -2.22822 0.218325 4
-1.85216 -5.63125 0.722571 23
-1.20275 -2.23386 0.0436746 50
-0.746789 -2.25606 0.122728 50
-1.20405 -2.23534 -0.131669 47
-0.748076 -2.25601 -0.0408823 50
-1.20468 -2.23467 -0.306978 49
-0.748922 -2.25986 -0.204842 52
-1.20331 -2.22934 -0.484737 50
-0.744172 -2.25063 -0.370375 53
-1.20764 -2.23367 -0.670551 55
-0.741227 -2.24947 -0.537943 49
-3.06676 -5.62077 1.46783 33
-1.86079 -5.6175 1.57415 15
-3.06245 -5.61519 1.00522 38
-1.87195 -5.61852 1.14335 17
-1.21285 -2.22649 0.218761 4
-1.87926 -5.61441 0.721658 21
-1.21404 -2.22775 0.0436746 50
-0.757799 -2.24975 0.122597 42
-1.21574 -2.22901 -0.131669 47
-0.761073 -2.25693 -0.0409695 52
-1.21994 -2.23486 -0.307891 49
-0.761536 -2.25827 -0.20506 52
-1.21693 -2.22753 -0.485689 49
-0.758294 -2.25373 -0.37155 61
-1.22242 -2.23388 -0.672491 55
-0.753765 -2.24787 -0.538505 49
-3.07773 -5.61755 1.46839 36
-1.86983 -5.61196 1.57351 15
-3.07581 -5.61634 1.00639 39
-1.8158 -5.41475 1.10236 1
-1.87721 -5.57584 0.717094 18
-1.22071 -2.22979 0.0437619 50
-0.764113 -2.25552 0.122989 47
-1.22202 -2.23126 -0.131932 47
-0.765809 -2.25797 -0.0410132 49
-1.22384 -2.23273 -0.307891 47
-0.767067 -2.26166 -0.205495 53
-1.22082 -2.2254 -0.485689 49
-0.76144 -2.25006 -0.371158 50
-1.22787 -2.23365 -0.673138 55
-0.75846 -2.24886 -0.539066 49
-3.10572 -5.59655 1.46727 23
-1.8963 -5.59032 1.57028 15
-3.10016 -5.58882 1.00444 21
-1.84729 -5.41446 1.10427 1
-1.8295 -5.33784 0.687583 1
-1.23359 -2.22556 0.0438055 50
-0.778733 -2.25844 0.123382 47
-1.23733 -2.23138 -0.132326 47
-0.778015 -2.25379 -0.0410132 49
-1.23952 -2.23258 -0.308804 45
-0.778898 -2.25761 -0.205495 49
-1.23642 -2.2252 -0.487118 49
-0.774808 -2.25072 -0.371941 50
-1.24307 -2.23352 -0.675078 55
-0.771403 -2.24703 -0.539628 49
-3.12873 -5.6172 1.47401 33
-1.90138 -5.57328 1.5664 15
-3.12215 -5.60767 1.00873 33
-1.9052 -5.55287 1.13334 15
-1.84192 -5.34669 0.689104 1
-1.2399 -2.22777 0.0438928 50
-0.781467 -2.25485 0.123251 47
-1.24122 -2.22922 -0.132326 45
-0.783577 -2.25716 -0.0411004 49
-1.24181 -2.22847 -0.3085 49
-0.785272 -2.26332 -0.206147 52
-1.24389 -2.22947 -0.488546 49
-0.779539 -2.25169 -0.372333 50
-1.25051 -2.23767 -0.677018 55
-0.775722 -2.24812 -0.540189 49
-3.16289 -5.60923 1.47626 33
-1.92641 -5.55446 1.56382 14
-3.15632 -5.59985 1.01029 33
-1.88007 -5.39017 1.10189 1
-1.9501 -5.56654 0.71892 18
-1.25485 -2.228 0.0440237 49
-0.794913 -2.25544 0.123513 47
-1.25617 -2.22943 -0.13272 47
-0.794165 -2.2508 -0.0410568 50
-1.25713 -2.22842 -0.309412 49
-0.795894 -2.25696 -0.20593 52
-1.25879 -2.22955 -0.489975 49
-0.791318 -2.24758 -0.372333 50
-1.26063 -2.22921 -0.676371 55
-0.787482 -2.24403 -0.540189 49
-3.1777 -5.61485 1.47906 33
-1.93927 -5.56021 1.5664 14
-3.17339 -5.60723 1.01263 35
-1.95835 -5.58379 1.1424 15
-1.89647 -5.38286 0.695493 1
-1.2612 -2.23015 0.044111 49
-0.798848 -2.25405 0.123513 47
-1.26252 -2.23158 -0.132982 45
-0.798923 -2.25177 -0.0411004 49
-1.26469 -2.23269 -0.310325 49
-0.801487 -2.26027 -0.206364 59
-1.26389 -2.22949 -0.490451 49
-0.796059 -2.24853 -0.372724 50
-1.2681 -2.2333 -0.678311 55
-0.79301 -2.24725 -0.541312 49
-3.21386 -5.60547 1.48131 33
-1.979 -5.57696 1.57415 14
-3.21351 -5.60711 1.01575 33
-2.0017 -5.6101 1.15002 15
-1.94144 -5.41692 0.701274 1
-1.27697 -2.2298 0.0442418 49
-0.813558 -2.25675 0.123905 47
-1.27706 -2.22904 -0.133245 47
-0.811938 -2.24977 -0.041144 50
-1.27798 -2.22797 -0.310629 49
-0.814545 -2.25824 -0.206582 90
-1.27838 -2.22687 -0.491403 49
-0.809484 -2.24898 -0.373507 52
-1.28257 -2.23059 -0.679604 55
-0.805157 -2.24293 -0.541312 49
-3.22752 -5.60886 1.48356 33
-1.99926 -5.60307 1.58256 14
-3.22847 -5.61276 1.0177 33
-2.02637 -5.64819 1.1586 20
-1.95162 -5.41853 0.701882 1
-1.28211 -2.22974 0.0442855 49
-0.817101 -2.25546 0.123905 47
-1.28344 -2.23114 -0.133507 47
-0.816711 -2.2507 -0.0411877 49
-1.28272 -2.22811 -0.310934 49
-0.817641 -2.25447 -0.206364 50
-1.28349 -2.22676 -0.491879 49
-0.813408 -2.24756 -0.373507 50
-1.29009 -2.23463 -0.681544 55
-0.810323 -2.24625 -0.542435 50
-3.26543 -5.60662 1.48749 35
-2.04401 -5.6383 1.59548 15
-3.26403 -5.60645 1.01966 35
-2.06248 -5.65862 1.16289 24
-1.97826 -5.40358 0.701274 1
-1.29338 -2.22322 0.0442855 49
-0.830616 -2.25584 0.124167 47
-1.29723 -2.22893 -0.13377 49
-0.828953 -2.24888 -0.0412313 49
-1.29937 -2.22994 -0.312151 49
-0.830754 -2.25498 -0.206799 52
-1.29722 -2.22447 -0.492832 49
-0.827708 -2.25023 -0.374682 49
-1.30138 -2.22807 -0.681544 53
-0.823741 -2.24655 -0.543558 50
-3.27546 -5.60359 1.48805 32
-2.05798 -5.64608 1.59871 17
-3.26633 -5.58795 1.01731 15
-2.06898 -5.64579 1.16098 21
-1.98427 -5.3908 0.700057 1
-1.29978 -2.22527 0.0443727 49
-0.83369 -2.25205 0.124036 41
-1.30364 -2.23097 -0.134032 47
-0.83374 -2.24978 -0.0412749 50
-1.30326 -2.22767 -0.312151 49
-0.834688 -2.25353 -0.206799 50
-1.30358 -2.22644 -0.493784 47
-0.831634 -2.24878 -0.374682 49
-1.30649 -2.22787 -0.682191 53
-0.829337 -2.24969 -0.544681 50
-3.2896 -5.55853 1.48075 4
-2.08919 -5.63976 1.6 15
-3.26662 -5.5219 1.00834 1
-2.09595 -5.62798 1.15955 20
-2.00987 -5.37336 0.699144 1
-1.31141 -2.21844 0.0443727 49
-0.848093 -2.25467 0.124429 47
-1.31696 -2.22603 -0.134164 47
-0.848137 -2.25241 -0.0414058 49
-1.31364 -2.21868 -0.311846 49
-0.850361 -2.25831 -0.207669 59
-1.31522 -2.21959 -0.493784 47
-0.845989 -2.25133 -0.375856 49
-1.31814 -2.221 -0.682191 53
-0.843654 -2.25216 -0.546366 50
-3.30054 -5.55487 1.48131 2
-2.09314 -5.62025 1.59548 15
-3.25859 -5.48647 1.00288 1
-2.09473 -5.59176 1.15288 17
-2.01314 -5.35358 0.697014 1
-1.32206 -2.22666 0.0445909 47
-0.852027 -2.25318 0.124429 47
-1.32722 -2.23446 -0.13482 47
-0.851187 -2.24858 -0.0413622 47
-1.32259 -2.22491 -0.313063 47
-0.852547 -2.25216 -0.207234 56
-1.32663 -2.22994 -0.496641 47
-0.851653 -2.25448 -0.376639 47
-1.32859 -2.22884 -0.685424 53
-0.845876 -2.24612 -0.545243 50
-3.3205 -5.52024 1.47682 4
-2.11584 -5.58851 1.58966 15
-3.28695 -5.46664 1.00249 3
-2.12136 -5.57383 1.15145 15
-2.12076 -5.54897 0.724092 21
-1.33628 -2.22399 0.0446782 47
-0.863314 -2.24621 0.124298 47
-1.33891 -2.22748 -0.13482 47
-0.86334 -2.24394 -0.0413622 47
-1.33845 -2.2241 -0.313976 47
-0.863438 -2.24534 -0.207017 49
-1.33741 -2.22063 -0.496165 47
-0.861686 -2.24537 -0.375856 49
-1.34274 -2.22598 -0.686717 52
-0.859749 -2.24607 -0.546366 49
-3.32538 -5.50876 1.47513 14
-2.11959 -5.56901 1.58514 14
-3.22407 -5.34309 0.980633 2
-2.12146 -5.5449 1.14621 15
-2.12414 -5.53173 0.722266 21
-1.34274 -2.22593 0.0447654 47
-0.867736 -2.24718 0.124429 45
-1.34666 -2.23155 -0.135214 47
-0.869946 -2.24943 -0.0414931 47
-1.34451 -2.22624 -0.314584 47
-0.869142 -2.24848 -0.207452 49
-1.34382 -2.22249 -0.497117 47
-0.867371 -2.24848 -0.376639 47
-1.34912 -2.22777 -0.68801 52
-0.864146 -2.24699 -0.546928 50
-3.32751 -5.44762 1.46334 14
-2.14254 -5.54469 1.58126 14
-3.40133 -5.57058 1.0259 9
-2.14418 -5.52036 1.14335 15
-2.15578 -5.52747 0.723179 18
-1.35529 -2.22124 0.0448091 47
-0.880397 -2.24493 0.12456 45
-1.35963 -2.2266 -0.135345 47
-0.882229 -2.24733 -0.0415367 49
-1.35744 -2.22129 -0.314889 47
-0.880903 -2.2439 -0.207452 49
-1.3589 -2.22194 -0.498546 47
-0.878236 -2.2416 -0.376248 49
-1.36203 -2.22273 -0.688657 53
-0.876781 -2.2447 -0.547489 49
-3.3179 -5.41066 1.45492 12
-2.14794 -5.52705 1.57739 14
-3.38393 -5.52042 1.0177 12
-2.17883 -5.57798 1.15622 15
-3.40754 -5.5589 0.567384 11
-2.2088 -5.63462 0.737783 23
-1.36217 -2.2229 0.0448963 47
-0.886528 -2.24789 0.124821 45
-1.36482 -2.22635 -0.135476 47
-0.886542 -2.24563 -0.0415367 47
-1.3656 -2.22502 -0.315801 47
-0.886637 -2.24699 -0.207887 47
-1.36316 -2.21932 -0.498546 47
-0.884848 -2.24697 -0.377422 50
-1.36971 -2.22652 -0.690597 53
-0.881975 -2.24529 -0.548051 47
-3.32878 -5.361 1.44649 12
-2.19551 -5.56029 1.59031 14
-3.40559 -5.48675 1.01497 12
-2.23879 -5.64141 1.17195 23
-3.3627 -5.41977 0.554964 1
-2.23657 -5.61298 0.736566 30
-1.37813 -2.22186 0.0450272 47
-0.899601 -2.24538 0.124952 45
-1.37817 -2.22105 -0.135608 47
-0.900531 -2.24545 -0.041624 49
-1.37893 -2.2197 -0.316106 47
-0.900626 -2.24679 -0.208322 50
-1.38034 -2.22025 -0.50045 47
-0.898817 -2.24673 -0.378206 49
-1.38429 -2.22317 -0.69189 53
-0.89411 -2.24048 -0.548051 47
-3.31916 -5.32683 1.43863 12
-2.231 -5.62157 1.60905 15
-3.42074 -5.49188 1.01692 14
-2.24228 -5.62153 1.16861 20
-3.34976 -5.37796 0.55126 1
-2.23986 -5.59563 0.73474 27
-1.38465 -2.2237 0.0451145 47
-0.903127 -2.24396 0.124952 45
-1.386 -2.225 -0.136002 47
-0.903519 -2.24155 -0.0415804 47
-1.38242 -2.21753 -0.316106 47
-0.906398 -2.24984 -0.208756 47
-1.38421 -2.21784 -0.50045 47
-0.903654 -2.24745 -0.378597 49
-1.38817 -2.22076 -0.69189 53
-0.899432 -2.2436 -0.549174 47
-3.32231 -5.27022 1.42796 12
-2.25852 -5.60796 1.6084 15
-3.47052 -5.50731 1.02317 12
-2.26152 -5.58735 1.16384 18
-2.2654 -5.57463 0.733523 26
-1.39856 -2.22089 0.0452017 47
-0.915804 -2.24151 0.125083 45
-1.39991 -2.22218 -0.136264 47
-0.916736 -2.24158 -0.0416676 47
-1.39931 -2.21866 -0.317323 45
-0.91965 -2.24984 -0.209191 49
-1.39935 -2.21703 -0.501879 47
-0.915945 -2.24514 -0.378989 47
-1.40326 -2.21982 -0.69383 53
-0.912995 -2.24338 -0.550297 49
-3.31235 -5.23618 1.4201 12
-2.25836 -5.57938 1.60129 15
-3.49633 -5.52898 1.02824 12
-2.27034 -5.58112 1.16337 18
-3.51811 -5.5634 0.572831 12
-2.26948 -5.55957 0.732002 27
-1.40644 -2.22478 0.0453326 47
-0.92121 -2.2447 0.125345 45
-1.40779 -2.22606 -0.136658 47
-0.922538 -2.2446 -0.0417549 47
-1.40545 -2.22065 -0.317931 45
-0.924517 -2.25054 -0.209409 49
-1.40716 -2.2208 -0.503307 45
-0.920795 -2.24582 -0.37938 47
-1.4162 -2.23164 -0.698356 53
-0.917435 -2.2442 -0.550858 52
-3.3187 -5.18594 1.41112 12
-2.28657 -5.56788 1.60129 15
-3.52922 -5.51684 1.02941 12
-2.29202 -5.55367 1.16003 18
-3.54891 -5.54972 0.573267 11
-2.29476 -5.53844 0.730785 29
-1.41633 -2.21553 0.045289 47
-0.934861 -2.24445 0.125606 44
-1.42174 -2.22311 -0.13692 45
-0.933887 -2.23991 -0.0417549 47
-1.41973 -2.21744 -0.31854 47
-0.935896 -2.24583 -0.209409 49
-1.41971 -2.21571 -0.503783 45
-0.933485 -2.24325 -0.379772 49
-1.42878 -2.22647 -0.699003 52
-0.930102 -2.24161 -0.55142 52
-3.30841 -5.15202 1.40326 12
-2.28893 -5.54601 1.59613 15
-3.54552 -5.52106 1.03136 11
-2.29984 -5.54513 1.15908 18
-3.54917 -5.52885 0.571742 11
-2.30062 -5.52526 0.729568 30
-1.42695 -2.22357 0.0455071 47
-0.938777 -2.24282 0.125606 45
-1.42696 -2.22273 -0.137052 47
-0.940679 -2.24519 -0.0418858 45
-1.42629 -2.21913 -0.319148 45
-0.940772 -2.24649 -0.209626 47
-1.42756 -2.21942 -0.505212 45
-0.938347 -2.2439 -0.380163 49
-1.43529 -2.22803 -0.700296 53
-0.934013 -2.23999 -0.55142 47
-3.31366 -5.09933 1.39371 12
-2.31514 -5.52727 1.59419 15
-3.57572 -5.50449 1.03175 9
-2.32029 -5.51265 1.15479 15
-3.574 -5.50392 0.571088 9
-2.32952 -5.51314 0.729568 23
-1.44266 -2.22235 0.045638 47
-0.952451 -2.24247 0.125868 45
-1.44266 -2.2215 -0.137446 47
-0.954369 -2.24484 -0.041973 47
-1.44059 -2.21579 -0.319757 47
-0.95446 -2.24612 -0.210061 49
-1.4405 -2.21397 -0.505688 44
-0.951043 -2.24123 -0.380555 49
-1.44825 -2.22251 -0.700943 53
-0.947618 -2.23956 -0.552543 49
-3.30436 -5.06759 1.38641 11
-2.32385 -5.52099 1.59354 14
-3.57858 -5.4879 1.0298 9
-2.35376 -5.56511 1.1667 14
-3.57952 -5.49142 0.570434 11
-2.38463 -5.61645 0.743867 27
-1.44381 -2.21565 0.0455508 47
-0.957339 -2.24311 0.125999 47
-1.45063 -2.22526 -0.137839 47
-0.959263 -2.24547 -0.0420167 45
-1.44717 -2.21743 -0.320365 45
-0.958379 -2.24445 -0.210061 47
-1.44839 -2.21762 -0.507117 44
-0.957845 -2.24639 -0.381729 47
-1.45742 -2.22806 -0.703529 52
-0.954372 -2.24463 -0.554227 50
-3.31697 -5.02728 1.38023 9
-2.38207 -5.57762 1.61357 12
-3.6059 -5.46703 1.02941 8
-2.41281 -5.62265 1.18148 20
-3.63839 -5.51834 0.575228 8
-2.41792 -5.61301 0.745084 29
-1.4609 -2.2164 0.0457253 47
-0.972033 -2.24494 0.126391 45
-1.4654 -2.22154 -0.138102 45
-0.971007 -2.24042 -0.0420167 45
-1.46697 -2.22224 -0.32219 47
-0.973466 -2.24609 -0.210714 49
-1.46405 -2.21615 -0.508545 45
-0.969594 -2.24134 -0.381729 49
-1.47173 -2.22443 -0.704822 52
-0.968032 -2.24408 -0.55535 50
-3.3069 -4.99305 1.37237 4
-2.41367 -5.62452 1.62844 14
-3.68226 -5.5616 1.04853 9
-2.41778 -5.60448 1.17862 20
-3.69339 -5.5805 0.582418 11
-2.42181 -5.59511 0.743259 27
-1.46791 -2.21776 0.0458126 45
-0.976941 -2.24553 0.126522 45
-1.47204 -2.22314 -0.138365 45
-0.977897 -2.2456 -0.0421476 45
-1.47085 -2.21968 -0.32219 47
-0.978375 -2.24668 -0.210931 49
-1.47063 -2.21768 -0.509497 45
-0.975464 -2.24418 -0.382512 49
-1.47734 -2.22361 -0.705469 52
-0.972912 -2.24462 -0.555912 50
-2.44407 -5.61138 1.62844 15
-3.72192 -5.55596 1.05126 9
-2.44611 -5.5895 1.17814 18
-3.72076 -5.5563 0.581982 11
-2.44906 -5.57511 0.742346 26
-1.48229 -2.2142 0.0458998 47
-0.989076 -2.24021 0.126522 45
-1.49061 -2.22577 -0.139021 45
-0.99305 -2.24714 -0.0422784 45
-1.4856 -2.21581 -0.322799 45
-0.992129 -2.24608 -0.211366 50
-1.48808 -2.21784 -0.511402 45
-0.989185 -2.24356 -0.383295 47
-1.49166 -2.21985 -0.706762 52
-0.986019 -2.24156 -0.556474 49
-2.45096 -5.60046 1.6265 15
-3.721 -5.53576 1.04853 9
-2.44896 -5.56949 1.1748 17
-3.71933 -5.53327 0.580239 11
-2.44982 -5.55308 0.739912 23
-1.48894 -2.21575 0.0459871 45
-0.994609 -2.24323 0.126784 45
-1.4931 -2.2211 -0.13889 45
-0.99596 -2.24312 -0.0422348 45
-1.49324 -2.21965 -0.323712 45
-0.997053 -2.24663 -0.211583 50
-1.49195 -2.21524 -0.511402 45
-0.99509 -2.24635 -0.384078 47
-1.49823 -2.22125 -0.708056 52
-0.989538 -2.24001 -0.556474 50
-2.47438 -5.57694 1.62327 14
-3.74715 -5.51212 1.04775 8
-2.47712 -5.55702 1.1748 15
-3.74589 -5.51231 0.580021 11
-2.47279 -5.52659 0.738087 23
-1.50295 -2.21232 0.0460743 45
-1.00634 -2.23799 0.126784 45
-1.50713 -2.21764 -0.139152 45
-1.00832 -2.24033 -0.0422784 45
-1.50763 -2.2159 -0.32432 45
-1.01045 -2.2461 -0.212018 49
-1.50729 -2.21374 -0.512831 45
-1.00785 -2.24337 -0.38447 47
-1.51354 -2.21962 -0.709995 52
-1.00522 -2.2437 -0.55872 49
-2.48313 -5.57041 1.62262 14
-3.75955 -5.50965 1.04853 4
-2.4778 -5.53253 1.17052 15
-3.74147 -5.48519 0.577843 9
-2.4865 -5.53132 0.739304 26
-1.51103 -2.21589 0.0462052 45
-1.01332 -2.24306 0.127176 45
-1.51804 -2.22531 -0.139809 45
-1.01531 -2.24541 -0.0424093 45
-1.5157 -2.21941 -0.325233 45
-1.01436 -2.24433 -0.212018 47
-1.51531 -2.21718 -0.514259 45
-1.01277 -2.24386 -0.384861 49
-1.52151 -2.22295 -0.711935 52
-1.00913 -2.24194 -0.55872 49
-2.5033 -5.53488 1.61616 14
-3.77247 -5.46484 1.04385 8
-2.50871 -5.52127 1.17099 18
-3.76402 -5.45462 0.576753 9
-2.52769 -5.54263 0.742651 24
-1.52584 -2.2118 0.0462925 45
-1.02647 -2.23982 0.127307 45
-1.53005 -2.21707 -0.139809 45
-1.02744 -2.23988 -0.0424093 47
-1.53051 -2.21526 -0.325841 45
-1.02959 -2.24561 -0.212671 49
-1.53147 -2.215 -0.515688 45
-1.02655 -2.24302 -0.385644 47
-1.53626 -2.21865 -0.713229 50
-1.02427 -2.2431 -0.560404 50
-2.50897 -5.52171 1.61357 14
-3.8148 -5.50762 1.05322 4
-2.53564 -5.55485 1.17909 15
-3.81325 -5.50536 0.582854 9
-2.57765 -5.62893 0.75482 30
-1.53397 -2.21529 0.0464234 45
-1.03207 -2.24274 0.127569 45
-1.53677 -2.2185 -0.140071 45
-1.03343 -2.24263 -0.0424966 45
-1.53823 -2.21897 -0.326754 45
-1.03559 -2.24834 -0.213106 49
-1.53813 -2.21636 -0.51664 45
-1.03252 -2.24571 -0.386427 47
-1.54427 -2.22192 -0.715168 50
-1.02678 -2.23927 -0.559843 49
-2.56713 -5.57477 1.63296 14
-3.88327 -5.5442 1.06414 9
-2.59458 -5.60879 1.19339 18
-3.87393 -5.53291 0.587865 11
-2.60709 -5.61535 0.75482 27
-1.54947 -2.21364 0.0465543 44
-1.0438 -2.23731 0.127569 45
-1.55266 -2.21655 -0.140465 45
-1.04477 -2.23737 -0.0424966 47
-1.04944 -2.2474 -0.21354 49
-1.55356 -2.21457 -0.518068 45
-1.04426 -2.24028 -0.386427 47
-1.55828 -2.21802 -0.716462 52
-1.04054 -2.23829 -0.560966 50
-2.57484 -5.56589 1.63167 14
-3.89436 -5.53943 1.06453 9
-2.61361 -5.62161 1.1972 18
-3.88215 -5.5241 0.587648 11
-2.60118 -5.57705 0.750256 18
-1.55659 -2.21475 0.0466416 47
-1.04981 -2.24001 0.127831 44
-1.55796 -2.21588 -0.140596 44
-1.05185 -2.24234 -0.0426275 45
-1.05336 -2.24556 -0.21354 45
-1.56025 -2.21587 -0.519021 47
-1.05234 -2.2474 -0.387993 45
-1.56811 -2.22292 -0.719048 50
-1.04444 -2.23647 -0.560966 49
-3.35423 -4.71532 1.32577 3
-2.63256 -5.61094 1.64911 14
-3.92427 -5.51828 1.06453 9
-2.62838 -5.57676 1.19053 15
-3.91342 -5.50504 0.587865 11
-2.61437 -5.52699 0.745389 15
-1.57251 -2.21268 0.0467724 45
-1.06405 -2.23881 0.128092 44
-1.0661 -2.24113 -0.0427148 45
-1.06724 -2.24452 -0.213975 47
-1.57365 -2.20939 -0.519497 45
-1.06515 -2.24409 -0.388385 47
-1.58113 -2.21664 -0.719695 50
-1.05757 -2.23299 -0.561527 49
-3.38004 -4.73582 1.33307 4
-2.62488 -5.56918 1.63813 14
-3.92002 -5.49402 1.06102 8
-2.62343 -5.5411 1.18386 14
-3.90566 -5.47388 0.585251 9
-2.61773 -5.51167 0.743867 20
-1.07078 -2.2439 0.128485 44
-1.07216 -2.24378 -0.042802 47
-1.07222 -2.2449 -0.214193 45
-1.58321 -2.21463 -0.521402 45
-1.06907 -2.24223 -0.388385 47
-1.58499 -2.21388 -0.719695 50
-1.06316 -2.23573 -0.56265 49
-3.449 -4.77929 1.35047 9
-2.65199 -5.55364 1.63748 14
-3.94729 -5.47142 1.06063 4
-2.6578 -5.54103 1.18672 15
-3.92457 -5.44192 0.583943 9
-2.64763 -5.50012 0.744172 21
-1.08359 -2.24051 0.128616 44
-1.08459 -2.24058 -0.0428457 47
-1.08504 -2.2415 -0.21441 45
-1.084 -2.24328 -0.38956 47
-1.60326 -2.21561 -0.722928 50
-1.0759 -2.23233 -0.563212 49
-2.64813 -5.52069 1.62908 14
-2.65354 -5.50496 1.18005 15
-2.65722 -5.49549 0.744172 23
-1.0875 -2.23862 0.128616 44
-1.08958 -2.24093 -0.0428893 47
-1.09221 -2.24633 -0.215063 47
-1.08791 -2.24138 -0.38956 49
-1.61035 -2.21643 -0.724221 50
-1.08085 -2.23264 -0.563773 49
-2.67163 -5.49324 1.6252 14
-2.68771 -5.50202 1.18243 17
-2.69564 -5.49886 0.746606 27
-1.0996 -2.2327 0.128616 44
-1.10389 -2.2395 -0.0429765 45
-1.10395 -2.24058 -0.215063 47
-1.10289 -2.24231 -0.390734 47
-1.62623 -2.2138 -0.726161 50
-1.09613 -2.23333 -0.565458 49
-2.69074 -5.50811 1.63102 15
-2.69731 -5.49732 1.18243 17
-2.6999 -5.48572 0.745389 24
-1.10751 -2.23993 0.129139 44
-1.16465 -1.5855 -0.101607 12
-1.1089 -2.23981 -0.0430202 45
-1.11006 -2.24312 -0.215498 49
-1.10789 -2.2426 -0.391126 47
-1.63583 -2.21873 -0.728748 49
-1.10178 -2.23598 -0.566581 49
-3.31481 -4.46088 1.27298 4
-2.71858 -5.49442 1.63102 14
-2.74145 -5.51657 1.18958 20
-3.27983 -4.41701 0.478267 4
-2.74407 -5.5026 0.749648 21
-1.22151 -1.64589 0.0351666 11
-1.11923 -2.2341 0.129139 44
-1.17144 -1.57737 -0.101476 14
-1.12358 -2.24088 -0.0431511 45
-1.12513 -2.24396 -0.21615 49
-1.12072 -2.23898 -0.391517 47
-1.64848 -2.21236 -0.729394 49
-1.11455 -2.23236 -0.567143 47
-3.30365 -4.4297 1.26568 4
-2.74212 -5.51779 1.63942 14
-2.7597 -5.52668 1.19292 18
-3.292 -4.41727 0.478921 3
-2.77364 -5.53776 0.755124 21
-1.2172 -1.63353 0.0349484 11
-1.12648 -2.23884 0.129531 44
-1.16971 -1.56932 -0.101082 14
-1.12861 -2.24115 -0.0431947 47
-1.13128 -2.24645 -0.216585 49
-1.12684 -2.24143 -0.3923 49
-1.65562 -2.21306 -0.730688 49
-1.11845 -2.23041 -0.567143 47
-2.77627 -5.51151 1.64201 14
-2.8063 -5.5472 1.20054 15
-2.84842 -5.61121 0.767294 35
-1.22874 -1.63112 0.0350357 11
-1.14083 -2.23717 0.129793 44
-1.17491 -1.55919 -0.10082 15
-1.14411 -2.24169 -0.0433256 47
-1.14415 -2.24272 -0.216802 49
-1.13856 -2.2355 -0.3923 47
-1.67156 -2.21014 -0.732627 49
-1.1338 -2.23085 -0.568827 47
-2.81963 -5.57348 1.66204 14
-2.85482 -5.6189 1.21722 21
-2.8516 -5.59567 0.765773 27
-1.22857 -1.62499 0.0349484 11
-1.14321 -2.23315 0.129662 44
-1.17311 -1.55117 -0.100426 15
-1.14689 -2.23747 -0.043282 45
-1.15146 -2.24737 -0.217455 49
-1.14358 -2.23571 -0.392692 47
-1.1384 -2.23124 -0.569389 47
-2.87199 -5.60645 1.67625 15
-2.86978 -5.57819 1.2115 18
-2.86723 -5.55419 0.762122 24
-1.2383 -1.62073 0.0349921 11
-1.16062 -2.23822 0.130317 44
-1.17791 -1.54125 -0.100163 15
-1.16049 -2.23607 -0.0433692 44
-1.16282 -2.24151 -0.217455 47
-1.1564 -2.23189 -0.393083 47
-1.1523 -2.22958 -0.570512 47
-2.86191 -5.56276 1.66462 14
-2.87163 -5.5579 1.20817 15
-2.86665 -5.52935 0.759384 23
-1.24417 -1.62254 0.0350793 11
-1.16682 -2.24063 0.130578 44
-1.18212 -1.54117 -0.100295 15
-1.16669 -2.23848 -0.0434565 45
-1.17017 -2.24611 -0.218107 47
-1.15775 -1.50674 -0.361886 17
-1.16256 -2.23425 -0.393866 45
-1.15843 -2.23189 -0.571635 47
-2.88766 -5.54127 1.66268 14
-2.8882 -5.51886 1.20292 15
-2.88404 -5.49228 0.756341 21
-1.25265 -1.616 0.0350793 11
-1.17969 -2.2367 0.130709 44
-1.19197 -1.53672 -0.100426 14
-1.18072 -2.23677 -0.0435437 44
-1.18844 -1.53109 -0.233352 17
-1.18114 -2.23755 -0.21789 45
-1.16261 -1.49679 -0.360934 18
-1.17539 -2.23032 -0.394258 45
-1.17235 -2.23011 -0.572758 47
-2.88838 -5.51909 1.65751 14
-2.89765 -5.51113 1.20245 17
-2.92599 -5.54872 0.76486 21
-1.25575 -1.61359 0.0350793 11
-1.18476 -2.23684 0.13084 44
-1.19925 -1.54055 -0.10082 14
-1.18696 -2.23913 -0.043631 44
-1.18501 -1.52119 -0.232135 15
-1.18854 -2.24209 -0.218542 45
-1.15615 -1.48315 -0.358077 18
-1.18044 -2.23045 -0.394649 45
-1.17624 -2.22806 -0.572758 47
-2.92272 -5.51192 1.6601 14
-3.03473 -5.69959 1.24725 14
-1.72468 -2.19235 0.240986 12
-3.0342 -5.67951 0.785244 15
-1.27191 -1.61681 0.0352975 11
-1.19802 -2.2326 0.130971 44
-1.21039 -1.53817 -0.101082 14
-1.19906 -2.23267 -0.043631 45
-1.19783 -1.5206 -0.233048 14
-1.20143 -2.23803 -0.218759 47
-1.15808 -1.46916 -0.356172 18
-1.19597 -2.23057 -0.395824 45
-1.19172 -2.22812 -0.574442 45
-3.04227 -5.71367 1.72278 20
-3.03312 -5.67263 1.24248 15
-1.73314 -2.1952 0.241639 12
-3.0195 -5.62827 0.778855 15
-1.27473 -1.61459 0.0352975 11
-1.20664 -2.23931 0.131494 44
-1.21772 -1.54193 -0.101476 14
-1.20413 -2.23278 -0.0436746 44
-1.20048 -1.5185 -0.233048 14
-1.20534 -2.23593 -0.218759 47
-1.15759 -1.46329 -0.35522 17
-1.2022 -2.23283 -0.396607 44
-1.19446 -2.22389 -0.573881 44
-3.04926 -5.65513 1.70986 14
-3.04411 -5.62213 1.23486 18
-3.05012 -5.61456 0.779159 35
-1.29565 -1.62351 0.0356465 11
-1.21835 -2.23296 0.131494 44
-1.23046 -1.54138 -0.10187 14
-1.21819 -2.23083 -0.0437619 44
-1.21152 -1.51607 -0.233657 14
-1.21822 -2.23178 -0.218977 45
-1.1591 -1.44955 -0.353315 15
-1.21466 -2.22888 -0.396998 45
-1.21072 -2.22617 -0.576127 45
-3.04649 -5.62643 1.70275 24
-3.05743 -5.62328 1.23629 35
-3.0613 -5.61412 0.779768 35
-1.30318 -1.6271 0.0357774 11
-1.22305 -2.23323 0.131625 44
-1.23627 -1.54312 -0.102132 14
-1.22448 -2.23309 -0.0438492 44
-1.2139 -1.51417 -0.233657 15
-1.2245 -2.23402 -0.219412 44
-1.15548 -1.43987 -0.35141 15
-1.22091 -2.2311 -0.397781 44
-1.21538 -2.22641 -0.576689 45
-3.07957 -5.61941 1.70533 32
-3.09057 -5.61634 1.23819 36
-3.08946 -5.59584 0.779464 21
-1.3114 -1.62048 0.0357774 12
-1.23593 -2.22899 0.131756 44
-1.25192 -1.54654 -0.102789 14
-1.23819 -2.23124 -0.0439364 44
-1.2265 -1.51357 -0.234569 14
-1.2382 -2.23215 -0.219847 44
-1.15347 -1.42258 -0.348553 15
-1.23496 -2.229 -0.398564 44
-1.22937 -2.22428 -0.577812 45
-3.09053 -5.61615 1.70598 30
-3.10156 -5.61308 1.23867 21
-3.11244 -5.61433 0.78281 33
-1.32368 -1.62983 0.0360392 12
-1.23982 -2.22683 0.131756 44
-1.2625 -1.55404 -0.103445 14
-1.24208 -2.22908 -0.0439364 44
-1.23697 -1.52105 -0.23609 14
-1.2433 -2.23217 -0.220064 44
-1.1513 -1.41485 -0.347125 15
-1.24124 -2.23116 -0.399347 44
-1.23678 -2.22853 -0.579496 45
-3.1244 -5.60568 1.70792 27
-3.14026 -5.61122 1.242 32
-3.14762 -5.60606 0.784027 33
-1.33407 -1.62457 0.0360828 12
-1.25674 -2.22879 0.132279 44
-1.27882 -1.55683 -0.104102 14
-1.25657 -2.22668 -0.0440237 44
-1.24361 -1.51242 -0.235786 14
-1.25658 -2.22758 -0.220282 44
-1.15894 -1.4086 -0.347125 15
-1.25532 -2.22894 -0.40013 44
-1.25001 -2.22393 -0.580058 45
-3.14242 -5.61497 1.71244 32
-3.15605 -5.61643 1.24439 32
-3.15764 -5.60327 0.784331 33
-1.34009 -1.6261 0.0361701 12
-1.26024 -2.22682 0.132279 44
-1.2863 -1.56037 -0.104495 14
-1.26291 -2.22884 -0.044111 44
-1.25072 -1.5162 -0.236699 14
-1.26169 -2.22755 -0.220499 44
-1.1567 -1.4009 -0.345696 14
-1.26285 -2.2332 -0.401305 44
-1.25589 -2.22621 -0.581181 45
-3.17674 -5.60951 1.71567 32
-3.19292 -5.61532 1.24772 32
-3.19921 -5.60823 0.787374 32
-1.3579 -1.63081 0.0364319 12
-1.27559 -2.22669 0.132672 44
-1.30085 -1.56128 -0.105021 14
-1.27665 -2.22676 -0.0441982 44
-1.26342 -1.51535 -0.237612 14
-1.2795 -2.23173 -0.221586 44
-1.15748 -1.3875 -0.343792 14
-1.27452 -2.22656 -0.401305 44
-1.84689 -2.2095 -0.761726 11
-1.26994 -2.22384 -0.582304 45
-4.55744 -5.44703 1.62899 12
-3.1913 -5.61236 1.71826 32
-4.56607 -5.45927 1.11916 11
-3.20856 -5.61771 1.24963 32
-3.21023 -5.60479 0.787678 32
-1.36424 -1.63204 0.0365192 12
-1.28196 -2.2288 0.132933 44
-1.30518 -1.56092 -0.105152 14
-1.28302 -2.22887 -0.0442855 44
-1.27562 -1.52455 -0.239437 14
-1.2834 -2.22949 -0.221586 44
-1.15517 -1.37983 -0.342363 14
-1.28209 -2.23076 -0.40248 44
-1.84802 -2.20225 -0.760432 11
-1.27744 -2.22797 -0.583988 45
-4.6309 -5.47436 1.64471 9
-3.22884 -5.60757 1.72214 29
-4.65615 -5.50612 1.13399 12
-3.24897 -5.61997 1.25392 33
-4.65625 -5.50818 0.627957 14
-3.24797 -5.60022 0.789503 32
-1.37761 -1.6306 0.0366501 12
-1.2965 -2.22615 0.133195 44
-1.31333 -1.55407 -0.105152 14
-1.29757 -2.22622 -0.0443727 44
-1.29187 -1.52709 -0.240958 14
-1.29755 -2.22705 -0.222021 44
-1.16262 -1.37356 -0.342363 12
-1.29622 -2.22829 -0.403263 44
-1.86734 -2.20175 -0.763665 9
-1.29192 -2.22524 -0.585111 45
-4.68207 -5.51723 1.65987 11
-3.24465 -5.61238 1.72537 29
-4.67598 -5.51198 1.13672 12
-3.26123 -5.61853 1.25487 32
-4.67553 -5.51143 0.629264 14
-3.25925 -5.59941 0.790112 24
-1.39016 -1.63962 0.0369118 12
-1.30125 -2.22626 0.133326 44
-1.32897 -1.56699 -0.106202 14
-1.30523 -2.23043 -0.0445036 44
-1.29748 -1.52884 -0.241567 14
-1.3052 -2.23124 -0.222674 44
-1.15866 -1.36406 -0.340459 14
-1.30011 -2.22602 -0.403263 44
-1.86492 -2.19113 -0.761079 8
-1.29541 -2.22321 -0.585111 44
-4.71248 -5.49448 1.66044 11
-3.28154 -5.61049 1.72989 29
-4.70638 -5.4893 1.13711 14
-3.29583 -5.61254 1.25726 12
-4.68391 -5.46501 0.62665 12
-3.26588 -5.54376 0.784636 2
-1.4017 -1.63636 0.0369991 12
-1.31669 -2.22587 0.133718 44
-1.33878 -1.56191 -0.106333 14
-1.31651 -2.22379 -0.0445036 42
-1.32002 -1.53897 -0.244305 14
-1.31686 -2.22438 -0.222674 44
-1.16075 -1.35259 -0.33903 14
-1.31551 -2.22557 -0.404437 44
-1.88071 -2.18716 -0.763019 9
-1.31073 -2.2227 -0.586796 44
-4.72683 -5.49179 1.66212 11
-3.28034 -5.586 1.72407 8
-4.70629 -5.46985 1.13477 12
-3.30287 -5.59986 1.25583 1
-4.69669 -5.4606 0.627086 12
-3.26546 -5.52096 0.782202 1
-1.4081 -1.63746 0.0370864 12
-1.32693 -2.23432 0.134373 45
-1.34803 -1.56714 -0.106858 14
-1.32548 -2.2301 -0.0446782 44
-1.32756 -1.5423 -0.245218 14
-1.32582 -2.23065 -0.223543 44
-1.1599 -1.34685 -0.338078 12
-1.3219 -2.22752 -0.40522 44
-1.88964 -2.18902 -0.764959 9
-1.31708 -2.22461 -0.587919 44
-4.74847 -5.45695 1.65931 11
-3.29572 -5.54325 1.71632 1
-4.75203 -5.46293 1.13867 11
-3.3334 -5.5846 1.2563 1
-4.72943 -5.43887 0.627521 12
-3.27109 -5.46274 0.776421 2
-1.41993 -1.63383 0.0371736 12
-1.34028 -2.22925 0.134503 44
-1.36113 -1.56571 -0.107252 15
-1.34009 -2.22718 -0.0447654 42
-1.34078 -1.54071 -0.24613 14
-1.33876 -2.22581 -0.223761 44
-1.16233 -1.335 -0.336649 14
-1.33735 -2.22692 -0.406395 44
-1.90426 -2.18274 -0.766252 11
-1.3316 -2.22163 -0.589042 44
-4.76505 -5.45865 1.66212 9
-3.30786 -5.54164 1.71761 2
-4.75898 -5.4536 1.13828 11
-3.3381 -5.57035 1.2544 3
-4.74383 -5.43623 0.628175 12
-3.30265 -5.4959 0.781897 3
-1.42607 -1.63512 0.0372609 12
-1.34507 -2.22928 0.134634 44
-1.37043 -1.57085 -0.107777 14
-1.34527 -2.22698 -0.0448091 42
-1.353 -1.54981 -0.247956 14
-1.34778 -2.23201 -0.224631 42
-1.34504 -2.23094 -0.407569 42
-1.90647 -2.17759 -0.765605 11
-1.33634 -2.22163 -0.589604 44
-4.79357 -5.43363 1.66212 8
-3.33587 -5.52483 1.71761 14
-4.78257 -5.42305 1.13711 9
-3.38658 -5.58697 1.26202 2
-4.78941 -5.4327 0.630572 8
-3.38417 -5.5655 0.794371 11
-1.43929 -1.6335 0.0373918 12
-1.36061 -2.22861 0.135027 42
-1.38359 -1.56927 -0.108171 14
-1.36042 -2.22655 -0.0449399 42
-1.36274 -1.54457 -0.24826 14
-1.36203 -2.22918 -0.225066 42
-1.35799 -2.22597 -0.407961 42
-1.92227 -2.17334 -0.767545 12
-1.34921 -2.21668 -0.590165 44
-4.80627 -5.4289 1.66324 4
-3.323 -5.4818 1.70598 14
-4.81985 -5.44613 1.14375 4
-3.40367 -5.59095 1.2644 11
-4.83354 -5.4635 0.635147 8
-3.38484 -5.54475 0.792242 12
-1.44905 -1.63822 0.0375663 12
-1.3671 -2.23049 0.135288 42
-1.3913 -1.57245 -0.108565 14
-1.36691 -2.22844 -0.0450272 42
-1.36872 -1.5459 -0.248869 14
-1.36852 -2.23105 -0.2255 42
-1.36316 -2.22571 -0.408352 42
-1.92644 -2.16965 -0.767545 11
-1.35561 -2.21849 -0.591288 44
-4.88433 -5.45727 1.68009 3
-3.34378 -5.44933 1.70146 12
-4.93818 -5.51933 1.16482 8
-3.40976 -5.53542 1.25583 11
-4.92116 -5.50223 0.642774 9
-3.40046 -5.50313 0.788895 12
-1.45928 -1.63247 0.0376099 12
-1.38046 -2.22518 0.135419 41
-1.40451 -1.57073 -0.108959 14
-1.38026 -2.22313 -0.0450708 42
-1.38369 -1.54586 -0.250086 14
-1.38149 -2.22597 -0.225718 42
-1.37739 -2.22274 -0.409135 42
-1.93939 -2.16133 -0.768192 11
-1.37271 -2.21942 -0.593534 45
-4.9808 -5.54746 1.71041 12
-3.32925 -5.4044 1.68918 12
-4.97489 -5.5428 1.17145 11
-3.41297 -5.51902 1.25344 12
-4.97568 -5.54366 0.648657 11
-3.40388 -5.48934 0.787678 12
-1.46212 -1.62992 0.0376099 12
-1.38659 -2.22726 0.135681 41
-1.40725 -1.56827 -0.108959 14
-1.38678 -2.22497 -0.0451581 41
-1.38944 -1.54738 -0.250694 14
-1.388 -2.22779 -0.226153 42
-1.38516 -2.22663 -0.41031 42
-1.95286 -2.1687 -0.772072 9
-1.37491 -2.21519 -0.592973 44
-5.02288 -5.53573 1.7149 11
-3.33488 -5.35262 1.67819 11
-5.01214 -5.52582 1.1734 11
-3.44216 -5.50376 1.25392 12
-5.01873 -5.53501 0.650618 11
-3.43521 -5.47565 0.788287 12
-1.47539 -1.62805 0.0377408 12
-1.39956 -2.22208 0.135812 36
-1.42383 -1.57013 -0.109615 14
-1.40068 -2.22216 -0.0452454 41
-1.40586 -1.54926 -0.252215 14
-1.40229 -2.22471 -0.226588 42
-1.39943 -2.22353 -0.411093 42
-1.97031 -2.16593 -0.774658 8
-1.39166 -2.21622 -0.595219 44
-5.04237 -5.53776 1.71827 12
-3.32119 -5.30991 1.66656 11
-5.04006 -5.53715 1.1777 9
-3.51661 -5.59902 1.27727 11
-5.03677 -5.53545 0.651707 11
-3.51741 -5.58518 0.80502 12
-1.48525 -1.63261 0.0379153 12
-1.40609 -2.22386 0.136073 36
-1.42993 -1.57133 -0.109878 14
-1.40855 -2.22605 -0.0453763 41
-1.4075 -2.22436 -0.226805 41
-1.40725 -2.22736 -0.412268 42
-1.97447 -2.16214 -0.774658 3
-1.39552 -2.21379 -0.595219 44
-5.07886 -5.51757 1.72052 11
-3.33568 -5.26941 1.65945 11
-5.08667 -5.52797 1.1816 9
-3.54456 -5.57846 1.2768 11
-5.08519 -5.52828 0.654104 11
-3.54491 -5.56188 0.804411 12
-1.49547 -1.62665 0.037959 12
-1.42079 -2.22043 0.136335 33
-1.44829 -1.57484 -0.110665 14
-1.42058 -2.2184 -0.0453763 41
-1.42449 -2.22536 -0.227675 42
-1.42155 -2.22412 -0.413051 42
-1.99723 -2.16419 -0.779185 3
-1.41271 -2.21443 -0.597465 44
-5.11562 -5.54001 1.73007 9
-3.32029 -5.22483 1.64718 11
-5.11378 -5.53993 1.18589 11
-3.5477 -5.56191 1.27441 9
-5.11004 -5.53586 0.656065 11
-3.54429 -5.54167 0.802282 9
-1.5034 -1.62955 0.0380899 12
-1.42696 -2.2224 0.136597 30
-1.44595 -1.56681 -0.110272 14
-1.42849 -2.22223 -0.0455071 42
-1.42971 -2.22497 -0.227892 42
-1.42676 -2.22372 -0.413442 42
-2.00921 -2.16956 -0.782418 2
-1.42011 -2.21837 -0.59915 44
-5.16118 -5.53095 1.73568 9
-3.33235 -5.1856 1.64007 11
-5.15787 -5.52932 1.1894 11
-3.57315 -5.53976 1.27346 11
-5.16008 -5.5336 0.658897 12
-3.57461 -5.52512 0.802586 9
-1.51674 -1.6274 0.0382208 12
-1.44265 -2.22119 0.136989 29
-1.46436 -1.57016 -0.111059 14
-1.43972 -2.21497 -0.0455071 41
-1.4454 -2.22373 -0.228545 42
-1.43972 -2.21829 -0.413834 42
-2.03172 -2.1717 -0.786944 2
-1.43567 -2.21705 -0.600834 44
-5.18748 -5.53971 1.7413 11
-3.31656 -5.1412 1.62779 11
-5.1844 -5.53834 1.19331 9
-3.57178 -5.51434 1.26917 4
-5.18505 -5.54095 0.660858 4
-3.57074 -5.49805 0.799543 9
-1.51986 -1.62448 0.0382208 12
-1.44652 -2.21867 0.136989 26
-1.45856 -1.5585 -0.110403 14
-1.44903 -2.22084 -0.0456817 41
-1.45335 -2.22747 -0.229197 42
-1.44493 -2.21785 -0.414225 42
-2.04416 -2.17659 -0.790177 2
-1.43821 -2.21249 -0.600273 42
-5.19896 -5.49211 1.73512 1
-3.3285 -5.0989 1.62004 11
-5.25842 -5.55683 1.20345 1
-3.59389 -5.48529 1.26679 4
-5.1927 -5.4893 0.658026 9
-3.60493 -5.48758 0.80076 8
-1.46125 -2.21498 0.137251 23
-1.46652 -2.22132 -0.0458562 42
-1.46636 -2.22191 -0.229415 42
-1.46195 -2.21851 -0.415791 42
-2.0522 -2.16236 -0.788884 2
-1.45245 -2.20901 -0.601396 42
-5.22939 -5.5069 1.74242 8
-3.31492 -5.05872 1.60905 11
-5.21613 -5.49485 1.19174 9
-3.61019 -5.48927 1.26917 4
-5.18759 -5.46669 0.656283 9
-3.67999 -5.58076 0.815364 8
-1.4661 -2.21477 0.137382 20
-1.47138 -2.2211 -0.0458998 42
-1.47122 -2.22168 -0.229632 42
-1.46717 -2.21802 -0.416183 42
-1.46433 -2.21868 -0.604765 44
-5.23189 -5.45399 1.734 9
-3.31962 -5.01224 1.59936 11
-5.22678 -5.45055 1.18784 11
-3.68176 -5.53904 1.2849 4
-3.70957 -5.56413 0.815668 9
-1.48283 -2.21563 0.137905 18
-1.48677 -2.21986 -0.0460307 41
-1.48798 -2.22249 -0.230502 42
-1.18319 -1.23282 -0.324745 14
-1.48112 -2.21467 -0.416966 42
-1.47689 -2.21327 -0.605326 44
-3.30567 -4.97223 1.58837 11
-3.71183 -5.56324 1.29205 4
-3.70825 -5.54114 0.813234 8
-1.4867 -2.21304 0.137905 15
-1.49203 -2.21934 -0.0460743 41
-1.49324 -2.22196 -0.230719 42
-1.17682 -1.22192 -0.322364 14
