# .PCD v0.7 - Point Cloud Data file format
VERSION 0.7
FIELDS x y z intensity
SIZE 4 4 4 4
TYPE F F F F
COUNT 1 1 1 1
WIDTH 1572
HEIGHT 1
VIEWPOINT 0 0 0 1 0 0 0
POINTS 1572
DATA ascii
-0.682304 0.131462 0.0115186 12
-3.04756 0.0526592 0.157924 23
-0.647158 0.124852 -0.0328189 90
-0.636902 0.0150058 -0.0105151 3
-0.784652 0.151956 -0.093706 61
-0.65463 0.0153026 -0.0541462 58
-0.790834 0.153445 -0.149516 55
-0.792509 0.0169935 -0.120196 53
-0.788097 0.153461 -0.205627 52
-0.784816 0.0160955 -0.17295 52
-2.79058 0.547571 0.647441 50
-2.80163 0.549249 0.445636 49
-2.80585 0.549582 0.247087 53
-0.684503 0.133254 0.0115622 12
-3.04996 0.0580217 0.158055 23
-0.64204 0.125017 -0.0325564 90
-0.636874 0.0161174 -0.0105151 4
-0.781951 0.152845 -0.0934018 61
-0.657092 0.0164895 -0.0543637 58
-0.788157 0.154349 -0.14904 55
-0.794947 0.0184189 -0.120587 55
-0.787801 0.154974 -0.205627 52
-0.782351 0.0174262 -0.172389 52
-2.78519 0.562179 0.646879 49
-2.80103 0.564888 0.446026 50
-2.80527 0.565248 0.247304 55
-3.04711 0.0744656 0.157924 23
-0.646271 0.129367 -0.0328189 89
-0.639277 0.019621 -0.0105587 4
-0.783545 0.157567 -0.093706 59
-0.654507 0.0198724 -0.0541462 58
-0.789716 0.1591 -0.149516 53
-0.792367 0.0226641 -0.120196 55
-0.789345 0.159579 -0.206274 53
-0.782245 0.0216588 -0.172389 52
-2.78431 0.566553 0.646879 50
-2.79521 0.568789 0.445246 50
-7.16448 0.166173 1.38498 32
-2.80428 0.570143 0.247304 56
-7.25587 0.178331 0.885643 29
-3.04947 0.0798451 0.158055 24
-0.646044 0.130495 -0.0328189 82
-0.631745 0.0205496 -0.0104278 4
-0.783268 0.158934 -0.093706 59
-0.656961 0.0210764 -0.0543637 59
-0.789437 0.160478 -0.149516 53
-0.797263 0.0241668 -0.120979 56
-0.789065 0.160957 -0.206274 52
-0.779771 0.0229675 -0.171827 52
-2.78369 0.581623 0.647441 50
-6.89092 0.182932 1.83522 1
-2.79229 0.582929 0.445246 50
-7.15619 0.20223 1.38355 30
-2.80624 0.585349 0.24774 61
-7.25487 0.215054 0.885643 30
-3.04404 0.0951306 0.157793 23
-0.645375 0.133763 -0.0328189 80
-0.629135 0.0236718 -0.0103842 4
-0.780025 0.162386 -0.0934018 59
-0.651867 0.0242526 -0.0539288 59
-0.783811 0.163461 -0.148564 53
-0.785878 0.16445 -0.205627 52
-0.779644 0.026914 -0.171827 52
-2.78277 0.585995 0.647441 50
-6.92681 0.195958 1.84491 1
-2.78885 0.587292 0.444856 53
-7.16073 0.214864 1.38451 30
-2.80521 0.590246 0.24774 77
-7.26193 0.227945 0.886556 30
-0.680155 0.142163 0.0115186 4
-3.04636 0.100522 0.157924 23
-0.640256 0.133857 -0.0325564 73
-0.631591 0.0248492 -0.0104278 4
-0.784596 0.164776 -0.0940102 59
-0.651824 0.0253903 -0.0539288 64
-0.785925 0.165338 -0.14904 55
-0.790313 0.166827 -0.20692 52
-0.782031 0.0283478 -0.172389 52
-2.7748 0.600011 0.646318 52
-6.92569 0.232224 1.84491 1
-2.78815 0.602409 0.445246 53
-7.16196 0.252439 1.38498 30
-2.80208 0.604926 0.24774 90
-7.27055 0.266321 0.887773 33
-0.681844 0.146251 0.0115622 4
-3.04829 0.116563 0.158055 24
-0.634642 0.136261 -0.0322938 65
-0.628954 0.0280634 -0.0103842 4
-0.778873 0.167828 -0.0934018 59
-0.651677 0.0289166 -0.0539288 65
-0.792243 0.171017 -0.150468 55
-0.78707 0.170447 -0.206274 50
-0.777003 0.0322703 -0.171266 53
-2.77375 0.604853 0.646318 50
-6.92044 0.244144 1.84362 1
-2.78468 0.606747 0.444856 38
-7.15656 0.26601 1.38403 30
-2.79859 0.609285 0.247522 82
-7.26512 0.278823 0.887165 33
-0.676678 0.146493 0.011475 4
-3.0406 0.121595 0.157662 24
-0.631965 0.136835 -0.0321625 65
-0.628904 0.0291611 -0.0103842 8
-0.783426 0.17025 -0.0940102 59
-0.651626 0.030054 -0.0539288 67
-0.787149 0.171347 -0.149516 53
-0.799321 0.0352508 -0.12137 58
-0.786741 0.171958 -0.206274 52
-0.77938 0.0337165 -0.171827 53
-2.77281 0.620384 0.646879 50
-6.92626 0.281873 1.84556 1
-2.77895 0.621265 0.444465 53
-7.15752 0.30358 1.38451 32
-2.79282 0.623873 0.247304 59
-7.25359 0.3177 0.885948 35
-0.673463 0.149487 0.0114313 3
-3.03989 0.138044 0.157662 23
-0.626368 0.139049 -0.0319 61
-0.623743 0.0323426 -0.0102969 8
-0.782494 0.174486 -0.0940102 59
-0.648971 0.033356 -0.0537113 70
-0.786211 0.175603 -0.149516 53
-0.796659 0.0393287 -0.120979 58
-0.78583 0.176075 -0.206274 50
-0.774318 0.0377263 -0.170704 53
-2.7647 0.623128 0.645195 50
-6.92093 0.29376 1.84427 1
-2.77797 0.625629 0.444465 50
-7.15943 0.316178 1.38498 32
-2.78687 0.62765 0.246869 55
-7.25556 0.329204 0.886252 32
-3.04217 0.142933 0.157793 24
-0.630994 0.141243 -0.0321625 61
-0.626182 0.0335459 -0.0103405 8
-0.787059 0.176811 -0.0946187 58
-0.648912 0.0344886 -0.0537113 73
-0.788296 0.177519 -0.149992 53
-0.794122 0.0406079 -0.120587 58
-0.785522 0.177446 -0.206274 52
-0.774258 0.0389425 -0.170704 53
-2.76378 0.638145 0.645756 50
-6.92418 0.329012 1.84556 1
-2.77706 0.640722 0.444856 52
-7.15774 0.352411 1.38498 33
-2.79336 0.64399 0.24774 55
-7.25126 0.367065 0.885948 35
-0.630246 0.144545 -0.0321625 61
-0.623508 0.0365875 -0.0102969 8
-0.790957 0.182051 -0.0952272 58
-0.65121 0.0380127 -0.0539288 76
-0.789778 0.182062 -0.150468 53
-0.796365 0.0448894 -0.120979 58
-0.784613 0.18142 -0.206274 50
-0.77161 0.0428761 -0.170143 52
-2.76266 0.642968 0.645756 52
-6.92118 0.340979 1.84491 1
-2.77354 0.645008 0.444465 55
-7.15705 0.366152 1.38498 35
-2.78738 0.647735 0.247304 65
-7.24813 0.379593 0.885643 33
-0.632424 0.146212 -0.0322938 61
-0.625939 0.0378074 -0.0103405 8
-0.785805 0.182301 -0.0946187 58
-0.648655 0.039018 -0.0537113 77
-0.782291 0.181761 -0.14904 53
-0.793819 0.0461509 -0.120587 58
-0.784264 0.182926 -0.206274 52
-0.771534 0.0442228 -0.170143 52
-2.75677 0.657339 0.645195 52
-6.91441 0.378161 1.84362 1
-2.7652 0.658857 0.443685 47
-7.15258 0.403485 1.38451 35
-2.78142 0.662229 0.247087 90
-7.2534 0.419228 0.886556 33
-0.629221 0.148941 -0.0321625 61
-0.628221 0.0413387 -0.0103842 8
-0.787221 0.187128 -0.094923 56
-0.648442 0.0424138 -0.0537113 79
-0.786069 0.187136 -0.149992 53
-0.793558 0.0504452 -0.120587 58
-0.790339 0.188725 -0.208214 52
-0.771284 0.0483965 -0.170143 53
-2.7581 0.662239 0.645756 52
-6.91616 0.390362 1.84427 1
-2.76645 0.66426 0.444075 42
-7.14942 0.415827 1.38403 35
-2.7851 0.668246 0.247522 115
-7.2477 0.431595 0.885948 33
-0.636242 0.151793 -0.0325564 61
-0.623158 0.042136 -0.0102969 8
-0.786893 0.188502 -0.094923 58
-0.648367 0.0435454 -0.0537113 83
-0.788126 0.189084 -0.150468 53
-0.798399 0.0521221 -0.12137 58
-0.790008 0.190104 -0.208214 52
-0.771198 0.0497426 -0.170143 53
-2.74975 0.675986 0.644633 42
-6.90919 0.426276 1.84298 1
-2.76773 0.679917 0.444856 55
-7.15204 0.453563 1.38498 35
-2.78156 0.68282 0.247522 137
-7.24782 0.469696 0.886252 33
-0.633015 0.154525 -0.0324251 59
-0.627917 0.0457235 -0.0103842 8
-0.785895 0.192619 -0.094923 58
-0.645645 0.0467781 -0.0534938 86
-0.782361 0.19203 -0.149516 53
-0.800579 0.0564607 -0.121762 58
-0.791346 0.194819 -0.20886 50
-0.770927 0.0537799 -0.170143 53
-2.74868 0.680305 0.644633 42
-6.91085 0.438485 1.84362 1
-2.76174 0.683558 0.444075 56
-7.14879 0.465887 1.38451 35
-2.77795 0.687075 0.247304 171
-7.24946 0.482509 0.886556 33
-3.04345 0.207474 0.158055 18
-0.625475 0.153825 -0.0320313 59
-0.625342 0.0466523 -0.0103405 8
-0.785558 0.193991 -0.094923 58
-0.643077 0.047739 -0.0532764 90
-0.782024 0.193395 -0.149516 53
-0.795552 0.0575315 -0.120979 58
-0.786319 0.195029 -0.207567 50
-0.770832 0.0551253 -0.170143 53
-2.74024 0.693968 0.64351 38
-6.90846 0.474664 1.84362 1
-2.76292 0.699223 0.444856 56
-7.15115 0.503653 1.38546 35
-2.77431 0.70161 0.247304 154
-7.24436 0.520284 0.886252 35
-3.03983 0.223227 0.157924 20
-0.624661 0.157098 -0.0320313 59
-0.784531 0.198101 -0.094923 56
-0.645303 0.0512844 -0.0534938 90
-0.785758 0.198699 -0.150468 52
-0.790324 0.061206 -0.120196 58
-0.785287 0.199144 -0.207567 52
-0.770533 0.0591606 -0.170143 53
-2.74623 0.700081 0.645195 52
-6.91003 0.486889 1.84427 1
-2.76181 0.703562 0.444856 56
-7.15026 0.516133 1.38546 35
-2.77308 0.706451 0.247304 115
-7.24601 0.531843 0.886556 33
-2.83871 0.72373 0.0505247 1
-3.03948 0.228002 0.157924 18
-0.626804 0.158806 -0.0321625 59
-0.781815 0.198718 -0.0946187 56
-0.645212 0.0524106 -0.0534938 90
-0.780655 0.19885 -0.149516 53
-0.792679 0.0627653 -0.120587 58
-0.782599 0.199912 -0.20692 52
-0.770439 0.0603709 -0.170143 53
-2.73781 0.713219 0.644072 52
-6.91229 0.522218 1.84556 1
-2.7557 0.717389 0.444465 56
-7.14756 0.552317 1.38546 35
-2.77188 0.721106 0.247522 107
-7.24065 0.569582 0.886252 35
-2.83501 0.738089 0.0505247 8
-3.04073 0.244109 0.158055 20
-0.623549 0.161455 -0.0320313 59
-0.787966 0.204693 -0.0955314 55
-0.649895 0.0561807 -0.0539288 90
-0.789135 0.205286 -0.151421 52
-0.794801 0.0671077 -0.120979 58
-0.783913 0.204484 -0.207567 50
-0.770112 0.064404 -0.170143 53
-2.73892 0.718616 0.644633 33
-6.90896 0.534097 1.84491 1
-2.74967 0.720943 0.443685 55
-7.14159 0.565654 1.38451 35
-2.76821 0.725311 0.247304 130
-7.23965 0.582219 0.886252 35
-3.0403 0.249416 0.158055 20
-0.62568 0.163178 -0.0321625 59
-0.787608 0.206068 -0.0955314 55
-0.639866 0.0565125 -0.0530589 90
-0.78403 0.205411 -0.150468 52
-0.792221 0.0682976 -0.120587 58
-0.788188 0.207225 -0.20886 50
-0.772427 0.06594 -0.170704 53
-2.73734 0.734057 0.645195 45
-6.90597 0.57147 1.84491 1
-2.75288 0.737731 0.444856 56
-7.14097 0.603244 1.38498 35
-2.76425 0.740277 0.247304 138
-7.24381 0.622012 0.887165 33
-3.03642 0.265648 0.157924 18
-0.62964 0.167748 -0.0324251 59
-0.784085 0.209681 -0.0952272 55
-0.639561 0.059862 -0.0530589 90
-0.782907 0.20965 -0.150468 52
-0.796773 0.0728648 -0.12137 58
-0.784761 0.210719 -0.208214 50
-0.772059 0.0701183 -0.170704 52
-2.73383 0.73772 0.644633 49
-6.91459 0.584329 1.8475 1
-2.74457 0.740122 0.443685 53
-7.14969 0.616543 1.38689 33
-2.76055 0.744451 0.247087 90
-7.23788 0.632961 0.886556 32
-2.7873 0.752203 0.049783 12
-3.036 0.270418 0.157924 17
-0.624526 0.167543 -0.0321625 59
-0.783755 0.210912 -0.0952272 55
-0.649379 0.0618499 -0.0539288 90
-0.78254 0.211016 -0.150468 52
-0.794185 0.074041 -0.120979 58
-0.784392 0.212088 -0.208214 50
-0.774375 0.0715399 -0.171266 53
-2.73228 0.752672 0.645195 50
-6.9765 0.625093 1.86495 1
-2.73828 0.753825 0.443295 55
-2.75674 0.758414 0.247087 64
-2.77141 0.762978 0.0495648 14
-2.9898 0.282159 0.155569 17
-0.621234 0.170146 -0.0320313 59
-0.785031 0.215674 -0.0955314 52
-0.646567 0.0650182 -0.0537113 90
-0.781462 0.214974 -0.150468 52
-0.793787 0.0781983 -0.120979 58
-0.787962 0.217348 -0.209507 50
-0.77399 0.0755935 -0.171266 53
-2.73096 0.75744 0.645195 50
-2.74885 0.761907 0.445246 56
-2.76261 0.765222 0.24774 58
-2.77476 0.769636 0.0496521 14
-3.00173 0.288552 0.156223 17
-0.625746 0.172567 -0.0322938 59
-0.784654 0.217044 -0.0955314 50
-0.641494 0.0656761 -0.0532764 90
-0.783449 0.216997 -0.150945 50
-0.796107 0.0798151 -0.12137 58
-0.778241 0.216258 -0.20692 47
-0.773857 0.0769442 -0.171266 53
-2.71979 0.77021 0.64351 49
-2.73994 0.775421 0.444465 56
-2.86729 0.285496 0.552849 47
-2.75125 0.778121 0.247087 58
-2.87367 0.290137 0.349876 49
-2.77069 0.784154 0.0496521 17
-2.88833 0.293611 0.150335 53
-0.629638 0.177204 -0.0325564 59
-0.643619 0.0692823 -0.0534938 90
-0.786985 0.222577 -0.151897 50
-0.795678 0.0839824 -0.12137 58
-0.781743 0.221655 -0.208214 47
-0.773429 0.0811301 -0.171266 53
-2.72092 0.775149 0.644072 50
-2.86058 0.284894 0.759937 45
-2.73397 0.77837 0.443685 53
-2.87167 0.290986 0.553802 49
-2.75707 0.784971 0.24774 97
-2.87322 0.29465 0.349876 49
-2.75971 0.786244 0.0494776 24
-2.88539 0.297895 0.150204 56
-0.624526 0.176932 -0.0322938 59
-0.645975 0.0706581 -0.0537113 90
-0.79553 0.085371 -0.12137 58
-0.783676 0.223686 -0.20886 47
-0.768453 0.0818593 -0.170143 52
-2.70981 0.787343 0.642387 50
-2.8591 0.299369 0.759937 47
-2.73223 0.793364 0.444075 52
-2.86528 0.305006 0.552849 49
-2.75545 0.799611 0.247958 172
-2.86917 0.309428 0.349572 49
-2.75809 0.8009 0.0495212 33
-2.88627 0.313264 0.150335 61
-0.630814 0.182184 -0.0326876 58
-0.777179 0.225225 -0.094923 49
-0.643133 0.0736616 -0.0534938 90
-0.792617 0.0892737 -0.120979 58
-0.772859 0.0863927 -0.171266 52
-2.70857 0.791598 0.642387 50
-2.85617 0.304107 0.75929 47
-2.7261 0.796743 0.443295 50
-2.8623 0.309746 0.552373 49
-2.75405 0.804419 0.247958 96
-2.86615 0.314169 0.349268 53
-2.76149 0.807118 0.0496085 42
-2.88075 0.317762 0.150073 76
-0.625703 0.18188 -0.0324251 56
-0.781547 0.227979 -0.0955314 47
-0.645479 0.0750534 -0.0537113 90
-0.790006 0.0903911 -0.120587 58
-0.770285 0.0874818 -0.170704 52
-2.70644 0.807411 0.642949 50
-2.85208 0.319291 0.758644 47
-2.72411 0.812188 0.443685 52
-2.86058 0.325228 0.552373 49
-2.73773 0.815747 0.246869 56
-2.86441 0.329672 0.349268 55
-2.75229 0.820616 0.0495212 50
-2.87899 0.333343 0.150073 90
-0.627102 0.185978 -0.0325564 58
-0.632384 0.0771953 -0.0105151 3
-0.647538 0.0788274 -0.0539288 90
-0.794428 0.0950837 -0.12137 58
-0.7698 0.0916481 -0.170704 52
-2.70983 0.813064 0.644072 49
-2.84912 0.323999 0.757998 47
-2.7252 0.817176 0.444075 56
-2.86001 0.33022 0.552373 50
-2.73391 0.819807 0.246651 55
-2.86389 0.334171 0.349268 61
-2.87846 0.337865 0.150073 101
-0.629167 0.187791 -0.0326876 58
-0.634731 0.0785875 -0.0105587 3
-0.644925 0.0796704 -0.0537113 90
-0.791808 0.0961871 -0.120979 58
-0.769655 0.0928572 -0.170704 53
-2.7102 0.828668 0.645195 49
-2.84265 0.337854 0.756706 47
-2.71852 0.830711 0.443685 55
-2.8583 0.344692 0.552373 52
-2.73211 0.834363 0.246869 55
-2.86457 0.349458 0.349572 71
-2.88161 0.353532 0.150335 100
-0.628176 0.191083 -0.0326876 58
-0.64177 0.0827026 -0.0106896 3
-0.642027 0.082746 -0.0534938 90
-0.793745 0.100627 -0.12137 58
-0.771577 0.0971751 -0.171266 53
-2.70875 0.833397 0.645195 49
-2.84205 0.342815 0.756706 49
-2.71707 0.835455 0.443685 50
-2.8552 0.349884 0.551896 52
-2.73065 0.83913 0.246869 56
-2.86395 0.354457 0.349572 70
-2.87604 0.357952 0.150073 90
-0.627841 0.192179 -0.0326876 58
-0.649067 0.0847391 -0.0108205 3
-0.641882 0.0838664 -0.0534938 90
-0.788666 0.101413 -0.120587 58
-0.773825 0.0988151 -0.171827 52
-2.70885 0.849501 0.646318 49
-2.84016 0.358187 0.756706 49
-2.71251 0.850143 0.443685 49
-2.84846 0.364215 0.550943 50
-2.7332 0.856128 0.247522 90
-2.85707 0.369319 0.348964 61
-2.87406 0.373508 0.150073 67
-0.626826 0.195464 -0.0326876 58
-0.641434 0.0872262 -0.0534938 90
-0.793023 0.106166 -0.12137 58
-0.770862 0.102694 -0.171266 53
-2.70751 0.853755 0.646318 52
-2.83713 0.362841 0.756059 50
-2.71588 0.85589 0.444465 47
-2.84782 0.369186 0.550943 49
-2.72695 0.859398 0.247087 105
-2.85648 0.373807 0.348964 55
-2.86852 0.377379 0.149812 55
-0.626484 0.196558 -0.0326876 58
-0.641281 0.0883456 -0.0534938 90
-0.783042 0.106282 -0.119804 55
-0.773116 0.104215 -0.171827 52
-2.70532 0.868666 0.646879 52
-2.83526 0.377196 0.756059 50
-2.71136 0.870098 0.444465 47
-2.85321 0.384566 0.552373 50
-2.71545 0.870904 0.246433 53
-2.85449 0.388758 0.348964 52
-2.86155 0.391724 0.14955 49
-0.627823 0.2006 -0.0328189 56
-0.640809 0.0917021 -0.0534938 90
-0.787369 0.11104 -0.120587 58
-0.770145 0.107939 -0.171266 52
-2.69917 0.871886 0.645756 52
-2.83459 0.382144 0.756059 50
-2.71219 0.875589 0.444856 47
-2.8476 0.389387 0.551419 49
-2.85135 0.393404 0.348659 49
-2.86334 0.397057 0.149681 49
-0.622721 0.200157 -0.0325564 56
-0.640648 0.0928203 -0.0534938 90
-0.787174 0.112414 -0.120587 58
-0.77237 0.10961 -0.171827 52
-2.69441 0.886477 0.645756 49
-2.83249 0.397475 0.756059 49
-2.70975 0.891023 0.445246 50
-2.84795 0.404632 0.551896 50
-2.84918 0.408826 0.348659 49
-2.85868 0.412191 0.14955 49
-0.626407 0.204978 -0.0328189 58
-0.642619 0.0965253 -0.0537113 90
-0.789019 0.116881 -0.120979 58
-0.771766 0.113787 -0.171827 52
-2.6907 0.889942 0.645195 49
-2.83418 0.402754 0.756706 49
-2.71538 0.897607 0.446416 56
-2.83995 0.408566 0.550466 49
-2.84607 0.412949 0.348355 49
-0.630788 0.207642 -0.0330815 58
-0.647379 0.0983589 -0.0541462 90
-0.791258 0.11861 -0.12137 58
-0.769174 0.114655 -0.171266 52
-2.68139 0.902462 0.644072 47
-2.8321 0.417094 0.756706 49
-2.71065 0.911812 0.446416 56
-2.83785 0.422935 0.550466 49
-2.84633 0.42821 0.348659 49
-2.63111 0.398059 0.137644 90
-0.629729 0.210832 -0.0330815 56
-0.64441 0.101266 -0.0539288 90
-0.788184 0.122387 -0.120979 56
-0.766153 0.118324 -0.170704 52
-2.67997 0.906673 0.644072 47
-2.82181 0.420628 0.754121 47
-2.70437 0.914957 0.445636 50
-2.83468 0.427526 0.54999 49
-2.83821 0.432069 0.347747 49
-0.622267 0.209526 -0.0326876 56
-0.646695 0.102763 -0.0541462 90
-0.787969 0.123762 -0.120979 56
-0.770764 0.120383 -0.171827 52
-2.66581 0.917982 0.641826 47
-2.82196 0.435762 0.754767 47
-2.69488 0.927495 0.444856 47
-2.83483 0.442737 0.550466 49
-2.83346 0.446542 0.347442 47
-2.82066 0.446545 0.147849 45
-0.625882 0.214409 -0.0329502 56
-0.636306 0.104605 -0.0532764 90
-0.779991 0.126743 -0.119804 55
-0.767716 0.124044 -0.171266 52
-2.66436 0.922168 0.641826 49
-2.81642 0.439949 0.753475 47
-2.69092 0.931388 0.444465 47
-2.8292 0.446926 0.549513 50
-2.83023 0.4511 0.347138 49
-2.83713 0.454201 0.148765 45
-0.630224 0.217138 -0.0332127 58
-0.69262 0.114785 -0.0116495 4
-0.641042 0.106495 -0.0537113 90
-0.784647 0.128875 -0.120587 55
-0.762685 0.124628 -0.170143 52
-2.65474 0.93495 0.640703 49
-2.81647 0.455071 0.754121 49
-2.68368 0.944644 0.444075 44
-2.8244 0.461342 0.549036 49
-2.82783 0.465913 0.347138 50
-2.85443 0.472278 0.149812 93
-0.626724 0.219604 -0.0330815 56
-0.689543 0.118006 -0.0116058 4
-0.640476 0.10985 -0.0537113 90
-0.779088 0.132185 -0.119804 55
-0.766831 0.1294 -0.171266 52
-2.65327 0.939119 0.640703 50
-2.80851 0.45883 0.752182 49
-2.67504 0.946851 0.442904 45
-2.82843 0.467062 0.54999 50
-2.82701 0.470847 0.347138 55
-2.84621 0.476035 0.149419 123
-0.631045 0.222367 -0.033344 58
-0.689336 0.119209 -0.0116058 4
-0.64274 0.111375 -0.0539288 90
-0.778856 0.133545 -0.119804 55
-0.771412 0.131527 -0.172389 52
-2.64357 0.951807 0.63958 50
-2.80846 0.473927 0.752828 49
-2.66773 0.960007 0.442514 45
-2.82353 0.481457 0.549513 52
-2.83184 0.486892 0.348051 62
-1.43252 0.514832 0.0259605 8
-2.84122 0.490511 0.149288 105
-0.622788 0.223236 -0.0329502 58
-0.696093 0.124083 -0.0117367 4
-1.43131 0.515519 -0.18224 4
-0.639673 0.114431 -0.0537113 89
-0.78058 0.138036 -0.120196 55
-0.765909 0.13475 -0.171266 52
-2.64648 0.958081 0.640703 50
-2.80524 0.478426 0.752182 49
-2.6614 0.962979 0.441734 47
-2.82502 0.48729 0.54999 52
-2.82854 0.491413 0.347747 70
-1.44093 0.52099 0.026135 4
-2.84282 0.495894 0.149419 104
-0.622397 0.224322 -0.0329502 56
-0.69095 0.124445 -0.0116495 8
-1.43041 0.518017 -0.18224 4
-0.639473 0.115547 -0.0537113 89
-0.780338 0.139398 -0.120196 56
-0.765673 0.136087 -0.171266 52
-2.64354 0.973228 0.641264 49
-2.80023 0.493182 0.751536 49
-2.65384 0.97651 0.441344 49
-2.81034 0.499946 0.547607 49
-2.82829 0.507144 0.348051 70
-1.43818 0.528527 0.026135 4
-2.84746 0.512582 0.149812 95
-0.628241 0.230169 -0.033344 58
-0.697648 0.1295 -0.0117804 8
-1.42526 0.524889 -0.181936 4
-0.641311 0.119331 -0.0539288 88
-0.782003 0.144051 -0.120587 55
-0.767324 0.140652 -0.171827 52
-2.63973 0.976533 0.640703 50
-2.80175 0.498487 0.752182 49
-2.64981 0.980283 0.440953 50
-2.8143 0.50571 0.54856 52
-2.82495 0.511641 0.347747 61
-1.44429 0.533642 0.0262659 4
-2.83674 0.515781 0.149288 59
-0.627839 0.231265 -0.033344 56
-0.699881 0.131162 -0.011824 8
-1.429 0.529103 -0.182544 4
-0.636199 0.119566 -0.0534938 86
-0.77932 0.144979 -0.120196 55
-0.767078 0.141991 -0.171827 52
-2.63897 0.992519 0.641826 50
-2.79435 0.512287 0.75089 50
-2.63771 0.991534 0.439783 52
-2.81403 0.520882 0.549036 52
-2.81492 0.525073 0.346834 55
-1.44148 0.541197 0.0262659 4
-2.82663 0.529261 0.148896 55
-0.631292 0.23631 -0.0336066 56
-0.689354 0.132997 -0.0116495 9
-1.42621 0.536578 -0.182544 4
-0.633116 0.122441 -0.0532764 80
-1.30515 0.49142 -0.263796 3
-0.776148 0.148472 -0.119804 53
-1.0089 0.38032 -0.279342 4
-0.771115 0.146887 -0.17295 50
-2.6374 0.996663 0.641826 50
-2.79582 0.517599 0.751536 50
-2.63615 0.995676 0.439783 52
-2.8107 0.525346 0.54856 50
-2.81409 0.529494 0.346834 50
-1.44754 0.546366 0.0263968 4
-2.82825 0.53416 0.149027 53
-0.628544 0.236527 -0.0334753 58
-0.689121 0.1342 -0.0116495 8
-1.42536 0.538817 -0.182544 4
-0.640245 0.124923 -0.0539288 79
-1.30888 0.495439 -0.264748 4
-0.773461 0.149373 -0.119413 53
-1.00597 0.381222 -0.278696 4
-0.763698 0.146764 -0.171266 50
-2.62533 1.00784 0.640141 50
-2.78842 0.530848 0.750244 49
-2.63551 1.01124 0.440563 52
-2.80801 0.539565 0.54856 52
-1.47457 0.564846 0.135091 4
-2.80884 0.543753 0.34653 49
-1.43776 0.550996 0.0262659 4
-2.82297 0.548489 0.148896 53
-0.622678 0.237913 -0.0332127 58
-0.690888 0.13816 -0.0116931 8
-1.42715 0.548056 -0.183153 4
-0.64205 0.128633 -0.0541462 79
-1.29948 0.49941 -0.26332 3
-0.775093 0.153887 -0.119804 53
-1.00403 0.386309 -0.278696 4
-0.765312 0.151218 -0.171827 52
-2.62147 1.01108 0.63958 50
-2.78986 0.536166 0.75089 49
-2.63144 1.01494 0.440173 53
-2.80706 0.544465 0.54856 50
-1.48288 0.571007 0.135963 8
-2.80789 0.548655 0.34653 50
-1.44379 0.556206 0.0263968 4
-2.822 0.553415 0.148896 53
-0.624591 0.2399 -0.033344 58
-0.680831 0.137454 -0.0115186 8
-1.42388 0.549651 -0.182848 4
-0.636935 0.128802 -0.0537113 79
-1.29632 0.50079 -0.262844 3
-0.777247 0.15571 -0.120196 53
-1.00336 0.38806 -0.278696 3
-0.772223 0.153938 -0.173512 52
-2.62032 1.02749 0.640703 49
-2.78218 0.550324 0.749597 49
-2.62591 1.02917 0.440173 52
-2.79926 0.558692 0.547607 50
-1.47281 0.576293 0.135309 4
-2.80244 0.563354 0.346225 49
-1.43843 0.563097 0.0263531 4
-2.81897 0.568676 0.148896 55
-0.625607 0.244188 -0.0334753 58
-0.682528 0.141627 -0.0115622 4
-1.43012 0.560979 -0.184065 4
-0.636229 0.132247 -0.0537113 74
-1.29816 0.509595 -0.263796 3
-0.778843 0.16026 -0.120587 55
-1.00124 0.393483 -0.278696 3
-0.7666 0.157165 -0.172389 52
-2.6187 1.0316 0.640703 50
-2.78359 0.555647 0.750244 49
-2.62429 1.03329 0.440173 52
-2.80069 0.564057 0.548083 50
-1.47644 0.58069 0.135745 8
-2.80156 0.567756 0.346225 52
-1.44442 0.568358 0.026484 4
-2.81807 0.573103 0.148896 61
-0.632147 0.24803 -0.0338691 58
-0.67983 0.142323 -0.0115186 4
-1.42462 0.561402 -0.183457 4
-0.638438 0.13385 -0.0539288 74
-1.30411 0.514569 -0.265224 3
-0.778562 0.161619 -0.120587 55
-1.00504 0.397011 -0.279989 3
-0.766352 0.158369 -0.172389 52
-2.61326 1.0453 0.640703 50
-2.7831 0.57021 0.75089 49
-2.61884 1.04702 0.440173 52
-2.79299 0.57724 0.54713 49
-1.48042 0.590931 0.136399 4
-2.80098 0.582918 0.34653 55
-1.44385 0.576591 0.0265277 4
-2.81992 0.588863 0.149157 80
-0.626205 0.249479 -0.0336066 58
-1.42857 0.571625 -0.18437 4
-0.637729 0.137191 -0.0539288 74
-1.29922 0.520248 -0.264748 4
-0.772869 0.164694 -0.119804 53
-1.00078 0.401191 -0.279342 4
-0.770285 0.163361 -0.173512 52
-2.61369 1.05077 0.641264 50
-2.77974 0.574581 0.750244 50
-2.61701 1.05159 0.440173 52
-2.79668 0.583596 0.548083 52
-1.47476 0.591655 0.135963 8
-2.80238 0.588311 0.346834 55
-1.44042 0.578428 0.026484 4
-2.81889 0.593784 0.149157 82
-0.632715 0.25337 -0.0340004 58
-1.42757 0.574117 -0.18437 4
-0.637488 0.138304 -0.0539288 70
-1.29375 0.520678 -0.263796 3
-0.774997 0.166547 -0.120196 53
-0.995532 0.4013 -0.278049 4
-0.762842 0.163221 -0.171827 52
-2.60571 1.06397 0.640703 50
-2.77423 0.589115 0.749597 50
-2.609 1.0648 0.439783 52
-2.79359 0.598231 0.548083 52
-1.47845 0.602452 0.136617 8
-2.80401 0.604503 0.347442 58
-1.442 0.587854 0.0265713 4
-2.81564 0.609026 0.149157 90
-0.626758 0.254789 -0.0337378 58
-1.41756 0.579012 -0.183457 4
-0.641625 0.142686 -0.0543637 70
-1.30227 0.532325 -0.266177 4
-0.774115 0.170602 -0.120196 52
-0.991183 0.405589 -0.277403 3
-0.766713 0.168361 -0.17295 52
-2.60629 1.06899 0.641264 50
-2.77319 0.593956 0.749597 49
-2.61189 1.07077 0.440563 52
-2.79014 0.602592 0.547607 52
-1.47279 0.603139 0.136181 8
-2.79578 0.607339 0.34653 55
-1.43635 0.58847 0.026484 4
-2.8098 0.612393 0.148896 68
-0.624004 0.254934 -0.0336066 58
-1.41665 0.581238 -0.183457 4
-0.638941 0.143278 -0.0541462 68
-1.29907 0.533662 -0.265701 3
-0.768989 0.170911 -0.119413 52
-0.990474 0.407319 -0.277403 4
-0.764066 0.169054 -0.172389 50
-2.60291 1.08356 0.641826 50
-2.76543 0.606958 0.748305 49
-2.60625 1.08443 0.440563 50
-2.78945 0.617233 0.548083 50
-1.47432 0.612501 0.136617 8
-2.78772 0.620898 0.345921 52
-1.43335 0.595733 0.026484 4
-2.79924 0.625476 0.148503 55
-0.624964 0.259158 -0.0337378 58
-1.41358 0.588647 -0.183457 4
-0.635751 0.146082 -0.0539288 67
-1.30088 0.542123 -0.266653 4
-0.770494 0.175469 -0.119804 52
-0.983945 0.410461 -0.276109 3
-0.763171 0.173052 -0.172389 50
-2.60326 1.08904 0.642387 50
-2.76673 0.612301 0.748951 49
-2.60207 1.08802 0.440173 52
-2.78586 0.622056 0.547607 50
-1.46865 0.61315 0.136181 4
-2.78179 0.624683 0.345313 49
-1.43451 0.599449 0.0265277 4
-2.79814 0.63036 0.148503 55
-0.624511 0.260249 -0.0337378 58
-1.42171 0.594953 -0.184674 4
-0.642786 0.148824 -0.0545811 65
-1.29541 0.542492 -0.265701 3
-0.765367 0.175738 -0.119021 52
-0.983155 0.41235 -0.276109 3
-0.767624 0.17544 -0.173512 52
-2.59733 1.10311 0.642387 50
-2.76337 0.627262 0.748951 49
-2.60069 1.10402 0.440953 50
-2.78017 0.636091 0.54713 50
-1.47219 0.624009 0.136835 8
-2.7832 0.640831 0.345921 50
-1.43825 0.609886 0.0266585 4
-2.79712 0.646048 0.148634 58
-0.62314 0.263515 -0.0337378 58
-1.4139 0.600692 -0.184065 4
-0.637143 0.151073 -0.0541462 65
-1.30149 0.553343 -0.267605 3
-0.76925 0.180844 -0.119804 52
-0.97432 0.414646 -0.274169 3
-0.761913 0.178509 -0.172389 52
-2.59559 1.10719 0.642387 49
-2.75992 0.631549 0.748305 49
-2.60123 1.10907 0.441344 52
-2.77667 0.640395 0.546653 52
-1.46423 0.623644 0.136181 8
-2.78461 0.645758 0.346225 55
-1.43719 0.612395 0.0266585 8
-2.79611 0.650441 0.148634 62
-0.620383 0.263621 -0.0336066 58
-1.41295 0.602912 -0.184065 4
-0.639305 0.152746 -0.0543637 64
-1.29601 0.553681 -0.266653 3
-0.77134 0.18274 -0.120196 52
-0.973594 0.416346 -0.274169 3
-0.76638 0.180795 -0.173512 50
-2.61882 1.13336 0.649687 41
-2.75434 0.644964 0.747659 50
-2.76861 0.653321 0.5457 50
-1.46105 0.631047 0.136181 8
-2.78602 0.661468 0.346834 64
-1.43636 0.620655 0.0267022 4
-2.79995 0.666796 0.149027 96
-0.623576 0.268852 -0.0338691 58
-1.40978 0.610302 -0.184065 4
-0.638496 0.156092 -0.0543637 64
-1.29544 0.561211 -0.267129 3
-0.770372 0.186777 -0.120196 52
-0.978118 0.424159 -0.276109 4
-0.765423 0.184805 -0.173512 50
-2.87593 1.25074 0.714824 27
-2.75791 0.650871 0.748951 50
-2.76974 0.6592 0.546177 52
-1.47137 0.638563 0.13727 8
-2.78486 0.666329 0.346834 62
-1.42829 0.620418 0.0265713 4
-2.78907 0.669367 0.148503 125
-0.623105 0.26994 -0.0338691 58
-1.40871 0.612762 -0.184065 4
-0.640646 0.157784 -0.0545811 64
-1.28771 0.560526 -0.265701 3
-0.767643 0.18755 -0.119804 52
-0.972877 0.4241 -0.274816 3
-0.76747 0.186702 -0.174073 50
-2.84461 1.25545 0.708647 27
-2.74965 0.664656 0.747659 45
-2.7183 1.19908 0.463977 15
-2.76387 0.673116 0.5457 50
-1.46561 0.645509 0.137052 8
-2.78122 0.681387 0.346834 65
-1.43417 0.631927 0.0267458 4
-2.78783 0.685039 0.148634 122
-0.6194 0.27219 -0.0337378 58
-1.41899 0.6264 -0.185891 4
-0.639811 0.161136 -0.0545811 62
-1.27793 0.564503 -0.264272 4
-0.766617 0.1917 -0.119804 50
-0.975057 0.431148 -0.276109 3
-0.771184 0.192 -0.175197 52
-2.82259 1.25103 0.703594 29
-2.75083 0.670022 0.748305 33
-2.71846 1.20483 0.464367 11
-2.76269 0.677939 0.5457 52
-1.46221 0.647056 0.136835 8
-2.78002 0.68624 0.346834 67
-1.43307 0.634429 0.0267458 4
-2.78421 0.689308 0.148503 119
-0.623488 0.275297 -0.0340004 58
-1.41109 0.625851 -0.184978 4
-0.63711 0.161657 -0.0543637 62
-1.27918 0.56773 -0.264748 3
-0.768679 0.193626 -0.120196 50
-0.972098 0.431865 -0.275463 4
-0.768481 0.192767 -0.174635 50
-2.76469 1.24328 0.690679 24
-2.74729 0.684416 0.748305 49
-2.71436 1.22006 0.464757 12
-2.76624 0.694175 0.54713 52
-1.4588 0.654703 0.136835 8
-2.77639 0.700787 0.346834 68
-1.43656 0.645002 0.0268767 8
-2.77814 0.703268 0.148372 109
-0.624314 0.279582 -0.0341317 58
-1.41232 0.635271 -0.185587 4
-0.633839 0.164384 -0.0541462 59
-1.27172 0.572401 -0.263796 3
-0.765294 0.196914 -0.119804 52
-0.965422 0.43496 -0.274169 4
-0.765098 0.196198 -0.174073 50
-2.74498 1.23959 0.686186 55
-2.74609 0.68921 0.748305 47
-2.7282 1.23144 0.467489 18
-2.76503 0.699002 0.54713 52
-1.46446 0.660326 0.137488 8
-2.77529 0.705147 0.346834 61
-1.42632 0.643389 0.0267022 8
-2.78187 0.708856 0.148634 105
-0.623825 0.280672 -0.0341317 58
-1.41358 0.638512 -0.185891 4
-0.63838 0.166713 -0.0545811 59
-1.28189 0.579687 -0.266177 3
-0.767343 0.198854 -0.120196 50
-0.969059 0.438641 -0.275463 3
-0.767151 0.197993 -0.174635 50
-2.73845 1.25394 0.686186 47
-2.74257 0.7031 0.748305 45
-2.71273 1.24159 0.465928 53
-2.75432 0.71116 0.5457 50
-1.45431 0.664618 0.136835 4
-2.76916 0.719049 0.34653 68
-1.4185 0.648517 0.0266149 4
-2.78295 0.724662 0.148896 96
-0.620078 0.282893 -0.0340004 58
-1.4012 0.641763 -0.184674 4
-0.635087 0.169429 -0.0543637 59
-1.27671 0.585143 -0.265701 4
-0.766292 0.202869 -0.120196 50
-0.971214 0.44556 -0.276756 3
-0.763744 0.201401 -0.174073 50
-2.70528 1.24445 0.678325 29
-2.74133 0.707886 0.748305 42
-2.68589 1.23497 0.461635 30
-2.75533 0.71706 0.546177 50
-1.4622 0.67132 0.137706 8
-2.7727 0.725129 0.347138 71
-1.42407 0.654376 0.0267458 4
-2.77202 0.727001 0.148372 109
-0.62185 0.28502 -0.0341317 58
-1.40684 0.647326 -0.185587 4
-0.639611 0.171794 -0.0547986 58
-1.2846 0.591485 -0.267605 4
-0.765936 0.204206 -0.120196 50
-0.968165 0.44641 -0.276109 4
-0.770467 0.204566 -0.175758 49
-2.66982 1.24567 0.671025 29
-2.73279 0.721483 0.747013 45
-2.68588 1.25262 0.462806 30
-2.75391 0.732104 0.546653 52
-1.44275 0.671848 0.136181 8
-2.76634 0.739483 0.346834 61
-1.41383 0.658651 0.0266149 4
-2.77287 0.743273 0.148634 132
-0.622611 0.289329 -0.0342629 58
-1.39657 0.651773 -0.184674 4
-0.636296 0.1745 -0.0545811 58
-1.27694 0.596345 -0.266653 4
-0.769629 0.209482 -0.120979 49
-0.963628 0.450448 -0.275463 4
-0.766994 0.208108 -0.175197 50
-2.65462 1.24365 0.667656 55
-2.73386 0.726868 0.747659 49
-2.65708 1.24425 0.458123 33
-2.75025 0.736278 0.546177 50
-1.44834 0.677537 0.136835 8
-2.76278 0.743187 0.34653 53
-1.4172 0.663241 0.0267022 4
-2.76688 0.746336 0.148372 116
-0.626626 0.292536 -0.0345255 58
-1.40902 0.660296 -0.186499 4
-0.63599 0.17561 -0.0545811 56
-1.27367 0.597529 -0.266177 3
-0.969394 0.455217 -0.277403 4
-0.764312 0.208685 -0.174635 50
-2.65687 1.26172 0.669902 59
-2.73248 0.741324 0.748305 44
-2.6483 1.25709 0.457733 58
-2.74412 0.749547 0.5457 50
-1.45164 0.688065 0.137488 8
-2.76363 0.758949 0.347138 50
-1.41608 0.671478 0.0267458 4
-2.77497 0.764106 0.149027 86
-0.62734 0.296885 -0.0346568 58
-1.39882 0.664465 -0.185587 4
-0.637464 0.179596 -0.0547986 56
-1.26399 0.6008 -0.264748 3
-0.954002 0.453875 -0.273523 4
-0.76791 0.213963 -0.175758 50
-2.65687 1.26741 0.670464 59
-2.72419 0.744195 0.746366 47
-2.65055 1.26384 0.458513 58
-2.74742 0.756108 0.546653 50
-1.44819 0.689524 0.13727 8
-2.75752 0.762456 0.34653 56
-1.41705 0.675273 0.0267894 4
-2.77123 0.768286 0.148896 68
-0.622315 0.295827 -0.0343942 58
-1.39542 0.665834 -0.185282 4
-0.63715 0.180708 -0.0547986 56
-1.25851 0.600886 -0.263796 4
-0.957483 0.457795 -0.274816 4
-0.760487 0.213372 -0.174073 49
-2.65436 1.28389 0.671587 61
-2.72012 0.758923 0.746366 49
-2.6459 1.27923 0.458904 59
-2.73396 0.767845 0.544747 45
-1.43995 0.69518 0.136835 8
-2.74858 0.776024 0.345921 71
-1.41124 0.681594 0.0267458 4
-2.76223 0.781916 0.148634 59
-0.620758 0.299082 -0.0343942 58
-1.39403 0.674457 -0.185587 4
-0.6314 0.182692 -0.0543637 55
-1.25303 0.606615 -0.26332 4
-0.959417 0.464914 -0.276109 4
-0.759321 0.217484 -0.174073 45
-2.65672 1.29018 0.67271 62
-2.7188 0.763669 0.746366 49
-2.65255 1.28817 0.460465 61
-2.73971 0.774606 0.546177 50
-1.44545 0.700958 0.137488 4
-2.75677 0.783518 0.347138 65
-1.41005 0.684056 0.0267458 4
-2.76326 0.787416 0.148765 67
-0.62248 0.301257 -0.0345255 58
-1.39285 0.676889 -0.185587 4
-0.633476 0.184473 -0.0545811 55
-1.25418 0.609876 -0.263796 3
-0.958604 0.466588 -0.276109 4
-2.65407 1.30669 0.673833 71
-2.71476 0.777894 0.746366 49
-2.6502 1.30422 0.461245 67
-2.73325 0.788265 0.5457 49
-1.43283 0.704116 0.136617 4
-2.74309 0.795194 0.345921 55
-1.40869 0.692535 0.0267894 4
-2.76389 0.803259 0.149027 90
-0.623134 0.305616 -0.0346568 58
-1.39819 0.688566 -0.186804 4
-0.630109 0.187096 -0.0543637 55
-1.25096 0.616435 -0.263796 3
-0.960476 0.473743 -0.277403 4
-2.65856 1.3141 0.675517 82
-2.7134 0.782631 0.746366 49
-2.65257 1.31058 0.462025 79
-2.73187 0.793034 0.5457 50
-1.43383 0.70772 0.136835 4
-2.73707 0.79812 0.345313 49
-1.40972 0.696101 0.0268331 4
-2.75544 0.80551 0.148634 103
-0.620362 0.305595 -0.0345255 58
-1.40155 0.692965 -0.187412 4
-0.634564 0.189586 -0.0547986 55
-1.25648 0.62189 -0.265224 3
-0.955323 0.473269 -0.276109 4
-2.65382 1.3291 0.676079 86
-2.71172 0.797032 0.747013 49
-2.65009 1.32666 0.462806 88
-2.72547 0.806159 0.545224 49
-1.43691 0.718314 0.137488 4
-2.73048 0.811738 0.345008 49
-1.40618 0.703227 0.0268331 4
-2.75836 0.822053 0.149027 86
-0.620985 0.309958 -0.0346568 58
-1.39569 0.699181 -0.187108 4
-0.633563 0.192906 -0.0547986 55
-1.23797 0.620528 -0.261891 3
-0.950758 0.477012 -0.275463 4
-2.62757 1.32167 0.669902 36
-2.71496 0.803126 0.748305 45
-2.62792 1.32129 0.459294 45
-2.72392 0.81139 0.545224 52
-1.44233 0.724179 0.138142 4
-2.73143 0.817209 0.345313 49
-1.40706 0.70705 0.0268767 4
-2.74735 0.824013 0.148503 53
-0.618213 0.309918 -0.0345255 58
-1.3989 0.70385 -0.187716 4
-0.633225 0.194012 -0.0547986 55
-1.23688 0.622687 -0.261891 3
-0.954151 0.481017 -0.276756 4
-2.59868 1.3248 0.664287 33
-2.70826 0.81711 0.747659 45
-2.60093 1.32539 0.455782 35
-2.71963 0.825641 0.545224 49
-1.43395 0.72971 0.137706 4
-2.7341 0.834136 0.346225 55
-1.40334 0.714407 0.0268767 4
-1.39286 0.710279 -0.187412 4
-0.634584 0.19805 -0.055016 55
-1.24224 0.633841 -0.263796 3
-0.953768 0.487107 -0.277403 4
-2.57491 1.31777 0.658671 32
-2.71377 0.823928 0.749597 49
-2.57907 1.31934 0.45227 33
-2.72054 0.831099 0.5457 49
-1.43932 0.735617 0.13836 4
-2.73041 0.837706 0.345921 83
-1.40431 0.717995 0.0269203 8
-1.38291 0.707935 -0.186195 4
-0.631855 0.198428 -0.0547986 55
-1.23676 0.633765 -0.262844 3
-0.963653 0.494296 -0.280636 4
-2.54852 1.32113 0.653618 33
-2.71187 0.838362 0.750244 49
-2.5524 1.32259 0.448758 33
-2.72098 0.846308 0.546653 47
-1.43558 0.742893 0.13836 4
-2.72125 0.850518 0.345313 50
-1.38957 0.719339 0.0267022 4
-0.618812 0.319749 -0.034788 58
-1.37698 0.714022 -0.185891 4
-0.630808 0.201733 -0.0547986 55
-1.23354 0.640017 -0.262844 3
-0.956855 0.496935 -0.279342 4
-2.5246 1.31432 0.648003 33
-2.7081 0.842381 0.749597 50
-2.53256 1.31792 0.445636 32
-2.71935 0.851531 0.546653 45
-1.42987 0.743096 0.137924 4
-2.72213 0.856007 0.345617 49
-1.39705 0.726627 0.0268767 4
-0.618253 0.320828 -0.034788 56
-1.38673 0.722165 -0.187412 4
-0.635207 0.204325 -0.0552335 53
-1.23895 0.645578 -0.264272 4
-1.98981 0.627857 -0.325351 14
-0.962318 0.502131 -0.281282 4
-2.50238 1.31999 0.644072 33
-2.7035 0.857021 0.749597 49
-2.50793 1.32238 0.442514 32
-2.72188 0.867982 0.548083 49
-1.42362 0.74966 0.137706 4
-2.72218 0.872229 0.346225 47
-1.38881 0.731598 0.0267894 4
-0.62098 0.326393 -0.0350506 58
-1.37403 0.725017 -0.186195 4
-0.636501 0.208406 -0.0554509 50
-1.22893 0.648827 -0.262844 3
-1.97944 0.636017 -0.324176 14
-0.951141 0.502639 -0.278696 4
-2.48308 1.31479 0.63958 35
-2.702 0.861738 0.749597 49
-2.48403 1.31475 0.438612 33
-2.72269 0.873477 0.54856 50
-2.71372 0.874233 0.345313 45
-1.39636 0.738704 0.026964 4
-0.622615 0.328646 -0.0351819 56
-1.37947 0.730665 -0.187108 4
-0.629023 0.207231 -0.0547986 45
-1.22779 0.650971 -0.262844 3
-1.97598 0.638717 -0.323785 14
-0.954526 0.506568 -0.279989 4
-2.45255 1.3151 0.633403 35
-2.69071 0.873178 0.747659 45
-2.45535 1.31606 0.43471 33
-2.71357 0.885732 0.547607 52
-2.7209 0.892276 0.346834 47
-1.386 0.742216 0.0268331 8
-0.618686 0.33072 -0.0350506 58
-1.37562 0.737878 -0.187108 4
-0.625563 0.209747 -0.0545811 38
-1.22016 0.654852 -0.261891 3
-1.96321 0.645989 -0.322219 14
-0.956202 0.513684 -0.281282 4
-2.4331 1.31013 0.628911 35
-2.68459 0.876382 0.746366 44
-2.44001 1.31332 0.432368 35
-2.71186 0.89094 0.547607 50
-2.7217 0.897797 0.347138 49
-1.39117 0.748434 0.026964 4
-0.615911 0.330614 -0.0349193 56
-1.36341 0.734384 -0.185587 4
-0.627561 0.211617 -0.0547986 36
-1.2147 0.654647 -0.260939 3
-1.96208 0.649415 -0.322219 14
-0.955214 0.515518 -0.281282 4
-2.41315 1.31627 0.625541 36
-2.67751 0.890137 0.74572 45
-2.41769 1.31822 0.429637 35
-2.70483 0.904353 0.54713 49
-2.71445 0.911724 0.346834 49
-1.38504 0.75451 0.0269203 4
-0.616362 0.335031 -0.0350506 58
-1.36813 0.746512 -0.186804 4
-0.624083 0.214109 -0.0545811 30
-1.20898 0.660032 -0.260463 3
-1.95163 0.657331 -0.321044 14
-0.939795 0.513548 -0.277403 4
-2.39399 1.31069 0.621049 36
-2.67595 0.894808 0.74572 45
-2.39613 1.31134 0.426125 35
-2.6986 0.907516 0.546177 45
-2.71772 0.917566 0.347442 90
-1.38372 0.756926 0.0269203 4
-0.620155 0.338508 -0.0353131 56
-1.35825 0.743885 -0.185587 4
-0.628429 0.216788 -0.055016 24
-1.20568 0.660959 -0.259987 4
-1.9458 0.659163 -0.320261 14
-0.938898 0.515187 -0.277403 4
-2.37005 1.31375 0.616557 36
-2.67368 0.909114 0.746366 47
-2.3698 1.31308 0.422613 35
-2.68932 0.919582 0.545224 44
-2.70583 0.929377 0.34653 50
-1.37331 0.760282 0.0267894 8
-0.614008 0.339326 -0.0350506 53
-1.36085 0.754602 -0.186499 4
-0.629641 0.220883 -0.0552335 27
-1.20446 0.668246 -0.260463 3
-1.93999 0.668543 -0.319869 12
-0.938388 0.521108 -0.278049 4
-2.35286 1.30958 0.612626 36
-2.66294 0.91067 0.743782 47
-2.34809 1.3064 0.419101 35
-2.68291 0.923155 0.544271 44
-2.7042 0.934098 0.34653 49
-1.3784 0.766568 0.0269203 4
-0.617776 0.342829 -0.0353131 56
-1.43019 0.498066 -0.0258296 3
-1.36386 0.759394 -0.187108 4
-0.622191 0.219547 -0.0545811 38
-1.20544 0.671543 -0.260939 3
-1.92948 0.668716 -0.318303 12
-0.937386 0.522909 -0.278049 4
-2.32877 1.31272 0.608134 36
-2.65798 0.925064 0.743782 49
-2.33238 1.31423 0.41754 35
-2.67572 0.936383 0.543794 44
-2.68974 0.94544 0.345313 44
-1.36566 0.768862 0.0267458 8
-0.618147 0.347286 -0.0354444 53
-1.43219 0.507451 -0.0259168 4
-0.623383 0.223625 -0.0547986 49
-1.20606 0.680472 -0.261891 3
-1.92828 0.679625 -0.318695 12
-0.938837 0.53019 -0.279342 4
-2.31186 1.30797 0.604203 38
-2.65864 0.930496 0.744428 47
-2.31312 1.30816 0.414418 35
-2.67176 0.940241 0.543317 45
-2.68825 0.949663 0.345313 42
-1.36649 0.772476 0.0267894 4
-0.615368 0.347133 -0.0353131 53
-1.42659 0.508287 -0.0258296 4
-0.630038 0.227197 -0.0554509 50
-1.20274 0.681364 -0.261415 3
-1.91544 0.678892 -0.316737 12
-0.94001 0.533022 -0.279989 4
-2.28596 1.30915 0.59915 36
-2.65162 0.943135 0.743782 49
-2.2891 1.31043 0.411296 36
-2.66928 0.954574 0.543794 47
-2.68091 0.962891 0.345008 42
-1.3604 0.77814 0.0267458 8
-0.613542 0.350351 -0.0353131 53
-1.42635 0.516345 -0.0258732 4
-0.626496 0.229653 -0.0552335 50
-1.18438 0.678884 -0.258082 3
-1.91186 0.688912 -0.316737 12
-0.939393 0.538977 -0.280636 4
-2.2689 1.30463 0.595219 36
-2.65224 0.948571 0.744428 45
-2.27183 1.3058 0.408565 36
-2.66745 0.959697 0.543794 49
-2.67222 0.965052 0.344096 42
-1.36973 0.786986 0.026964 4
-0.612929 0.351421 -0.0353131 53
-1.4231 0.517986 -0.0258296 4
-0.626094 0.230746 -0.0552335 50
-1.18744 0.683403 -0.259034 4
-1.91066 0.692248 -0.316737 12
-0.950901 0.548031 -0.284516 4
-1.0721 0.389456 -0.254933 4
-2.24918 1.30952 0.59185 36
-2.6448 0.962085 0.743782 47
-2.25193 1.31062 0.406223 36
-2.66469 0.97449 0.544271 50
-2.24318 1.30501 0.22399 35
-2.66229 0.977793 0.343487 41
-1.36343 0.792888 0.0269203 8
-1.47737 0.546027 0.0807282 4
-0.611081 0.354625 -0.0353131 53
-1.42731 0.528258 -0.0259605 4
-0.624877 0.234021 -0.0552335 50
-1.17313 0.683628 -0.256653 3
-1.90469 0.701395 -0.316346 12
-0.939681 0.548125 -0.281929 4
-1.07227 0.396085 -0.255495 3
-2.2324 1.30444 0.587919 38
-2.64539 0.967525 0.744428 49
-2.23282 1.30418 0.403102 36
-2.66068 0.978296 0.543794 50
-2.2323 1.30389 0.223119 35
-2.6561 0.980263 0.342879 38
-1.46948 0.545761 0.0803357 4
-1.4217 0.52902 -0.0258732 4
-0.624468 0.235111 -0.0552335 49
-1.16982 0.684433 -0.256177 3
-1.90114 0.703866 -0.315954 12
-0.932476 0.546095 -0.279989 4
-1.06707 0.396093 -0.254372 4
-2.20458 1.3037 0.582304 36
-2.64499 0.982576 0.74572 47
-2.21321 1.30831 0.40076 35
-2.6557 0.99175 0.543794 49
-2.21067 1.3063 0.221593 35
-2.64163 0.990687 0.341662 38
-1.4666 0.553447 0.0803357 4
-1.42837 0.539714 -0.0260477 3
-0.618604 0.236524 -0.0547986 47
-1.16001 0.686589 -0.254749 3
-1.89743 0.713811 -0.315954 12
-0.931776 0.552041 -0.280636 4
-1.07183 0.404225 -0.256056 3
-2.18996 1.2997 0.578935 35
-2.63874 0.985509 0.744428 47
-2.19181 1.30081 0.397248 36
-2.65396 0.996384 0.543794 50
-2.19554 1.30252 0.220286 36
-2.6306 0.991811 0.340445 33
-1.46797 0.556885 0.0804665 4
-1.42274 0.540446 -0.0259605 4
-0.625184 0.240233 -0.0554509 47
-1.15881 0.688612 -0.254749 3
-1.89387 0.716254 -0.315563 12
-0.928737 0.552429 -0.279989 4
-1.06428 0.403533 -0.254372 3
-2.16828 1.30274 0.575004 36
-2.63354 0.999312 0.744428 49
-2.17439 1.30591 0.395297 36
-2.64871 1.01027 0.543794 49
-2.17161 1.30374 0.218543 38
-2.60682 0.998502 0.338011 32
-1.46504 0.564563 0.0804665 4
-0.618905 0.370847 -0.0361008 42
-1.42456 0.549673 -0.0260477 4
-0.619222 0.241833 -0.055016 45
-1.15518 0.69467 -0.254749 3
-1.88317 0.72352 -0.314388 12
-0.934101 0.562277 -0.282576 4
-1.06443 0.409966 -0.254933 3
-2.15349 1.29896 0.571635 36
-2.63631 1.00562 0.74572 47
-2.15731 1.30077 0.392566 36
-2.64676 1.01535 0.543794 50
-2.15867 1.30109 0.217454 38
-2.59349 0.998612 0.33649 30
-1.45939 0.56533 0.0802048 4
-0.624667 0.375799 -0.0364946 38
-1.4236 0.552158 -0.0260477 4
-0.621124 0.243807 -0.0552335 45
-1.15397 0.696685 -0.254749 3
-1.88421 0.72769 -0.31478 12
-0.922695 0.557809 -0.279342 4
-1.05689 0.409214 -0.253249 3
-2.13396 1.30297 0.568266 36
-2.62407 1.01726 0.743782 47
-2.13549 1.30341 0.389834 36
-2.64141 1.02919 0.543794 50
-2.13248 1.30107 0.215493 38
-2.57417 1.00723 0.334664 30
-1.45863 0.574125 0.0803357 4
-0.622691 0.379065 -0.0364946 36
-1.42758 0.56258 -0.0261786 4
-0.617519 0.246151 -0.055016 44
-1.14181 0.697791 -0.252844 3
-1.88025 0.737874 -0.31478 12
-0.925937 0.566421 -0.281282 4
-1.05239 0.414044 -0.252687 3
-2.11946 1.29868 0.564896 35
-2.62229 1.02184 0.743782 47
-2.11638 1.2968 0.386712 36
-2.63961 1.0338 0.543794 50
-2.11959 1.29828 0.214403 38
-2.56779 1.00991 0.334056 30
-1.45298 0.574847 0.080074 4
-1.41961 0.562331 -0.0260477 4
-0.619407 0.248137 -0.0552335 44
-1.14059 0.699782 -0.252844 3
-1.88126 0.742055 -0.315171 12
-0.922891 0.56677 -0.280636 4
-1.05166 0.41588 -0.252687 3
-2.09584 1.29984 0.560404 38
-2.6214 1.03733 0.745074 47
-2.09907 1.30135 0.384761 38
-2.63416 1.04761 0.543794 50
-2.09795 1.30016 0.212878 38
-2.55094 1.01876 0.332535 29
-1.71454 1.06267 0.0345994 12
-1.45227 0.583371 0.0802048 4
-1.42826 0.574384 -0.0262659 4
-0.615786 0.250456 -0.055016 39
-1.12858 0.700559 -0.250939 3
-1.87518 0.750655 -0.31478 12
-0.92196 0.572871 -0.281282 4
-1.05173 0.422279 -0.253249 3
-2.08139 1.2954 0.557035 38
-2.61509 1.04012 0.743782 47
-2.08864 1.29943 0.3832 38
-2.63233 1.05221 0.543794 50
-2.08088 1.29461 0.211353 38
-2.55394 1.02461 0.333143 29
-1.69359 1.05376 0.0342067 12
-1.45599 0.587505 0.0804665 4
-1.42726 0.576875 -0.0262659 4
-0.619972 0.253381 -0.0554509 38
-1.12944 0.703828 -0.251416 3
-0.925054 0.577041 -0.282576 3
-1.0556 0.425733 -0.254372 3
-2.0684 1.30239 0.55535 38
-2.61204 1.05425 0.744428 47
-2.06718 1.30113 0.380469 38
-2.62697 1.06551 0.543794 50
-2.06165 1.29716 0.210045 38
-2.55314 1.03983 0.333752 29
-1.45058 0.594182 0.0803357 4
-1.42432 0.584092 -0.0262659 4
-0.627865 0.260375 -0.0563208 36
-1.11756 0.704292 -0.249511 3
-0.922121 0.581716 -0.282576 3
-1.05561 0.432168 -0.254933 3
-2.0476 1.29427 0.550297 38
-2.61467 1.06061 0.74572 47
-2.04821 1.29417 0.377347 38
-2.62492 1.07056 0.543794 50
-2.04886 1.2941 0.208956 38
-2.54443 1.04148 0.332839 27
-1.44723 0.595769 0.0802048 4
-1.42792 0.588468 -0.0263531 4
-0.625104 0.260529 -0.0561033 35
-1.11218 0.703613 -0.248559 4
-0.929156 0.588665 -0.285162 3
-1.06162 0.436761 -0.256618 4
-2.0262 1.29613 0.546366 38
-2.6089 1.07474 0.74572 47
-2.03286 1.29991 0.375786 38
-2.61928 1.08429 0.543794 50
-2.02715 1.29577 0.207431 39
-2.54105 1.05618 0.333143 29
-1.66164 1.06224 0.033814 11
-1.44629 0.604546 0.0803357 4
-1.42241 0.595227 -0.0263095 4
-0.628333 0.265706 -0.0565382 33
-1.11249 0.712271 -0.249511 4
-0.926061 0.593522 -0.285162 4
-1.05249 0.43971 -0.254933 3
-2.01392 1.29273 0.543558 36
-2.60925 1.08021 0.746366 47
-2.01813 1.29545 0.373445 39
-2.0165 1.29392 0.206559 41
-2.54378 1.06251 0.333752 27
-1.65768 1.06379 0.0337704 12
-1.45215 0.609949 0.0807282 4
-1.42829 0.600594 -0.0264404 4
-0.630167 0.26776 -0.0567557 33
-1.10299 0.708896 -0.247606 3
-0.931111 0.599065 -0.287102 4
-1.05397 0.44248 -0.255495 4
-1.99668 1.29696 0.540751 38
-2.60356 1.09386 0.746366 47
-1.99889 1.29792 0.371103 39
-1.99926 1.29767 0.20547 41
-2.54276 1.07775 0.33436 27
-1.6479 1.06973 0.0336831 12
-1.44433 0.615601 0.0804665 4
-1.41362 0.603195 -0.0262222 4
-0.631051 0.272026 -0.0569731 27
-1.0931 0.710641 -0.246178 4
-1.48597 0.632319 -0.250571 9
-0.929984 0.605252 -0.287749 4
-1.04041 0.443267 -0.252687 3
-1.9824 1.29211 0.537382 38
-2.60387 1.09934 0.747013 49
-1.98651 1.29431 0.369152 39
-1.98447 1.293 0.204162 41
-2.54792 1.08464 0.335273 29
-1.64812 1.07397 0.0337268 12
-1.44107 0.616893 0.0803357 4
-1.41486 0.606639 -0.0262659 4
-1.08775 0.709861 -0.245225 3
-1.47805 0.63202 -0.249396 8
-0.934987 0.610845 -0.289688 3
-1.04645 0.447746 -0.254372 3
-1.96545 1.29576 0.534574 39
-2.59827 1.1125 0.747013 47
-1.9694 1.29789 0.367201 38
-1.96751 1.29617 0.203073 42
-1.64684 1.08505 0.033814 12
-1.44699 0.62838 0.0808591 4
-1.41407 0.614782 -0.0263095 4
-1.08414 0.715357 -0.245225 4
-1.47698 0.640726 -0.249788 8
-0.931883 0.615569 -0.289688 3
-1.03513 0.449378 -0.252126 3
-1.951 1.29111 0.531205 38
-2.60521 1.12084 0.749597 42
-1.95067 1.29042 0.364079 39
-1.95486 1.29272 0.201983 42
-2.79087 1.21063 0.368739 14
-1.64475 1.08821 0.033814 12
-1.44589 0.630904 0.0808591 4
-1.40611 0.614269 -0.0261786 4
-1.08698 0.719963 -0.246178 4
-1.47813 0.644283 -0.250179 4
-0.938742 0.622707 -0.292275 3
-1.04106 0.454077 -0.25381 3
-1.93184 1.29351 0.527836 39
-2.8804 1.25717 0.831665 26
-1.93545 1.29546 0.362518 39
-2.86588 1.25676 0.600985 26
-1.93749 1.29635 0.200894 41
-2.76382 1.21675 0.366001 23
-1.44017 0.637714 0.0807282 4
-1.40277 0.621867 -0.0261786 4
-1.93354 1.29614 -0.281118 41
-1.07696 0.721729 -0.244749 4
-1.46569 0.648047 -0.248613 4
-0.927454 0.622222 -0.289688 3
-1.03189 0.456773 -0.252126 3
-1.9197 1.28975 0.525028 39
-2.84943 1.24963 0.823265 26
-1.92317 1.2916 0.360567 39
-2.83672 1.24992 0.595266 26
-1.92283 1.29139 0.199587 42
-2.77099 1.22509 0.367218 29
-1.44145 0.640983 0.0808591 4
-1.40397 0.625325 -0.0262222 4
-1.92327 1.29363 -0.279901 42
-1.07163 0.720863 -0.243797 4
-1.46682 0.651599 -0.249005 4
-0.932371 0.627894 -0.291628 3
-1.0334 0.459374 -0.252687 3
-1.89882 1.29019 0.521097 39
-2.81657 1.25231 0.81551 26
-1.90617 1.29471 0.358616 39
-2.80345 1.2523 0.589547 24
-1.90391 1.29271 0.198279 41
-2.76227 1.23857 0.366914 23
-1.66046 1.12762 0.0344249 11
-1.44035 0.649541 0.0809899 4
-1.40307 0.633444 -0.0262659 4
-1.06796 0.726278 -0.243797 4
-1.46789 0.661285 -0.249788 4
-0.925192 0.629882 -0.290335 3
-1.04434 0.470728 -0.256056 3
-1.8845 1.28526 0.517728 39
-2.77687 1.24053 0.804525 24
-1.89167 1.28968 0.356275 39
-2.74503 1.23263 0.577632 24
-1.88931 1.2876 0.196972 41
-2.72841 1.22917 0.362654 15
-1.87916 1.28164 0.0390934 35
-1.43922 0.652054 0.0809899 4
-1.41108 0.639994 -0.0264404 4
-1.05859 0.722597 -0.241892 4
-1.46449 0.662835 -0.249396 4
-0.923981 0.631657 -0.290335 3
-1.04129 0.471555 -0.255495 4
-1.8695 1.28989 0.515482 39
-2.7437 1.24362 0.79677 56
-1.8745 1.29288 0.354324 41
-2.73853 1.24699 0.577632 49
-1.87207 1.29073 0.195883 42
-2.69236 1.23055 0.358699 14
-1.88065 1.29715 0.0392679 41
-1.43794 0.660867 0.0811207 4
-1.40532 0.646581 -0.0263968 4
-1.06476 0.735298 -0.244273 4
-0.918676 0.63511 -0.289688 3
