# .PCD v0.7 - Point Cloud Data file format
VERSION 0.7
FIELDS x y z intensity
SIZE 4 4 4 4
TYPE F F F F
COUNT 1 1 1 1
WIDTH 1603
HEIGHT 1
VIEWPOINT 0 0 0 1 0 0 0
POINTS 1603
DATA ascii
-1.9166 1.29762 0.442756 41
-1.30419 1.26678 0.156009 49
-1.90701 1.295 0.27838 41
-1.30686 1.26982 0.0311962 47
-1.90727 1.29709 0.119064 39
-1.30664 1.27049 -0.0939933 52
-1.30377 1.26858 -0.218749 56
-1.22185 0.833665 -0.126124 12
-1.29988 1.26566 -0.34522 58
-1.8993 1.29077 -0.35863 36
-1.30626 1.27364 -0.47915 59
-0.960862 0.654464 -0.259987 4
-1.29636 1.26442 0.409353 52
-1.90646 1.29085 0.606786 41
-1.29624 1.26388 0.280571 47
-1.90191 1.29305 0.439896 42
-1.29841 1.26557 0.155573 49
-1.89243 1.28997 0.276554 41
-1.29727 1.26534 0.0310216 50
-1.89261 1.292 0.118279 39
-1.30085 1.26928 -0.0937308 52
-1.29623 1.26564 -0.217836 56
-1.23069 0.842799 -0.127211 11
-1.29416 1.2645 -0.344268 59
-1.29692 1.26938 -0.476563 59
-0.955685 0.653407 -0.258864 4
-1.28777 1.2697 0.408792 50
-1.88747 1.29299 0.602909 42
-1.28587 1.2674 0.279791 47
-1.88701 1.29744 0.43799 42
-1.28623 1.26733 0.154919 49
-1.87519 1.29316 0.275033 41
-1.28885 1.27036 0.030978 50
-1.87325 1.29374 0.117494 39
-1.28885 1.27081 -0.093337 52
-1.86682 1.29027 -0.0390061 36
-1.28407 1.26741 -0.216923 56
-1.28207 1.2663 -0.342839 59
-1.28339 1.26936 -0.473977 59
-0.950127 0.657191 -0.258303 4
-1.27539 1.26144 0.405423 50
-1.87724 1.29082 0.600324 42
-1.28037 1.26595 0.27901 49
-1.87261 1.2924 0.43513 42
-1.27694 1.26257 0.154048 50
-1.86499 1.29048 0.273816 42
-1.27953 1.26557 0.0308035 50
-1.85683 1.28675 0.116578 41
-1.28309 1.26954 -0.0930744 52
-1.85428 1.28642 -0.038788 36
-1.27855 1.26593 -0.216315 56
-1.27289 1.26162 -0.340935 59
-1.27432 1.26479 -0.47139 59
-0.947086 0.657302 -0.257741 4
-1.2636 1.26293 0.403738 50
-1.86075 1.29344 0.597093 42
-1.26848 1.26739 0.27784 49
-1.85798 1.29626 0.433224 42
-1.26701 1.26549 0.153612 50
-1.84395 1.2903 0.271687 41
-1.26604 1.26496 0.030629 50
-1.84188 1.29074 0.116055 41
-1.26959 1.26896 -0.0925493 50
-1.83545 1.2872 -0.0385262 36
-1.2649 1.26558 -0.215098 58
-1.26129 1.26283 -0.339506 59
-1.26279 1.26609 -0.469451 59
-0.945631 0.663643 -0.258303 4
-1.25817 1.26146 0.402615 50
-1.84659 1.28842 0.593216 44
-1.2593 1.26261 0.276279 49
-1.84162 1.28967 0.429888 42
-1.25777 1.26064 0.15274 52
-1.83356 1.28783 0.27047 42
-1.26206 1.2654 0.0305853 49
-1.83349 1.28966 0.115662 41
-1.26385 1.26763 -0.0922868 52
-1.82501 1.28467 -0.0383517 36
-1.25744 1.26251 -0.214185 58
-1.25735 1.26329 -0.33903 59
-1.25378 1.26143 -0.466864 59
-0.944471 0.665293 -0.258303 4
-1.24598 1.26326 0.40093 52
-1.82971 1.29145 0.589985 44
-1.24725 1.26412 0.275108 50
-1.82659 1.29396 0.427982 42
-1.24743 1.26388 0.152305 52
-1.82049 1.29343 0.269557 42
-1.24994 1.26687 0.0304544 49
-1.82037 1.29523 0.11527 41
-1.25172 1.26911 -0.0918929 50
-1.80784 1.2873 -0.0381335 38
-1.24537 1.26398 -0.213272 58
-1.24361 1.26308 -0.337125 59
-1.24186 1.26303 -0.464924 59
-0.946828 0.674609 -0.259987 4
-1.24229 1.26348 0.400369 52
-1.81364 1.2849 0.585461 44
-1.2418 1.26256 0.274328 49
-1.81432 1.29006 0.425599 42
-1.24348 1.26428 0.152087 52
-1.80834 1.28911 0.268036 42
-1.23897 1.26013 0.0302363 50
-1.80612 1.28941 0.114485 39
-1.24425 1.26595 -0.0914991 53
-1.80559 1.29045 -0.0381335 38
-1.24164 1.26417 -0.212968 58
-1.24141 1.26524 -0.337125 59
-1.23627 1.26174 -0.463631 61
-0.939804 0.67187 -0.258303 4
-1.23056 1.26472 0.398684 52
-1.80122 1.28985 0.583523 45
-1.23001 1.26373 0.273157 49
-1.80177 1.29494 0.424169 42
-1.22665 1.25984 0.150779 52
-1.79148 1.29132 0.266514 42
-1.23257 1.26638 0.0302363 49
-1.79124 1.29302 0.113962 41
-1.23065 1.26529 -0.090974 52
-1.78483 1.28936 -0.0378281 38
-1.22982 1.26531 -0.212055 55
-1.22474 1.26094 -0.334268 59
-1.22315 1.26104 -0.461044 61
-0.944194 0.682457 -0.260549 4
-1.21988 1.25811 0.395877 52
-1.78521 1.28316 0.578999 45
-1.22265 1.26055 0.271986 50
-1.79131 1.29267 0.422262 42
-1.22098 1.2584 0.150344 50
-1.77714 1.28575 0.264689 42
-1.22492 1.26336 0.0301054 49
-1.77683 1.28739 0.113176 41
-1.2267 1.26564 -0.0908427 52
-1.77447 1.28662 -0.0376536 38
-1.22244 1.2621 -0.211143 58
-1.21912 1.25955 -0.333316 59
-1.21905 1.26165 -0.460398 59
-0.939046 0.681259 -0.259426 4
-1.21306 1.2647 0.395877 52
-1.76846 1.28572 0.575768 45
-1.2124 1.26358 0.271206 50
-1.77261 1.29338 0.419403 42
-1.21071 1.26139 0.149908 52
-1.76414 1.29096 0.263776 42
-1.21138 1.26253 0.0299309 50
-1.76177 1.2911 0.112653 41
-1.21488 1.26663 -0.0904489 53
-1.75738 1.28883 -0.0374354 38
-1.21044 1.26332 -0.21023 56
-1.75934 1.28981 -0.187446 39
-1.20551 1.25903 -0.331411 58
-1.20576 1.26103 -0.457811 59
-1.20434 1.25955 0.393631 52
-1.7584 1.28313 0.573184 45
-1.2053 1.26013 0.270035 50
-1.75845 1.2878 0.416543 44
-1.20678 1.2617 0.14969 52
-1.75009 1.28495 0.261951 42
-1.20572 1.26103 0.0298436 49
-1.74967 1.28649 0.111999 41
-1.2075 1.26333 -0.0900551 53
-1.74303 1.28303 -0.0371736 38
-1.20332 1.25983 -0.209317 59
-1.74503 1.28404 -0.186141 39
-1.19992 1.25758 -0.330459 52
-1.19856 1.25788 -0.455871 56
-1.19271 1.26053 0.391946 53
-1.74799 1.28915 0.571891 45
-1.19698 1.26463 0.269645 49
-1.744 1.29086 0.414637 44
-1.19696 1.26418 0.149254 52
-1.73735 1.28967 0.261038 44
-1.19589 1.26348 0.0297564 50
-1.73287 1.28821 0.111345 41
-1.19766 1.2658 -0.0897925 53
-1.73049 1.28738 -0.0370427 39
-1.195 1.26431 -0.209013 58
-1.73051 1.28693 -0.185271 39
-1.18512 1.25471 -0.328078 47
-1.18059 1.25163 -0.451345 58
-1.18906 1.26063 0.391385 53
-1.73407 1.28361 0.568014 45
-1.19139 1.26312 0.268864 49
-1.73385 1.28806 0.412731 44
-1.18963 1.26083 0.148601 52
-1.72314 1.28383 0.259213 45
-1.19025 1.26193 0.0296691 52
-1.7206 1.28379 0.110691 41
-1.19202 1.26425 -0.08953 53
-1.7162 1.28145 -0.0367809 41
-1.1843 1.25735 -0.207492 58
-1.72026 1.28401 -0.184402 39
-1.17957 1.25319 -0.327126 45
-1.1718 1.24664 -0.448759 53
-1.18056 1.26526 0.390823 53
-1.71764 1.28546 0.564783 45
-1.18139 1.26573 0.268084 50
-1.71922 1.29125 0.410824 44
-1.18131 1.26522 0.148383 52
-1.70845 1.28688 0.257996 45
-1.17511 1.259 0.0294509 52
-1.70187 1.28379 0.109906 41
-1.17836 1.26337 -0.0890049 55
-1.70547 1.28741 -0.0366937 41
-1.17601 1.26172 -0.207188 59
-1.16631 1.25216 -0.325221 47
-1.1669 1.25453 -0.449405 47
-1.17172 1.26018 0.388577 53
-1.70959 1.28411 0.562844 45
-1.17246 1.26055 0.266523 52
-1.70889 1.28865 0.408918 44
-1.17402 1.2618 0.147729 52
-1.69431 1.28091 0.25617 45
-1.17439 1.26309 0.0294946 52
-1.69166 1.28074 0.109382 42
-1.17106 1.25994 -0.088611 55
-1.69125 1.28136 -0.0364319 41
-1.17043 1.26013 -0.206579 59
-1.16078 1.2506 -0.324269 47
-1.15957 1.25145 -0.447465 47
-1.16159 1.26291 0.387454 53
-1.68913 1.28315 0.558321 45
-1.16061 1.26142 0.265352 52
-1.68843 1.2872 0.405582 44
-1.1638 1.26447 0.147293 50
-1.67946 1.28405 0.254953 45
-1.16269 1.26369 0.0293637 50
-1.67676 1.28382 0.108859 42
-1.16614 1.26789 -0.0887423 55
-1.67634 1.28443 -0.0362574 41
-1.16024 1.26279 -0.205971 59
-1.15234 1.25505 -0.323793 47
-1.14648 1.25038 -0.444879 45
-1.15303 1.25754 0.385208 53
-1.68112 1.28172 0.556382 45
-1.15696 1.26142 0.264962 50
-1.67837 1.2842 0.403675 44
-1.15319 1.25731 0.146204 52
-1.66955 1.28066 0.253736 49
-1.1571 1.26203 0.0292764 50
-1.66879 1.28191 0.108466 42
-1.15887 1.2644 -0.0883485 55
-1.66616 1.28127 -0.0360828 41
-1.15658 1.26278 -0.205666 59
-1.14684 1.25344 -0.32284 55
-1.14592 1.25416 -0.445525 45
-1.14479 1.26176 0.384646 53
-1.66311 1.28139 0.552505 45
-1.14702 1.2638 0.264182 52
-1.66213 1.28519 0.401292 44
-1.14514 1.26129 0.145986 52
-1.65496 1.28332 0.252519 47
-1.14735 1.26417 0.0291891 52
-1.65613 1.28605 0.108074 42
-1.14888 1.26675 -0.0880859 55
-1.64779 1.28051 -0.0358211 41
-1.14163 1.25962 -0.204145 61
-1.13719 1.25558 -0.321888 53
-1.13308 1.25277 -0.442939 47
-1.13769 1.25833 0.382962 53
-1.65322 1.2784 0.54992 49
-1.13985 1.2603 0.263011 52
-1.65189 1.28238 0.399386 45
-1.13792 1.25774 0.145332 52
-1.6488 1.28317 0.251911 47
-1.13822 1.25895 0.0290146 55
-1.64599 1.28282 0.10755 42
-1.14165 1.26319 -0.0876921 56
-1.64358 1.28186 -0.0357774 41
-1.13776 1.25977 -0.203841 59
-1.13335 1.25574 -0.321412 61
-1.12422 1.24777 -0.440352 56
-1.126 1.25901 0.381277 55
-1.63865 1.2814 0.547335 47
-1.12808 1.26092 0.26184 52
-1.64128 1.28799 0.398433 44
-1.12944 1.26202 0.145114 52
-1.63206 1.28442 0.25039 47
-1.12661 1.2593 0.0288837 52
-1.63117 1.28554 0.107027 42
-1.13003 1.26357 -0.0872983 58
-1.63072 1.2861 -0.0356465 42
-1.13093 1.2659 -0.203841 59
-0.949114 0.750824 -0.102639 11
-1.12164 1.25636 -0.319983 82
-1.11927 1.25544 -0.440999 89
-1.1224 1.25896 0.380715 55
-1.6288 1.27831 0.54475 47
-1.12117 1.25716 0.26067 52
-1.62744 1.28177 0.395573 45
-1.12227 1.25841 0.144461 52
-1.62224 1.28085 0.249173 47
-1.12275 1.25939 0.0288401 53
-1.61934 1.28038 0.106373 41
-1.12616 1.26367 -0.087167 58
-1.61669 1.27966 -0.0353848 42
-1.12235 1.26026 -0.202624 61
-0.947802 0.752479 -0.102639 11
-1.10804 1.24547 -0.31665 97
-1.11387 1.25378 -0.439706 93
-1.11257 1.26116 0.379592 55
-1.61283 1.27905 0.54152 49
-1.11294 1.26116 0.26028 53
-1.61709 1.28694 0.39462 45
-1.10765 1.25473 0.143371 53
-1.60774 1.28315 0.247956 45
-1.10975 1.25756 0.0286656 53
-1.6048 1.28263 0.105849 42
-1.11645 1.26561 -0.0869045 56
-1.60824 1.28627 -0.0353411 42
-1.11082 1.26053 -0.201711 65
-0.94593 0.758818 -0.102856 8
-1.10496 1.25475 -0.317603 90
-1.10592 1.25758 -0.439059 80
-1.10416 1.25559 0.377346 55
-1.60681 1.27887 0.540227 49
-1.10585 1.25753 0.259109 53
-1.60908 1.28518 0.39319 45
-1.10546 1.25666 0.143371 53
-1.59579 1.27822 0.246435 45
-1.10756 1.25949 0.0286656 55
-1.59475 1.27919 0.105326 42
-1.11095 1.2638 -0.0866419 56
-1.59037 1.2766 -0.0349921 41
-1.10698 1.2606 -0.201407 67
-0.93682 0.754251 -0.101986 4
-1.09307 1.2456 -0.314746 70
-1.09895 1.25406 -0.437119 61
-1.08936 1.25235 0.374539 55
-1.58878 1.27821 0.53635 50
-1.09602 1.25958 0.258328 52
-1.59085 1.28437 0.390331 44
-1.09397 1.2568 0.142718 53
-1.57942 1.27878 0.244913 45
-1.09767 1.2615 0.0285783 53
-1.57832 1.27969 0.104672 42
-1.10104 1.26583 -0.0863794 55
-1.57588 1.27862 -0.0348176 41
-1.09874 1.26451 -0.201103 65
-0.942548 0.766967 -0.103074 4
-1.08975 1.25502 -0.315698 61
-1.09079 1.25797 -0.436473 58
-1.0858 1.25221 0.373977 55
-1.5809 1.27644 0.534411 50
-1.09058 1.25776 0.257548 53
-1.58096 1.28098 0.388424 45
-1.09014 1.25682 0.1425 53
-1.56946 1.27529 0.243696 47
-1.09383 1.26153 0.0285347 53
-1.57414 1.28087 0.104541 44
-1.08903 1.25642 -0.0855917 58
-1.56394 1.2735 -0.0345994 41
-1.09166 1.26079 -0.20019 65
-0.945078 0.771746 -0.103508 4
-1.08114 1.24949 -0.313793 62
-1.08702 1.25804 -0.435826 59
-1.56672 1.27134 -0.457083 45
-1.07743 1.25622 0.373416 55
-1.56669 1.27861 0.531826 52
-1.08077 1.2597 0.256768 53
-1.56852 1.28459 0.386994 45
-1.07868 1.25684 0.141846 53
-1.55892 1.28035 0.243088 49
-1.07908 1.25774 0.0283165 55
-1.55196 1.27644 0.103494 41
-1.08406 1.264 -0.085723 56
-1.55531 1.28009 -0.0345558 42
-1.08182 1.26272 -0.199582 64
-1.0698 1.24953 -0.312365 65
-1.07885 1.26188 -0.435179 59
-1.54872 1.27028 -0.453714 45
-1.06913 1.2505 0.37117 56
-1.5551 1.27372 0.528595 50
-1.07536 1.25783 0.255987 52
-1.55678 1.27955 0.384611 44
-1.07325 1.25493 0.14141 55
-1.54709 1.2752 0.241567 49
-1.07688 1.25963 0.0283165 53
-1.54394 1.2744 0.103102 42
-1.07537 1.2583 -0.0851979 56
-1.54342 1.27487 -0.0343376 44
-1.07478 1.25894 -0.198669 62
-1.06761 1.2514 -0.312365 68
-1.07352 1.26008 -0.433886 59
-1.53896 1.26681 -0.451468 47
-1.06077 1.2544 0.370608 56
-1.54282 1.27723 0.526657 50
-1.06398 1.25778 0.254816 53
-1.5406 1.27987 0.382228 45
-1.06185 1.25482 0.140757 55
-1.53466 1.27853 0.240654 49
-1.06543 1.25952 0.0281856 55
-1.53148 1.27768 0.102709 42
-1.06555 1.2601 -0.0849353 56
-1.52903 1.27654 -0.0341631 44
-1.06018 1.25506 -0.197148 67
-1.50269 1.25423 -0.167875 18
-1.05946 1.25509 -0.311889 68
-1.05757 1.2546 -0.430006 58
-1.53043 1.27329 -0.450906 45
-1.05566 1.25234 0.369485 56
-1.53314 1.27377 0.524072 52
-1.06179 1.25963 0.254816 53
-1.5327 1.27786 0.380799 45
-1.05805 1.25477 0.140539 55
-1.52289 1.27327 0.239133 50
-1.06163 1.25946 0.028142 55
-1.51966 1.27236 0.102055 44
-1.06013 1.25813 -0.0846728 56
-1.52296 1.27601 -0.0340758 45
-1.05958 1.25881 -0.197452 67
-1.51581 1.26961 -0.169615 35
-1.05412 1.25318 -0.310936 70
-1.05849 1.26014 -0.4313 58
-1.52258 1.27129 -0.449222 47
-1.04398 1.2526 0.3678 56
-1.51696 1.2743 0.520841 52
-1.05022 1.25967 0.253646 53
-1.52012 1.2814 0.379369 45
-1.04647 1.25473 0.139885 56
-1.51028 1.2767 0.23822 49
-1.0516 1.26134 0.0280547 55
-1.50321 1.27252 0.101401 44
-1.04852 1.25809 -0.084279 56
-1.5103 1.2794 -0.0339449 45
-1.05117 1.26262 -0.197148 67
-1.49939 1.26977 -0.168527 35
-1.04105 1.25132 -0.309032 71
-1.50459 1.27238 -0.306949 47
-1.04703 1.26028 -0.42936 59
-1.50636 1.27168 -0.446414 47
-1.04045 1.25236 0.367239 56
-1.50733 1.27074 0.518256 52
-1.04351 1.25561 0.252475 53
-1.51037 1.27773 0.377463 45
-1.04428 1.25656 0.139885 56
-1.50069 1.27267 0.237003 49
-1.04142 1.25356 0.0278366 55
-1.50121 1.27488 0.101401 45
-1.04473 1.258 -0.0841477 58
-1.50044 1.27557 -0.0337704 45
-1.04285 1.25662 -0.195931 68
-1.49718 1.27238 -0.168527 44
-1.03886 1.25313 -0.309032 73
-1.50048 1.27341 -0.306558 49
-1.03867 1.25466 -0.426773 59
-1.49877 1.26933 -0.44473 47
-1.02925 1.25214 0.365554 58
-1.49535 1.27367 0.516317 53
-1.03535 1.25915 0.252085 53
-1.49641 1.279 0.375556 47
-1.03158 1.25413 0.139013 55
-1.48834 1.27568 0.23609 50
-1.03347 1.25688 0.027793 55
-1.48692 1.27624 0.100878 45
-1.03518 1.25941 -0.0838851 56
-1.48636 1.27665 -0.0335959 45
-1.03469 1.26015 -0.195626 67
-1.48504 1.27509 -0.167875 44
-1.0294 1.25458 -0.308079 65
-1.4844 1.27324 -0.3046 47
-1.03231 1.2599 -0.426773 59
-1.48468 1.27084 -0.442484 45
-1.02419 1.24999 0.364431 56
-1.48945 1.27315 0.515025 52
-1.03002 1.25713 0.251304 53
-1.48671 1.27523 0.37365 47
-1.02624 1.25207 0.138578 55
-1.47669 1.27021 0.234569 50
-1.02653 1.25288 0.0276621 55
-1.479 1.27396 0.100485 45
-1.0314 1.25928 -0.0837538 58
-1.47844 1.27436 -0.033465 45
-1.02935 1.25811 -0.195018 70
-1.47525 1.27119 -0.167005 45
-1.021 1.24876 -0.306175 68
-1.47655 1.27101 -0.303426 49
-1.02858 1.25982 -0.426127 59
-1.4732 1.26552 -0.439676 47
-1.01282 1.24983 0.362747 56
-1.47544 1.27463 0.51244 52
-1.01722 1.25483 0.249743 53
-1.47444 1.27819 0.37222 45
-1.0181 1.25549 0.13836 53
-1.46626 1.27468 0.233961 50
-1.01838 1.25629 0.0276184 56
-1.46665 1.27678 0.100093 45
-1.01515 1.2532 -0.0829662 58
-1.46419 1.27554 -0.0332905 47
-1.01495 1.25383 -0.193497 73
-1.4627 1.27426 -0.166353 44
-1.01445 1.25409 -0.306175 62
-1.45867 1.26903 -0.301077 47
-1.01439 1.25579 -0.422893 59
-1.46103 1.26844 -0.437991 45
-1.01064 1.25159 0.362747 58
-1.46407 1.26932 0.509209 52
-1.01192 1.25276 0.248963 55
-1.46456 1.27459 0.370314 47
-1.00965 1.24951 0.137488 55
-1.45842 1.27235 0.233048 50
-1.01126 1.25241 0.0274875 56
-1.46253 1.2777 0.0999617 45
-1.01453 1.25691 -0.0830975 59
-1.4563 1.27317 -0.0331596 47
-1.01587 1.25946 -0.194105 70
-1.45484 1.27191 -0.1657 44
-1.01226 1.25586 -0.306175 64
-1.45832 1.27319 -0.301468 50
-1.015 1.2615 -0.424187 59
-1.45145 1.2646 -0.435745 47
-0.997777 1.24942 0.360501 58
-1.4499 1.27087 0.506624 52
-1.00205 1.25436 0.248183 55
-1.45232 1.2774 0.368884 47
-0.99977 1.25107 0.137052 55
-1.44778 1.27695 0.23244 50
-1.00313 1.25573 0.0274439 56
-1.4481 1.279 0.0994383 47
-1.00327 1.25635 -0.0827036 58
-1.44564 1.27773 -0.0330723 47
-1.00131 1.25524 -0.192584 73
-1.44255 1.27458 -0.165048 44
-1.00086 1.25556 -0.304746 62
-1.4405 1.27103 -0.299119 50
-1.00538 1.26302 -0.422893 61
-1.43725 1.26602 -0.433499 47
-0.994297 1.24908 0.359939 58
-1.44404 1.27022 0.505332 52
-0.997007 1.25206 0.247402 55
-1.44456 1.27507 0.367454 47
-0.994485 1.24891 0.136617 56
-1.44018 1.2743 0.231527 50
-0.99783 1.25357 0.0273566 56
-1.43672 1.27302 0.0987841 45
-1.00107 1.2581 -0.0827036 59
-1.43591 1.27363 -0.0328978 47
-0.996254 1.25292 -0.191976 73
-1.43658 1.2738 -0.164613 44
-0.997144 1.25538 -0.30427 65
-1.43272 1.26865 -0.297945 50
-0.992682 1.25152 -0.418367 59
-1.42978 1.26345 -0.431814 47
-0.986238 1.25235 0.359377 58
-1.43217 1.27271 0.503393 53
-0.987384 1.25338 0.246622 56
-1.42891 1.27422 0.365071 47
-0.986612 1.25197 0.136399 56
-1.42422 1.27358 0.230006 52
-0.988382 1.25467 0.0272694 58
-1.42631 1.2772 0.0985224 47
-0.989844 1.25743 -0.0823098 59
-1.42571 1.27756 -0.0328105 47
-0.986615 1.25422 -0.191367 73
-1.42432 1.27633 -0.163961 45
-0.986232 1.25462 -0.302841 68
-1.42053 1.27121 -0.29677 52
-0.987824 1.25843 -0.419014 61
-1.4195 1.26768 -0.430691 47
-0.981046 1.25024 0.358254 58
-1.42633 1.272 0.502101 53
-0.986719 1.25705 0.247012 55
-1.42096 1.27207 0.363641 49
-0.982889 1.25173 0.136181 56
-1.41645 1.27111 0.229093 50
-0.982889 1.25263 0.0271821 56
-1.4185 1.2747 0.0981299 47
-0.986109 1.25719 -0.0821785 58
-1.41417 1.27171 -0.0325924 45
-0.985953 1.25789 -0.191671 71
-1.41281 1.27051 -0.162874 45
-0.985552 1.25827 -0.303318 62
-1.41462 1.27039 -0.295987 52
-0.980949 1.25461 -0.417074 59
-1.40819 1.26205 -0.427884 49
-0.968301 1.24782 0.356008 58
-1.41224 1.27325 0.499516 53
-0.97234 1.25261 0.245061 56
-1.40699 1.27292 0.361735 49
-0.976102 1.25703 0.136181 56
-1.40402 1.27376 0.22818 52
-0.971723 1.25183 0.0270512 56
-1.40602 1.27733 0.0977374 45
-0.979513 1.26234 -0.0821785 58
-1.40171 1.27431 -0.0324615 45
-0.973059 1.25536 -0.190454 71
-1.39875 1.27121 -0.162004 44
-0.974226 1.25776 -0.301889 67
-1.39879 1.26951 -0.294029 50
-0.969939 1.254 -0.415134 59
-1.39591 1.26476 -0.426199 49
-0.966339 1.24934 0.356008 59
-1.40104 1.26764 0.496285 53
-0.968862 1.25218 0.244671 56
-1.40294 1.27373 0.361258 49
-0.966295 1.24888 0.135091 58
-1.39466 1.26931 0.226963 52
-0.971065 1.2555 0.0270949 58
-1.39477 1.27115 0.0970832 44
-0.968156 1.25219 -0.0813909 59
-1.39023 1.26836 -0.0322433 47
-0.969571 1.25492 -0.19015 71
-1.39284 1.2703 -0.161569 45
-0.969034 1.25557 -0.300937 65
-1.39291 1.26863 -0.293246 50
-0.961859 1.24803 -0.412547 59
-1.39031 1.26368 -0.425076 49
-0.958306 1.25245 0.355447 59
-1.39103 1.27146 0.494993 53
-0.962293 1.25724 0.244671 56
-1.38923 1.2742 0.359352 49
-0.958449 1.25177 0.134874 56
-1.38067 1.26989 0.225746 52
-0.96318 1.25842 0.0270512 58
-1.37889 1.27001 0.096429 44
-0.960071 1.25526 -0.0812596 59
-1.37826 1.27031 -0.0321124 47
-0.959977 1.25603 -0.189542 73
-1.37699 1.26916 -0.160482 44
-0.961179 1.25851 -0.300461 64
-1.37715 1.26757 -0.291289 52
-0.95553 1.25288 -0.412547 59
-1.37828 1.26601 -0.423392 49
-0.953168 1.25024 0.354324 58
-1.38167 1.26738 0.492408 53
-0.954114 1.25105 0.24311 56
-1.38135 1.27189 0.357922 49
-0.954754 1.25146 0.134656 56
-1.3748 1.26894 0.225138 52
-0.954707 1.25231 0.0268767 58
-1.37667 1.27241 0.096429 47
-0.956367 1.25494 -0.0811283 59
-1.36868 1.26594 -0.0319379 47
-0.953278 1.25178 -0.188629 74
-1.37111 1.26819 -0.160047 44
-0.954527 1.25432 -0.299032 68
-1.37129 1.26663 -0.290506 50
-0.944368 1.24317 -0.408668 59
-1.36709 1.26018 -0.420584 49
-0.941996 1.24954 0.352639 59
-1.37302 1.2732 0.491762 53
-0.945846 1.25422 0.242719 56
-1.36927 1.2741 0.356492 49
-0.943475 1.25064 0.134002 58
-1.36064 1.26961 0.223921 53
-0.943627 1.2513 0.0267458 56
-1.36245 1.27304 0.0959056 47
-0.946781 1.25594 -0.0808658 59
-1.35998 1.27163 -0.0318943 45
-0.945 1.25493 -0.188325 79
-1.35168 1.26348 -0.158524 45
-0.946253 1.2575 -0.298556 67
-1.36102 1.27043 -0.289723 52
-0.936397 1.24617 -0.408021 58
-1.35489 1.26259 -0.418899 50
-0.937108 1.24712 0.351516 59
-1.36193 1.26739 0.488531 55
-0.940911 1.25176 0.241939 58
-1.36344 1.27315 0.355539 49
-0.939796 1.25029 0.133784 56
-1.35501 1.26836 0.223312 52
-0.939942 1.25094 0.0267022 58
-1.35497 1.27007 0.0955131 47
-0.941593 1.2536 -0.0806032 59
-1.34863 1.26547 -0.0316761 47
-0.943028 1.25642 -0.188325 71
-1.34765 1.26414 -0.158307 45
-0.938175 1.25129 -0.296651 64
-1.35519 1.26944 -0.28894 50
-0.93133 1.24393 -0.406728 59
-1.34756 1.25974 -0.417215 50
-0.932017 1.25397 0.352078 58
-1.35021 1.26932 0.486592 55
-0.931401 1.2527 0.241159 58
-1.34982 1.27332 0.353633 49
-0.931971 1.25303 0.133566 58
-1.33932 1.26694 0.221791 53
-0.933599 1.25568 0.0267022 58
-1.34103 1.2703 0.0949898 47
-0.932261 1.25434 -0.0803407 59
-1.33857 1.26885 -0.0315889 49
-0.932004 1.25536 -0.187412 73
-1.33761 1.26753 -0.157872 45
-0.930369 1.25406 -0.296175 62
-1.33774 1.26636 -0.286591 53
-0.923586 1.24668 -0.406081 59
-1.33739 1.26345 -0.416092 50
-0.922804 1.24564 0.34927 59
-1.34271 1.26671 0.484653 55
-0.927745 1.25234 0.240768 58
-1.34224 1.27062 0.352203 49
-0.92682 1.25065 0.13313 56
-1.3353 1.26757 0.221487 53
-0.923975 1.24726 0.026484 58
-1.33519 1.26921 0.0947281 49
-0.928586 1.25396 -0.0802094 61
-1.3309 1.26603 -0.031458 47
-0.92539 1.25099 -0.186499 77
-1.32997 1.26472 -0.15722 47
-0.928179 1.25568 -0.296175 61
-1.33015 1.26361 -0.285416 52
-0.917112 1.24246 -0.404141 58
-1.32987 1.26076 -0.414407 50
-0.914613 1.24865 0.348708 58
-1.3273 1.26542 0.481422 53
-0.916802 1.2512 0.239598 59
-1.32668 1.26918 0.34982 50
-0.917318 1.25147 0.132695 56
-1.32146 1.26769 0.22027 53
-0.918907 1.2541 0.0265277 58
-1.3213 1.26928 0.0942047 49
-0.917369 1.25292 -0.0798156 59
-1.31342 1.26262 -0.0311962 47
-0.917364 1.25382 -0.186195 77
-1.31411 1.26329 -0.156132 47
-0.918698 1.25655 -0.295223 61
-1.31815 1.26544 -0.284241 52
-0.906327 1.24139 -0.402201 58
-1.31443 1.25931 -0.4116 49
-0.910998 1.24827 0.348147 59
-1.32159 1.2644 0.48013 55
-0.911708 1.24881 0.238817 58
-1.31892 1.26663 0.34839 50
-0.910731 1.24703 0.132041 56
-1.31208 1.26313 0.219053 53
-0.910611 1.24778 0.0263531 58
-1.31548 1.26813 0.093943 49
-0.91665 1.25653 -0.0799469 59
-1.3058 1.25972 -0.0310653 47
-0.913714 1.25341 -0.185891 79
-1.3101 1.26386 -0.155915 49
-0.91506 1.25617 -0.294747 64
-1.31238 1.26432 -0.283458 53
-0.906779 1.24704 -0.403495 58
-1.30695 1.25655 -0.409915 50
-0.898537 1.24527 0.345901 58
-1.3095 1.26651 0.478191 53
-0.902051 1.24972 0.238037 59
-1.30874 1.27011 0.347437 50
-0.901059 1.2479 0.131605 58
-1.30344 1.26848 0.218749 55
-0.901143 1.24848 0.0262659 59
-1.30143 1.26828 0.0934197 49
-0.907141 1.25726 -0.0796843 59
-1.29717 1.26502 -0.0310216 47
-0.902572 1.25229 -0.184978 79
-1.29632 1.26377 -0.155045 49
-0.90252 1.25313 -0.292842 64
-1.29865 1.26431 -0.281892 52
-0.893196 1.24196 -0.400262 59
-1.29663 1.26021 -0.408792 50
-0.895159 1.24471 0.345339 59
-1.30208 1.26376 0.476253 55
-0.897207 1.24712 0.237256 59
-1.29947 1.26557 0.345531 50
-0.89888 1.24947 0.131605 58
-1.29433 1.26362 0.217532 53
-0.90042 1.25208 0.0263095 58
-1.29228 1.26336 0.0928963 47
-0.899123 1.25073 -0.0791592 61
-1.2878 1.26031 -0.0308471 49
-0.897712 1.24968 -0.18437 79
-1.29054 1.26256 -0.15461 47
-0.898903 1.25271 -0.292366 62
-1.28581 1.25625 -0.279543 53
-0.889622 1.24155 -0.399615 59
-1.2894 1.25716 -0.407107 50
-0.88863 1.24938 0.345339 59
-1.29048 1.26528 0.474314 55
-0.890664 1.2518 0.237256 58
-1.2948 1.27384 0.346007 50
-0.888217 1.24791 0.130951 58
-1.27884 1.26169 0.216011 55
-0.88973 1.2505 0.0261786 58
-1.27674 1.26136 0.0922421 49
-0.889891 1.25119 -0.0788966 64
-1.27784 1.26331 -0.0307599 49
-0.891156 1.25436 -0.18437 79
-1.27703 1.26209 -0.15374 49
-0.893969 1.25925 -0.292842 61
-1.27922 1.26296 -0.279543 53
-0.880537 1.2421 -0.398322 59
-1.27584 1.25708 -0.404861 50
-0.885259 1.24878 0.344778 59
-1.28654 1.26584 0.473668 56
-0.885626 1.24932 0.236476 59
-1.28207 1.26578 0.343148 50
-0.88316 1.24539 0.130516 58
-1.27487 1.26217 0.215706 53
-0.884658 1.24797 0.0260913 58
-1.27276 1.26183 0.0921113 49
-0.884823 1.24867 -0.0786341 62
-1.27207 1.26202 -0.0306726 49
-0.883239 1.24781 -0.183153 79
-1.27305 1.26257 -0.153523 50
-0.886109 1.25279 -0.290937 62
-1.27173 1.25999 -0.278369 53
-0.876977 1.24166 -0.397675 59
-1.27017 1.25588 -0.403738 50
-0.875479 1.24971 0.343655 59
-1.27281 1.26599 0.471083 56
-0.876023 1.25005 0.235695 59
-1.27172 1.26924 0.342195 52
-0.873553 1.24607 0.13008 56
-1.26274 1.2638 0.214794 55
-0.877893 1.25274 0.0260913 59
-1.26238 1.26518 0.0918496 49
-0.878054 1.25344 -0.0786341 61
-1.25815 1.26183 -0.0304981 50
-0.877895 1.2546 -0.183457 77
-1.26267 1.26592 -0.153088 50
-0.876508 1.25354 -0.289985 61
-1.26162 1.26315 -0.277586 53
-0.873007 1.25035 -0.398968 59
-1.2599 1.2593 -0.402615 50
-0.870729 1.24709 0.342532 59
-1.26545 1.26311 0.469145 56
-0.86841 1.24332 0.234135 58
-1.26428 1.26627 0.340765 52
-0.871377 1.2476 0.13008 58
-1.25549 1.26052 0.213881 55
-0.874276 1.25222 0.0260477 58
-1.2551 1.26186 0.0914571 47
-0.874438 1.25292 -0.0785028 61
-1.25064 1.25871 -0.0303672 50
-0.873088 1.2519 -0.182848 79
-1.25518 1.26283 -0.152436 50
-0.877121 1.25909 -0.290937 62
-1.25243 1.25837 -0.27602 55
-0.866692 1.24592 -0.397028 59
-1.25102 1.2544 -0.400369 50
-0.861423 1.24762 0.341409 59
-1.25222 1.26265 0.46656 58
-0.861888 1.24785 0.234135 59
-1.25267 1.26743 0.339335 52
-0.862224 1.24789 0.129644 56
-1.24712 1.26532 0.213577 55
-0.862252 1.2484 0.0258732 59
-1.24847 1.26841 0.0914571 50
-0.866668 1.25527 -0.0783715 62
-1.2425 1.26325 -0.0303236 50
-0.862301 1.25033 -0.181936 80
-1.24877 1.26917 -0.152436 50
-0.863783 1.25341 -0.288556 65
-1.24408 1.26315 -0.275628 55
-0.861742 1.25228 -0.397675 59
-1.241 1.25747 -0.399246 52
-0.858083 1.24696 0.340847 59
-1.24491 1.2597 0.464621 58
-0.856913 1.24528 0.233354 58
-1.247 1.26612 0.338382 52
-0.860044 1.24939 0.129644 58
-1.23968 1.26219 0.212664 55
-0.855827 1.24372 0.0257423 59
-1.241 1.26526 0.0910646 50
-0.86165 1.25267 -0.078109 62
-1.24029 1.26542 -0.0303236 52
-0.85731 1.24774 -0.181327 82
-1.24306 1.2678 -0.152001 50
-0.864369 1.25896 -0.289509 62
-1.23494 1.25829 -0.274062 56
-0.858191 1.25179 -0.397028 59
-1.23367 1.25444 -0.397561 52
-0.848587 1.24756 0.339724 59
-1.22814 1.25587 0.460744 56
-0.847606 1.24566 0.232574 59
-1.23348 1.26562 0.336475 52
-0.849292 1.2477 0.128991 59
-1.22786 1.26334 0.211751 55
-0.852112 1.25232 0.0258296 59
-1.22912 1.26638 0.090672 50
-0.852275 1.25303 -0.0778464 64
-1.23016 1.26832 -0.0302363 52
-0.853551 1.25632 -0.181936 77
-1.22945 1.26716 -0.151131 52
-0.850882 1.25331 -0.287128 61
-1.22661 1.26298 -0.27367 56
-0.850272 1.25426 -0.396382 59
-1.22368 1.2574 -0.396438 52
-0.843896 1.24485 0.338601 61
-1.22256 1.25456 0.459451 55
-0.846814 1.24919 0.232964 58
-1.22613 1.26251 0.335046 52
-0.845717 1.24712 0.128773 58
-1.22392 1.26371 0.211447 56
-0.847124 1.24966 0.0257423 59
-1.21821 1.25957 0.0900178 50
-0.848688 1.25245 -0.0777152 64
-1.22098 1.26329 -0.0300618 52
-0.84719 1.25163 -0.181023 80
-1.2255 1.26752 -0.150914 50
-0.848693 1.25479 -0.287128 61
-1.21924 1.25981 -0.272496 56
-0.848082 1.25575 -0.396382 59
-1.21808 1.25605 -0.395315 52
-0.837149 1.2494 0.338601 61
-1.20925 1.25401 0.456867 55
-0.836143 1.24745 0.231793 59
-1.2178 1.26715 0.334569 52
-0.836406 1.24739 0.128337 59
-1.21384 1.26652 0.210838 56
-0.837789 1.24993 0.025655 59
-1.20987 1.26414 0.089887 50
-0.839344 1.25273 -0.0774526 61
-1.20741 1.26246 -0.0298872 50
-0.83649 1.24986 -0.18011 82
-1.20849 1.26315 -0.149609 50
-0.835299 1.24901 -0.284747 61
-1.2092 1.26262 -0.271713 55
-0.834799 1.25012 -0.393149 59
-1.20303 1.25364 -0.392508 50
-0.832483 1.24666 0.337478 61
-1.20203 1.25091 0.454928 55
-0.831226 1.24479 0.231013 59
-1.20707 1.26043 0.332186 53
-0.831465 1.2447 0.127901 59
-1.20303 1.25969 0.209317 56
-0.831448 1.24515 0.0255241 59
-1.2042 1.26264 0.0896253 50
-0.834387 1.25003 -0.0771901 68
-1.20002 1.25915 -0.0297564 52
-0.831558 1.24719 -0.179502 83
-1.20628 1.26526 -0.149609 52
-0.831759 1.24843 -0.284271 61
-1.19674 1.25403 -0.269364 55
-0.83128 1.24957 -0.392502 59
-1.19577 1.25047 -0.390823 45
-0.824386 1.24911 0.336916 61
-1.19546 1.25718 0.454928 56
-0.823338 1.24707 0.230623 59
-1.20045 1.26673 0.332186 53
-0.822195 1.24488 0.127465 59
-1.193 1.26238 0.208709 55
-0.824917 1.24948 0.0255241 59
-1.1907 1.26169 0.089102 50
-0.823494 1.24827 -0.0767962 73
-1.18481 1.25635 -0.0295382 52
-0.820925 1.24531 -0.178589 80
-1.19599 1.26815 -0.149174 52
-0.821167 1.24661 -0.282842 61
-1.18845 1.25849 -0.268972 55
-0.823401 1.25188 -0.391855 59
-1.18249 1.24966 -0.388577 42
-0.818195 1.24444 0.335232 59
-1.18993 1.25577 0.453636 56
-0.81574 1.24024 0.229062 59
-1.19464 1.26548 0.331233 52
-0.818654 1.24423 0.127247 59
-1.18397 1.25725 0.207492 55
-0.819774 1.24689 0.0254369 59
-1.18335 1.25832 0.0887094 52
-0.817206 1.24345 -0.0764024 68
-1.1809 1.2566 -0.0294946 52
-0.81739 1.24466 -0.178285 82
-1.18864 1.26481 -0.148522 52
-0.820334 1.2501 -0.283319 59
-1.18286 1.25698 -0.268189 55
-0.817032 1.2474 -0.389916 59
-1.17192 1.24288 -0.385769 41
-0.8088 1.24476 0.334109 59
-1.17981 1.25868 0.452343 58
-0.809018 1.24464 0.229062 59
-1.17792 1.26098 0.328373 53
-0.807843 1.24237 0.126594 59
-1.17546 1.26183 0.207188 55
-0.810513 1.24697 0.0253496 59
-1.17482 1.26288 0.0885786 52
-0.810684 1.24771 -0.0764024 68
-1.16726 1.25566 -0.02932 52
-0.810644 1.24907 -0.178285 82
-1.1718 1.2601 -0.147217 52
-0.808225 1.24627 -0.281414 61
-1.17458 1.26135 -0.267798 56
-0.805247 1.24354 -0.387329 59
-1.16185 1.24565 -0.384646 39
-0.802877 1.23989 0.332424 61
-1.171 1.25369 0.449758 56
-0.80304 1.23969 0.227891 59
-1.17404 1.26124 0.327897 53
-0.805673 1.24378 0.126594 59
-1.17009 1.26004 0.206579 55
-0.804266 1.24208 0.0252187 61
-1.16943 1.26107 0.0883169 52
-0.803087 1.24073 -0.0758773 71
-1.16506 1.2577 -0.02932 53
-0.808681 1.25034 -0.178285 80
-1.1679 1.26032 -0.146999 52
-0.803389 1.24356 -0.280462 64
-1.16732 1.25798 -0.266623 55
-0.801768 1.24292 -0.386682 59
-1.1549 1.24214 -0.382962 39
-0.793751 1.23997 0.331301 61
-1.16135 1.25607 0.448466 56
-0.801857 1.2522 0.229452 59
-1.16597 1.26537 0.32742 53
-0.798026 1.24575 0.126376 59
-1.15337 1.25522 0.204754 56
-0.797969 1.24614 0.0252187 61
-1.15604 1.25984 0.0877936 50
-0.799267 1.24913 -0.0761399 70
-1.15529 1.2599 -0.0292328 53
-0.799453 1.25037 -0.177676 82
-1.15959 1.26459 -0.146782 52
-0.797084 1.24761 -0.280462 61
-1.15569 1.25864 -0.265449 56
-0.795467 1.24696 -0.386682 59
-1.14507 1.24459 -0.381839 39
-0.790278 1.2393 0.33074 61
-1.15423 1.25278 0.446527 55
-0.79304 1.24318 0.227501 61
-1.15522 1.25859 0.325037 53
-0.791837 1.24084 0.125722 61
-1.14949 1.2554 0.204449 56
-0.794233 1.24556 0.0251751 61
-1.14877 1.25634 0.087401 50
-0.793065 1.2442 -0.075746 70
-1.15309 1.26192 -0.0292328 55
-0.793277 1.24548 -0.176764 85
-1.15064 1.25927 -0.145912 53
-0.792274 1.24485 -0.279509 59
-1.15182 1.25884 -0.265057 56
-0.789193 1.24236 -0.384743 59
-1.13959 1.243 -0.380715 42
-0.779671 1.23737 0.329055 61
-1.14254 1.25366 0.444589 58
-0.784988 1.24536 0.22711 61
-1.14861 1.26462 0.325037 53
-0.783786 1.24299 0.125504 59
-1.14101 1.25977 0.204145 58
-0.785039 1.24547 0.0250878 64
-1.13691 1.257 0.0870085 50
-0.785211 1.24622 -0.0756148 71
-1.1412 1.26259 -0.0291019 55
-0.782567 1.24345 -0.175851 79
-1.14236 1.26344 -0.145695 53
-0.781614 1.24289 -0.278081 61
-1.14023 1.25937 -0.263883 56
-0.782677 1.24648 -0.384743 59
-1.12793 1.24375 -0.379031 49
-0.776433 1.23653 0.328493 61
-1.13709 1.25209 0.443296 56
-0.780407 1.24241 0.22633 62
-1.14144 1.26118 0.323607 53
-0.781615 1.24436 0.125504 59
-1.13403 1.25605 0.203232 58
-0.780209 1.2426 0.0250006 65
-1.12991 1.25323 0.086616 50
-0.783035 1.24759 -0.0756148 70
-1.13564 1.26087 -0.0290146 56
-0.780613 1.24468 -0.175851 80
-1.13848 1.26358 -0.145477 53
-0.778142 1.24217 -0.277605 61
-1.13471 1.2577 -0.263099 56
-0.779222 1.2458 -0.384096 61
-1.12269 1.24192 -0.377908 55
-0.768665 1.2385 0.327932 61
-1.1275 1.25425 0.442004 56
-0.773891 1.24648 0.22633 61
-1.12683 1.25782 0.321224 53
-0.772683 1.24407 0.125068 61
-1.12246 1.25643 0.20232 58
-0.772594 1.24441 0.0249569 61
-1.11833 1.25356 0.0862235 52
-0.772767 1.24517 -0.0752209 70
-1.11923 1.25544 -0.0287528 55
-0.771475 1.24453 -0.175242 83
-1.12542 1.26191 -0.144607 55
-0.771845 1.24609 -0.277605 62
-1.12481 1.25995 -0.262316 56
-0.77037 1.24561 -0.382803 59
-1.11618 1.24778 -0.377908 82
-0.762881 1.23349 0.326247 59
-1.12369 1.25442 0.441358 56
-0.770418 1.24573 0.22594 61
-1.12464 1.25979 0.321224 53
-0.769202 1.24329 0.124851 61
-1.11861 1.25654 0.202016 58
-0.770421 1.24575 0.0249569 64
-1.11614 1.25551 0.0862235 53
-0.770592 1.24652 -0.0752209 71
-1.11704 1.25739 -0.0287528 55
-0.768 1.24376 -0.174938 86
-1.1199 1.26016 -0.144172 55
-0.768382 1.24535 -0.277128 67
-1.11767 1.25639 -0.261142 56
-0.7644 1.24078 -0.380863 59
-1.11562 1.25154 -0.378469 89
-0.754927 1.23552 0.325686 61
-1.1155 1.25848 0.440712 56
-0.761313 1.24553 0.225159 61
-1.11476 1.26199 0.320271 53
-0.762682 1.2473 0.124851 61
-1.10544 1.25495 0.200799 58
-0.761284 1.2455 0.0248697 65
-1.10293 1.25386 0.0857001 53
-0.760156 1.24414 -0.0748271 68
-1.10382 1.25573 -0.0285783 56
-0.762767 1.24989 -0.175242 82
-1.10833 1.26041 -0.14352 55
-0.758024 1.24306 -0.2757 67
-1.10616 1.25668 -0.259967 56
-0.755386 1.24064 -0.37957 59
-1.1042 1.2519 -0.376785 59
-0.752986 1.2367 0.325686 61
-1.10689 1.25321 0.438127 56
-0.755292 1.24052 0.223989 62
-1.10768 1.25842 0.318841 55
-0.756623 1.24225 0.124197 61
-1.09832 1.2513 0.199886 58
-0.756513 1.24256 0.0247824 67
-1.09909 1.25391 0.0855693 55
-0.756688 1.24333 -0.0746958 73
-1.09997 1.25578 -0.0285347 56
-0.75415 1.24061 -0.173721 82
-1.10119 1.25674 -0.142868 55
-0.755853 1.24438 -0.2757 67
-1.09907 1.25306 -0.258793 58
-0.750719 1.23783 -0.378276 61
-1.09556 1.24652 -0.374539 55
-0.74503 1.23867 0.325124 61
-1.09871 1.25717 0.437481 55
-0.748786 1.24446 0.223989 61
-1.09946 1.26236 0.318365 53
-0.748826 1.24406 0.123979 61
-1.08685 1.25143 0.198973 58
-0.747424 1.24221 0.0246952 67
-1.08923 1.25588 0.0853076 55
-0.748883 1.24514 -0.0745646 70
-1.09174 1.25964 -0.0284911 59
-0.745093 1.24028 -0.173113 85
-1.09296 1.26061 -0.14265 55
-0.746805 1.24411 -0.274748 65
-1.09087 1.25693 -0.258401 58
-0.741748 1.23759 -0.376983 59
-1.08742 1.25041 -0.373977 53
-0.741833 1.23775 0.324563 59
-1.09334 1.25545 0.436188 56
-0.744078 1.24153 0.223208 65
-1.0908 1.25688 0.316459 53
-0.742818 1.23895 0.123325 64
-1.08141 1.24958 0.198365 58
-0.746538 1.24566 0.0247388 64
-1.08212 1.25213 0.0849151 53
-0.745427 1.2443 -0.0744333 70
-1.08626 1.25777 -0.0284038 58
-0.745471 1.24584 -0.173721 85
-1.08749 1.25876 -0.142215 55
-0.744633 1.24541 -0.274748 67
-1.08381 1.25325 -0.257227 61
-0.742059 1.24304 -0.378276 59
-1.08043 1.24679 -0.372293 55
-0.733886 1.23965 0.324001 59
-1.08358 1.25751 0.434896 55
-0.735055 1.24115 0.222428 67
-1.0842 1.26257 0.316459 52
-0.736321 1.24282 0.123325 61
-1.07161 1.25146 0.197756 59
-0.73619 1.2431 0.0246079 65
-1.07392 1.25588 0.0847842 53
-0.737632 1.24604 -0.074302 74
-1.0764 1.25965 -0.0283165 58
-0.732633 1.23904 -0.1722 86
-1.07601 1.25877 -0.141563 56
-0.734362 1.24295 -0.273319 65
-1.07562 1.25703 -0.256835 61
-0.73064 1.23858 -0.37569 59
-1.07071 1.24874 -0.37117 55
-0.72576 1.2303 0.321194 59
-1.07665 1.25392 0.432957 55
-0.730382 1.23818 0.221647 64
-1.07399 1.25516 0.314076 53
-0.729096 1.23552 0.122454 62
-1.06619 1.24957 0.197148 58
-0.732751 1.24223 0.0245643 65
-1.06685 1.25207 0.0843917 55
-0.732925 1.24302 -0.0740395 77
-1.07095 1.25773 -0.0282293 58
-0.730469 1.24032 -0.1722 85
-1.06733 1.25308 -0.140693 55
-0.728464 1.23788 -0.271891 64
-1.06861 1.25329 -0.255661 61
-0.729699 1.24194 -0.376336 59
-1.06694 1.24876 -0.370608 55
-0.720101 1.23644 0.321755 61
-1.06828 1.25789 0.432311 55
-0.723673 1.24211 0.221647 62
-1.06559 1.25909 0.313599 53
-0.724904 1.24375 0.12289 61
-1.05299 1.24775 0.195931 59
-0.724763 1.24401 0.0245206 65
-1.05522 1.25211 0.0839992 53
-0.726188 1.24697 -0.0740395 76
-1.05767 1.25587 -0.0280547 59
-0.722502 1.24211 -0.171896 86
-1.06054 1.25884 -0.140693 55
-0.722987 1.24393 -0.272367 64
-1.06043 1.25698 -0.255269 61
-0.720549 1.24169 -0.375043 59
-1.05385 1.24709 -0.368362 55
-0.715717 1.23335 0.320632 59
-1.06295 1.25607 0.431019 55
-0.719245 1.23897 0.220867 64
-1.06339 1.26095 0.313599 53
-0.718988 1.23855 0.122236 62
-1.05103 1.2494 0.195931 59
-0.721339 1.24311 0.024477 64
-1.04681 1.24614 0.0834758 53
-0.72151 1.24391 -0.0737769 71
-1.05225 1.2539 -0.0279675 59
-0.719308 1.24109 -0.171592 86
-1.05673 1.25878 -0.140476 56
-0.719587 1.24306 -0.271891 65
-1.05505 1.25506 -0.254486 59
-0.71838 1.24294 -0.375043 59
-1.05032 1.24689 -0.3678 55
-0.70683 1.23285 0.319509 59
-1.05191 1.2559 0.42908 55
-0.710295 1.23844 0.220086 67
-1.05542 1.26443 0.313122 53
-0.71271 1.24218 0.122236 62
-1.0397 1.24918 0.195018 61
-0.711313 1.24024 0.0243461 68
-1.03867 1.24969 0.083345 53
-0.714987 1.24767 -0.0737769 71
-1.04589 1.25921 -0.0279675 61
-0.711569 1.24269 -0.171287 85
-1.04214 1.25474 -0.139388 56
-0.70842 1.23817 -0.269986 68
-1.04212 1.25299 -0.25292 59
-0.709688 1.24237 -0.37375 59
-1.03908 1.24677 -0.366116 56
-0.704677 1.23409 0.319509 58
-1.04506 1.25218 0.427141 53
-0.708133 1.23967 0.220086 67
-1.04827 1.26081 0.311693 55
-0.705606 1.23476 0.121364 61
-1.03434 1.24718 0.19441 61
-0.710168 1.24377 0.0243897 67
-1.03489 1.24958 0.0832142 53
-0.710338 1.24458 -0.0735143 73
-1.04049 1.25719 -0.0278802 61
-0.703263 1.23314 -0.169766 85
-1.03836 1.25464 -0.139171 55
-0.703832 1.23513 -0.269034 70
-1.03835 1.25291 -0.252529 59
-0.702535 1.23532 -0.371163 59
-1.03378 1.24484 -0.364993 56
-0.695601 1.23363 0.318386 59
-1.03364 1.25224 0.425203 55
-0.698993 1.23918 0.219306 68
-1.03696 1.26061 0.310263 53
-0.698915 1.23856 0.121364 58
-1.02599 1.25085 0.194105 59
-0.699968 1.24094 0.0242588 70
-1.02652 1.25324 0.0830833 53
-0.700139 1.24175 -0.0731205 73
-1.0305 1.25894 -0.027793 59
-0.696581 1.23693 -0.169766 86
-1.02702 1.2543 -0.138519 56
-0.699541 1.2432 -0.269986 67
-1.02864 1.25452 -0.251746 59
-0.696057 1.23899 -0.371163 59
-1.02548 1.24854 -0.364431 55
-0.693662 1.23473 0.318386 59
-1.03146 1.25405 0.425203 55
-0.697046 1.24028 0.219306 64
-1.03163 1.25863 0.30931 55
-0.696753 1.23978 0.121364 59
-1.02087 1.24862 0.193497 61
-0.692913 1.23344 0.0240843 67
-1.02138 1.25099 0.0828216 53
-0.69553 1.23862 -0.072858 74
-1.02513 1.25687 -0.0277057 59
-0.693425 1.23586 -0.169462 86
-1.02325 1.25416 -0.138301 56
-0.69258 1.23585 -0.268081 68
-1.02331 1.2525 -0.250962 59
-0.693894 1.2402 -0.371163 61
-1.01732 1.24263 -0.362185 56
-0.687188 1.23834 0.318386 59
-1.0205 1.25365 0.423264 55
-0.686953 1.23743 0.218135 67
-1.02059 1.25813 0.30788 55
-0.686847 1.23676 0.120711 64
-1.00806 1.24625 0.19228 61
-0.687872 1.23912 0.0241279 67
-1.01009 1.25051 0.0824291 55
-0.689252 1.24212 -0.072858 74
-1.01402 1.25623 -0.0275748 59
-0.684543 1.23513 -0.168853 88
-1.01375 1.25546 -0.137866 56
-0.689876 1.24579 -0.26951 68
-1.01518 1.25593 -0.250571 59
-0.685275 1.23947 -0.36987 61
-1.0108 1.24794 -0.362185 56
-0.682889 1.23515 0.317263 59
-1.01679 1.25355 0.422618 55
-0.683599 1.23647 0.217745 68
-1.01685 1.25801 0.307403 55
-0.682281 1.23359 0.120275 65
-1.00432 1.24608 0.191976 59
-0.683294 1.23594 0.0240407 68
-1.00791 1.25227 0.0824291 55
-0.687083 1.24332 -0.072858 73
-1.00869 1.25411 -0.0274875 61
-0.679992 1.23197 -0.168245 88
-1.00999 1.25529 -0.137649 56
-0.684152 1.24054 -0.268081 67
-1.00677 1.25002 -0.249005 61
-0.680785 1.23643 -0.368577 59
-1.00708 1.24781 -0.361624 56
-0.676196 1.23883 0.317263 59
-1.00414 1.25134 0.420033 55
-0.678297 1.2422 0.218135 67
-1.00871 1.2614 0.306927 55
-0.674621 1.23496 0.120057 65
-0.996227 1.24939 0.191671 59
-0.676813 1.2395 0.0240407 68
-0.998218 1.25363 0.0821674 55
-0.677959 1.24263 -0.0725954 76
-0.998981 1.25547 -0.0274003 59
-0.671161 1.23116 -0.167636 89
-1.00007 1.25685 -0.137214 56
-0.676475 1.24195 -0.267605 68
-0.995575 1.2495 -0.24783 61
-0.674302 1.23997 -0.368577 59
-0.997483 1.24927 -0.360501 56
-0.67171 1.23572 0.31614 59
-0.997414 1.24745 0.418094 55
-0.67024 1.23253 0.216184 67
-1.00322 1.25951 0.305973 55
-0.673653 1.23833 0.120275 61
-0.992495 1.24919 0.191367 59
-0.670857 1.2342 0.0239098 70
-0.991356 1.24952 0.0817749 55
-0.675789 1.24382 -0.0725954 74
-0.99367 1.2533 -0.027313 61
-0.670193 1.23451 -0.167941 89
-0.997875 1.25859 -0.137214 56
-0.670802 1.23665 -0.266177 68
-0.991851 1.2493 -0.247439 61
-0.666183 1.23064 -0.365344 58
-0.98921 1.2434 -0.358254 56
-0.662715 1.23505 0.315017 59
-0.989146 1.25094 0.417448 55
-0.664728 1.23831 0.216574 67
-0.990508 1.25705 0.304067 55
-0.664591 1.23756 0.119839 61
-0.981105 1.2487 0.190454 61
-0.666746 1.24211 0.0239971 70
-0.984581 1.25486 0.0817749 55
-0.669267 1.24734 -0.0725954 74
-0.983778 1.25474 -0.0272258 61
-0.659994 1.23155 -0.167028 89
-0.986643 1.25794 -0.136562 56
-0.665258 1.24243 -0.266653 68
-0.982016 1.25078 -0.246656 59
-0.664276 1.24264 -0.36793 58
-0.982469 1.24873 -0.358254 56
-0.66192 1.23823 0.315578 59
-0.98396 1.24888 0.416156 55
-0.662565 1.23947 0.216574 67
-0.986791 1.25685 0.30359 55
-0.658913 1.23213 0.119185 65
-0.975853 1.24651 0.189846 61
-0.659872 1.23445 0.0238225 74
-0.973128 1.24481 0.0809899 53
-0.663566 1.24189 -0.0722016 74
-0.980042 1.25449 -0.0271821 59
-0.655512 1.22832 -0.166419 86
-0.979827 1.25378 -0.135909 56
-0.657326 1.23275 -0.264272 64
-0.979831 1.25249 -0.246656 61
-0.657575 1.23526 -0.365344 58
-0.974252 1.2428 -0.356008 56
-0.652942 1.23749 0.314455 59
-0.975917 1.25211 0.41551 55
-0.652615 1.23637 0.215404 67
-0.977174 1.25813 0.302637 53
-0.652453 1.23556 0.119185 62
-0.966262 1.24769 0.189237 61
-0.6534 1.23788 0.0238225 73
-0.966597 1.24988 0.0809899 53
-0.657055 1.24535 -0.0722016 74
-0.965788 1.24973 -0.026964 59
-0.647917 1.22954 -0.166115 88
-0.970191 1.25496 -0.135474 56
-0.653144 1.24052 -0.265224 68
-0.96741 1.24964 -0.24509 59
-0.654463 1.24511 -0.367284 59
-0.964734 1.24404 -0.354885 56
-0.648735 1.2342 0.313332 59
-0.964807 1.2424 0.411632 56
-0.651819 1.23958 0.215794 65
-0.971961 1.25596 0.301684 55
-0.649138 1.23449 0.118968 59
-0.962779 1.24725 0.188933 61
-0.650077 1.23681 0.0237789 73
-0.961572 1.24746 0.0807282 53
-0.651403 1.23986 -0.0718078 77
-0.963606 1.25142 -0.026964 59
-0.643682 1.22616 -0.165507 89
-0.963422 1.25075 -0.134822 56
-0.646428 1.23296 -0.26332 64
-0.962199 1.24743 -0.244307 61
-0.652288 1.24625 -0.367284 62
-0.959787 1.24171 -0.353762 56
-0.642264 1.23758 0.313332 59
-0.957029 1.24535 0.410986 58
-0.641913 1.2364 0.214623 71
-0.961097 1.25504 0.300254 55
-0.639444 1.23113 0.118314 61
-0.9517 1.24637 0.18802 61
-0.64266 1.23786 0.0237353 73
-0.950467 1.24653 0.0803357 53
-0.647197 1.24769 -0.0720703 77
-0.954217 1.25231 -0.0268767 61
-0.639533 1.23392 -0.166115 88
-0.955344 1.2538 -0.134604 56
-0.641306 1.2384 -0.263796 64
-0.952647 1.24853 -0.243524 62
-0.641545 1.24095 -0.364697 59
-0.951787 1.24479 -0.353201 56
-0.640103 1.23869 0.313332 58
-0.950432 1.24128 0.409048 56
-0.638622 1.23532 0.214233 70
-0.957192 1.25493 0.299778 55
-0.64072 1.23888 0.118968 62
-0.948014 1.24606 0.187716 61
-0.637991 1.23465 0.023648 71
-0.946774 1.2462 0.0802048 53
-0.642732 1.24438 -0.0718078 74
-0.948995 1.25 -0.0267894 61
-0.636242 1.23283 -0.165811 89
-0.951643 1.25349 -0.134387 55
-0.635776 1.23297 -0.262367 64
-0.945965 1.24431 -0.242349 61
-0.639161 1.24218 -0.364697 59
-0.946648 1.24258 -0.352078 56
-0.632287 1.23997 0.312771 59
-0.940774 1.24257 0.407755 56
-0.630809 1.23656 0.213843 70
-0.94764 1.25602 0.298825 55
-0.627229 1.22901 0.11766 61
-0.939761 1.24919 0.187412 61
-0.632652 1.2402 0.0236916 73
-0.937006 1.24733 0.0799432 53
-0.632812 1.24105 -0.0714139 79
-0.939205 1.25113 -0.0267022 61
-0.626191 1.22962 -0.164898 88
-0.937558 1.24852 -0.1333 56
-0.629096 1.23639 -0.262367 62
-0.939437 1.24924 -0.242349 62
-0.628283 1.23689 -0.362111 59
-0.938439 1.24574 -0.351516 56
-0.628136 1.23661 0.311648 59
-0.940064 1.24613 0.408401 58
-0.628866 1.23754 0.213843 70
-0.943965 1.25571 0.298348 55
-0.623957 1.22789 0.117442 62
-0.934808 1.2467 0.186804 61
-0.627097 1.23462 0.0235607 73
-0.933544 1.2468 0.0798123 53
-0.630645 1.24216 -0.0714139 77
-0.934013 1.24877 -0.0266149 61
-0.623138 1.22839 -0.164594 88
-0.93388 1.24816 -0.133082 56
-0.62583 1.2353 -0.261891 64
-0.934282 1.24694 -0.241566 62
-0.627211 1.24014 -0.362757 61
-0.933544 1.24333 -0.350393 56
-0.619474 1.23553 0.310525 59
-0.930844 1.24701 0.407109 56
-0.622378 1.24082 0.213843 70
-0.936127 1.25851 0.297871 55
-0.619963 1.23548 0.117878 67
-0.926783 1.24959 0.186499 61
-0.62084 1.23777 0.0235607 74
-0.922526 1.24567 0.0794198 55
-0.6219 1.24097 -0.0711514 79
-0.924694 1.24947 -0.0265277 62
-0.614481 1.22719 -0.163986 88
-0.924356 1.24904 -0.132647 56
-0.617378 1.23406 -0.260939 64
-0.926264 1.24983 -0.241175 64
-0.619849 1.24114 -0.362111 59
-0.924104 1.2443 -0.34927 58
-0.617316 1.23661 0.310525 59
-0.922877 1.2409 0.404524 55
-0.616908 1.23527 0.212672 71
-0.929308 1.2544 0.296442 55
-0.616695 1.23433 0.11766 68
-0.918677 1.24324 0.185282 62
-0.616234 1.23449 0.0234735 76
-0.918862 1.24527 0.079289 55
-0.61862 1.23982 -0.0710201 77
-0.921022 1.24908 -0.026484 62
-0.611233 1.22604 -0.163681 88
-0.919206 1.24665 -0.132212 56
-0.617407 1.23953 -0.261891 62
-0.924081 1.25145 -0.241175 61
-0.61532 1.238 -0.360817 59
-0.91902 1.242 -0.348147 58
-0.609543 1.23774 0.309963 59
-0.919023 1.24976 0.405816 55
-0.610216 1.23859 0.212672 73
-0.922727 1.25925 0.296442 55
-0.605613 1.22871 0.116789 65
-0.908997 1.2442 0.184674 62
-0.608659 1.23545 0.0234299 73
-0.912111 1.25023 0.079289 55
-0.61212 1.24305 -0.0710201 76
-0.909815 1.248 -0.0263531 65
-0.604591 1.22933 -0.163681 86
-0.912666 1.25145 -0.132212 56
-0.608531 1.23844 -0.260939 64
-0.913129 1.2503 -0.24 62
-0.609891 1.24337 -0.361464 59
-0.910842 1.24499 -0.347585 58
-0.604386 1.23213 0.308278 58
-0.915407 1.24942 0.40517 58
-0.606098 1.23511 0.211892 76
-0.919075 1.25888 0.295965 56
-0.603467 1.22977 0.116789 61
-0.901174 1.23762 0.183457 62
-0.604305 1.23202 0.0233426 74
-0.904248 1.2436 0.0787656 56
-0.608853 1.24187 -0.0708888 77
-0.907635 1.24958 -0.0263531 65
-0.602659 1.23028 -0.163681 90
-0.90754 1.24902 -0.131778 58
-0.607445 1.24171 -0.261415 65
-0.908027 1.24791 -0.239217 62
-0.602432 1.23358 -0.358231 59
-0.904561 1.24053 -0.345901 58
-0.598985 1.23747 0.30884 58
-0.901953 1.24428 0.401939 56
-0.596401 1.2316 0.210721 74
-0.908362 1.25756 0.294535 55
-0.598319 1.23505 0.117007 62
-0.894681 1.24232 0.183457 64
-0.600236 1.23957 0.0234299 71
-0.896261 1.24629 0.0786348 56
-0.602559 1.24493 -0.0708888 77
-0.896904 1.24809 -0.0262222 62
-0.596209 1.23342 -0.163681 88
-0.902667 1.25561 -0.131995 58
-0.597957 1.23813 -0.259987 67
-0.898583 1.24865 -0.238434 64
-0.596181 1.23661 -0.358231 61
-0.895191 1.24131 -0.344778 58
-0.594929 1.23402 0.307717 59
-0.89978 1.24585 0.401939 56
-0.596391 1.23709 0.211502 74
-0.906165 1.25915 0.294535 56
-0.592923 1.22936 0.116353 65
-0.891059 1.24187 0.183153 62
-0.598072 1.24061 0.0234299 71
-0.892624 1.24583 0.0785039 56
-0.598223 1.24148 -0.0706263 79
-0.894724 1.24965 -0.0262222 64
-0.592981 1.23222 -0.163377 89
-0.893191 1.24709 -0.130908 58
-0.595795 1.23918 -0.259987 64
-0.893513 1.24621 -0.237651 64
-0.591936 1.23329 -0.356938 59
-0.891595 1.24089 -0.344216 58
-0.5872 1.23502 0.307155 58
-0.887605 1.2427 0.399354 55
-0.58673 1.2335 0.210331 80
-0.893843 1.25589 0.292629 56
-0.584342 1.22795 0.115917 70
-0.880217 1.24046 0.18224 61
-0.587282 1.2347 0.0232553 73
-0.883189 1.24642 0.0782422 56
-0.591714 1.2446 -0.0706263 79
-0.886718 1.25228 -0.0261786 64
-0.585459 1.23306 -0.163073 89
-0.886649 1.25175 -0.130908 58
-0.58615 1.23562 -0.258558 65
-0.882672 1.24484 -0.236476 64
-0.584439 1.23419 -0.356291 59
-0.883668 1.24356 -0.343655 58
-0.583179 1.23154 0.306032 59
-0.884028 1.24229 0.398708 55
-0.584576 1.23453 0.210331 71
-0.887372 1.25146 0.291199 55
-0.582198 1.22896 0.115917 68
-0.878051 1.24199 0.18224 64
-0.585126 1.23572 0.0232553 73
-0.879566 1.24593 0.0781114 56
-0.58741 1.24111 -0.0703637 79
-0.878742 1.24568 -0.0260041 65
-0.582248 1.23184 -0.162769 89
-0.881579 1.24923 -0.130473 58
-0.583993 1.23664 -0.258558 62
-0.881929 1.24839 -0.236868 64
-0.580229 1.23084 -0.354998 59
-0.880082 1.24312 -0.343093 58
-0.576507 1.23468 0.306032 58
-0.877511 1.2469 0.398708 55
-0.576019 1.23309 0.20955 79
-0.877977 1.25208 0.290246 58
