# .PCD v0.7 - Point Cloud Data file format
VERSION 0.7
FIELDS x y z intensity
SIZE 4 4 4 4
TYPE F F F F
COUNT 1 1 1 1
WIDTH 1659
HEIGHT 1
VIEWPOINT 0 0 0 1 0 0 0
POINTS 1659
DATA ascii
3.35875 -3.54141 0.594181 11
2.03793 -2.15448 0.153606 29
1.80573 -1.91111 -0.045289 36
0.996855 -1.51273 -0.217836 3
1.80436 -1.90969 -0.22637 36
1.57873 -2.40264 -0.760432 12
3.27053 -4.98202 1.36563 44
3.35249 -3.52509 1.29241 11
3.27238 -4.98296 0.936538 42
3.36244 -3.54907 0.942703 11
3.27373 -4.98315 0.518577 14
3.35768 -3.55267 0.595094 9
2.02731 -2.15078 0.153083 29
0.897989 -1.36661 -0.0841477 4
1.79724 -1.90881 -0.0451581 36
0.996934 -1.51862 -0.218445 3
1.79419 -1.9056 -0.2255 36
1.57412 -2.40567 -0.760432 12
3.23425 -4.98533 1.3617 41
3.34331 -3.55373 1.29629 9
3.24134 -4.99438 0.935367 42
3.35558 -3.57914 0.946039 11
3.35368 -3.58709 0.597832 9
0.894852 -1.37699 0.0280547 9
2.00882 -2.15443 0.152559 30
0.885388 -1.36292 -0.0836226 11
1.78006 -1.91121 -0.0449836 36
0.990052 -1.52607 -0.218749 4
1.78078 -1.91133 -0.225066 36
1.55757 -2.40779 -0.758492 12
3.2198 -4.98017 1.3589 39
3.34206 -3.56484 1.29823 9
3.22324 -4.98551 0.932636 42
3.35939 -3.59575 0.948899 11
3.36435 -3.61107 0.600875 8
0.892447 -1.37855 0.0280547 12
2.00336 -2.1561 0.152428 30
0.883008 -1.36446 -0.0836226 9
1.7699 -1.90699 -0.0448091 36
0.982006 -1.51946 -0.217532 4
1.77744 -1.91443 -0.225066 36
1.55729 -2.4166 -0.760432 11
3.18581 -4.98465 1.35553 41
3.33384 -3.59232 1.3021 9
3.19264 -4.99344 0.931075 41
3.35115 -3.6235 0.951759 9
3.35108 -3.63352 0.601787 1
0.882766 -1.37883 0.0279675 11
1.98057 -2.15337 0.151513 30
0.877195 -1.37117 -0.0837538 8
1.75854 -1.91409 -0.0447654 38
0.979642 -1.53278 -0.218749 4
1.76571 -1.92188 -0.224848 36
1.54763 -2.42852 -0.761726 11
3.17711 -4.9902 1.35553 4
3.34563 -3.61762 1.30921 9
3.18657 -5.00317 0.931855 3
3.35251 -3.63895 0.954141 9
3.35818 -3.65397 0.604221 9
0.881459 -1.38263 0.0280111 9
1.97004 -2.14947 0.150989 30
0.872121 -1.36849 -0.0834913 8
1.77041 -1.93372 -0.0451581 36
0.975634 -1.53239 -0.218445 4
1.54684 -2.43761 -0.763665 11
3.18637 -5.06506 1.37125 1
3.3358 -3.64635 1.31309 9
3.19101 -5.07051 0.941221 2
3.34666 -3.67095 0.957954 9
3.34839 -3.68309 0.606047 9
0.876869 -1.39146 0.0280984 8
1.95167 -2.15271 0.150466 29
0.863615 -1.37092 -0.08336 4
1.94823 -2.15043 -0.0500448 30
0.972607 -1.54605 -0.219661 4
0.968163 -1.54016 -0.346173 4
1.53534 -2.44772 -0.764312 9
3.17841 -5.07006 1.37125 4
3.34246 -3.66643 1.31826 9
3.19354 -5.09225 0.944343 4
3.3485 -3.68586 0.960337 9
3.35427 -3.70121 0.608176 9
0.877094 -1.39723 0.0281856 9
1.94325 -2.15023 0.150073 29
0.863871 -1.37666 -0.0836226 8
1.94112 -2.15013 -0.0499575 30
0.970178 -1.54758 -0.219661 4
1.94118 -2.14946 -0.249855 30
0.962871 -1.53768 -0.34522 3
1.53362 -2.4545 -0.765605 4
3.18388 -5.13841 1.38529 17
3.33843 -3.69942 1.32407 9
3.18894 -5.14459 0.950976 21
3.34623 -3.72099 0.965103 9
3.33485 -3.71872 0.608176 9
0.864745 -1.39315 0.0280111 4
1.92363 -2.15108 0.149419 30
0.864779 -1.39375 -0.0844102 4
1.92187 -2.15062 -0.0497394 30
0.960756 -1.55052 -0.219357 8
1.92363 -2.15184 -0.248986 30
0.951205 -1.53627 -0.343792 8
1.51611 -2.45401 -0.763019 4
3.17581 -5.1434 1.38529 14
3.34652 -3.72139 1.32989 9
3.17477 -5.14174 0.949416 17
3.34957 -3.73778 0.967963 9
0.856859 -1.38528 0.139449 12
3.32008 -3.71529 0.606655 9
0.867563 -1.40316 0.0281856 4
1.91488 -2.14885 0.149027 30
0.861034 -1.39313 -0.084279 3
1.91145 -2.14651 -0.0495648 30
0.964557 -1.56276 -0.220878 4
1.91323 -2.14777 -0.248116 30
0.947236 -1.53584 -0.343316 8
1.51814 -2.46693 -0.766252 3
3.13652 -5.14179 1.38023 14
3.33342 -3.74607 1.33247 9
3.14009 -5.14564 0.947074 14
3.34789 -3.77545 0.973205 9
0.857377 -1.4025 0.140757 3
3.26109 -3.68805 0.599353 9
0.861506 -1.40982 0.0282293 3
1.89699 -2.15137 0.148503 30
0.858681 -1.40629 -0.0848041 4
1.89191 -2.14713 -0.0493467 32
0.957652 -1.56991 -0.221183 4
1.89828 -2.15436 -0.247681 32
0.934078 -1.53239 -0.341411 4
1.50144 -2.46866 -0.764312 4
3.11995 -5.13476 1.37686 15
3.3381 -3.76452 1.337 9
3.12469 -5.14056 0.945123 15
3.35039 -3.7929 0.976065 9
0.845874 -1.3891 0.139231 11
3.2218 -3.65653 0.593269 9
0.858798 -1.41147 0.0282293 3
1.88497 -2.14532 0.147849 30
0.860112 -1.41419 -0.0851979 4
1.88155 -2.14293 -0.0491722 32
0.963919 -1.58643 -0.223312 4
1.88793 -2.15019 -0.246811 32
0.928858 -1.52982 -0.340459 11
1.5017 -2.4798 -0.766899 4
3.07834 -5.12859 1.37069 14
3.33044 -3.79704 1.34217 9
3.09175 -5.14892 0.943562 15
3.34342 -3.82516 0.979878 9
0.843473 -1.40219 0.140103 4
3.23461 -3.71129 0.599353 9
0.853968 -1.42024 0.0283165 3
1.87006 -2.15172 0.147587 30
0.857833 -1.42724 -0.085723 4
1.86664 -2.14931 -0.0490849 32
0.95277 -1.58737 -0.222704 8
1.8701 -2.15254 -0.245941 32
0.923089 -1.53904 -0.341411 4
1.48498 -2.48141 -0.764959 4
3.06903 -5.13133 1.37013 14
3.33336 -3.81375 1.34604 9
3.07225 -5.1347 0.94005 15
3.34803 -3.84393 0.983214 9
0.842303 -1.4058 0.140321 3
3.31024 -3.80995 0.614565 8
0.855336 -1.42816 0.0284474 3
1.86176 -2.149 0.147195 32
0.850218 -1.42016 -0.0851979 4
1.85469 -2.14312 -0.0488667 32
1.85818 -2.1464 -0.244854 32
0.911602 -1.52589 -0.338078 12
1.47447 -2.47362 -0.761726 4
3.03717 -5.13894 1.36788 11
3.32983 -3.84882 1.35251 9
3.0403 -5.14221 0.938489 15
3.34137 -3.87568 0.987026 9
3.32749 -3.87047 0.621563 3
0.851911 -1.43893 0.0285783 3
1.84234 -2.14926 0.146541 32
0.847848 -1.43319 -0.085723 4
1.83893 -2.1468 -0.0487358 32
1.84691 -2.1561 -0.244854 32
1.46561 -2.4873 -0.763665 4
3.01707 -5.12533 1.36283 12
3.32784 -3.86011 1.35444 9
3.0238 -5.13474 0.936148 14
3.34032 -3.88953 0.988933 9
3.34498 -3.90451 0.626126 1
0.855485 -1.45133 0.0287965 3
1.83209 -2.14489 0.146017 32
0.846611 -1.43682 -0.0858543 4
1.83356 -2.1481 -0.0486922 33
1.83504 -2.14986 -0.243767 32
1.45472 -2.47969 -0.760432 4
2.9844 -5.13316 1.36058 14
3.32416 -3.89825 1.36155 9
2.98977 -5.14035 0.934197 15
3.33423 -3.92379 0.993222 9
3.26759 -3.85635 0.615478 1
0.844105 -1.44931 0.0286656 3
1.81561 -2.14905 0.145625 32
0.841585 -1.44555 -0.0861168 4
1.81383 -2.14846 -0.0484741 33
1.81732 -2.15184 -0.242897 33
0.889198 -1.53054 -0.336649 9
1.44414 -2.49145 -0.761726 4
2.97145 -5.12941 1.35833 15
3.33145 -3.9206 1.36737 9
2.97427 -5.13222 0.931855 15
3.33849 -3.9427 0.996558 9
3.2952 -3.90125 0.621867 1
0.846584 -1.45943 0.0288401 3
1.80901 -2.14809 0.145363 32
0.842812 -1.4535 -0.0865106 4
1.80363 -2.14398 -0.0482995 33
1.80714 -2.1474 -0.242027 33
0.876706 -1.51509 -0.33284 3
1.43858 -2.49188 -0.761079 4
2.93125 -5.12163 1.35216 15
3.3209 -3.94849 1.37125 9
2.94368 -5.1413 0.930685 15
3.33743 -3.9821 1.00228 9
3.31933 -3.97172 0.630386 4
1.79134 -2.14987 0.14484 32
0.841643 -1.46859 -0.087167 4
1.78794 -2.14733 -0.0481686 32
1.42595 -2.49913 -0.761079 4
1.5697 -1.87959 -0.556474 3
2.92079 -5.122 1.35103 15
3.32953 -3.97278 1.37771 9
2.92247 -5.12497 0.926783 15
3.3415 -4.00109 1.00561 9
3.32829 -3.99656 0.633428 4
1.78119 -2.14532 0.144316 32
0.842786 -1.47656 -0.0875608 4
1.7778 -2.14276 -0.0479941 33
1.42278 -2.50371 -0.761726 4
1.56329 -1.87859 -0.55535 3
2.88587 -5.12499 1.34767 15
3.32566 -4.01059 1.38482 9
2.89075 -5.1316 0.925222 15
3.33459 -4.03555 1.0099 9
3.34365 -4.05795 0.640426 9
0.838456 -1.48763 -0.0879547 4
1.76496 -2.15011 -0.0479505 33
1.68764 -3.00203 -0.661394 8
1.41083 -2.51323 -0.762372 4
1.54723 -1.87924 -0.553104 4
2.87334 -5.12364 1.34598 15
3.32789 -4.02755 1.38869 9
2.87937 -5.13233 0.924441 15
3.33777 -4.0552 1.01324 8
3.34917 -4.07911 0.64286 1
0.83952 -1.49562 -0.0883485 3
1.75328 -2.14353 -0.0477323 33
1.67162 -2.9857 -0.657109 9
1.406 -2.51594 -0.762372 4
1.54395 -1.88194 -0.553104 4
2.84204 -5.13272 1.3443 15
3.31829 -4.06044 1.39386 8
2.83721 -5.12191 0.919758 15
3.32424 -4.08213 1.01562 8
0.834095 -1.50437 -0.088611 4
1.7322 -2.14134 -0.0474705 29
1.65425 -2.99255 -0.656633 9
1.39165 -2.52115 -0.761726 4
1.52297 -1.87704 -0.549174 3
2.82221 -5.11584 1.33868 15
3.32952 -4.08868 1.40162 8
2.87448 -5.20852 0.934587 12
0.831468 -1.50582 -0.088611 4
1.6443 -2.98683 -0.654728 9
1.38492 -2.51934 -0.760432 8
1.51695 -1.87565 -0.548051 3
2.79422 -5.12841 1.33812 15
2.8578 -5.24302 0.938099 15
0.827417 -1.51659 -0.0890049 3
1.6233 -2.98433 -0.652347 11
1.37676 -2.53481 -0.763019 4
1.49795 -1.87217 -0.544681 8
2.78616 -5.13279 1.33812 14
2.85336 -5.25668 0.93966 12
1.61458 -2.98068 -0.650919 9
1.36889 -2.53084 -0.761079 8
1.49468 -1.87478 -0.544681 9
2.7756 -5.18001 1.34654 14
1.5897 -2.97178 -0.647109 9
1.06338 -1.35328 -0.267406 4
1.35448 -2.53584 -0.760432 8
1.49089 -1.89022 -0.546928 9
2.78925 -5.2252 1.35721 14
1.58105 -2.96805 -0.645681 8
1.05949 -1.35319 -0.267015 4
1.35232 -2.54246 -0.761726 4
1.48307 -1.88708 -0.545243 11
2.7691 -5.25794 1.3617 12
3.05377 -5.79636 1.0298 3
1.55812 -2.96353 -0.642824 9
1.05063 -1.35696 -0.266623 4
1.3363 -2.54546 -0.760432 4
1.48333 -1.90852 -0.549174 11
2.78007 -5.29896 1.37125 12
3.03563 -5.78637 1.02707 3
1.54612 -2.95319 -0.639967 8
1.04978 -1.36074 -0.267015 4
1.33521 -2.55422 -0.762372 4
1.4785 -1.90919 -0.548612 15
2.77039 -5.35071 1.3808 4
2.99166 -5.77587 1.02239 4
1.52051 -2.94162 -0.635681 9
1.03686 -1.3582 -0.265449 4
1.32181 -2.56117 -0.762372 4
1.467 -1.91497 -0.548051 45
2.77649 -5.3832 1.3881 4
2.97693 -5.76959 1.02044 3
1.50864 -2.93117 -0.632824 11
1.03599 -1.36197 -0.26584 4
1.31845 -2.56562 -0.763019 4
1.4714 -1.92694 -0.550858 38
2.76484 -5.43023 1.39652 9
2.87386 -5.64206 0.995072 9
1.49156 -2.9344 -0.631872 12
1.02884 -1.36737 -0.26584 8
1.30544 -2.57226 -0.763019 4
2.77298 -5.46982 1.4055 9
2.8908 -5.69992 1.00444 8
1.47647 -2.91728 -0.627587 11
1.02051 -1.36128 -0.264274 9
1.30268 -2.57908 -0.764312 4
2.83673 -5.6691 0.996242 12
2.1202 -2.85557 -0.0614761 9
1.4519 -2.90766 -0.623777 9
1.01484 -1.36859 -0.264666 8
1.28377 -2.57505 -0.761079 4
3.31325 -4.46284 0.677239 15
3.17546 -4.28378 0.277642 30
2.09734 -2.83518 -0.0609525 9
1.44792 -2.91239 -0.624253 9
1.00951 -1.36639 -0.263883 8
1.28142 -2.58162 -0.762372 8
2.96585 -6.02955 1.05634 20
3.30082 -4.482 1.07424 15
3.30454 -4.50012 0.680281 15
2.46491 -5.01064 0.0968608 42
3.14116 -4.28425 0.276596 26
2.04007 -2.78732 -0.0596872 9
2.02286 -2.76289 -0.295956 4
1.4364 -2.92629 -0.625682 11
1.00526 -1.37564 -0.264666 8
1.26622 -2.58373 -0.761079 8
3.15139 -6.43528 1.64359 15
3.30005 -4.48105 1.47981 15
2.94989 -6.02363 1.05439 15
3.30462 -4.50357 1.07806 15
3.31722 -4.5339 0.684541 14
2.45396 -5.01044 0.0967736 38
3.12188 -4.27361 0.275549 50
2.03815 -2.79491 -0.0597745 9
2.01657 -2.76441 -0.295738 4
1.42806 -2.92217 -0.624253 9
1.00286 -1.37739 -0.264666 4
1.26382 -2.59028 -0.762372 4
3.14513 -6.51147 1.65875 15
3.28935 -4.51582 1.48562 15
2.91617 -6.03454 1.05361 15
3.30264 -4.55059 1.0852 15
2.92036 -6.04056 0.583943 18
3.30509 -4.56727 0.686975 14
3.02041 -4.18069 0.268483 38
1.35425 -2.80322 -0.161863 9
2.00005 -2.77314 -0.0590764 8
1.94173 -2.69254 -0.286823 11
1.41061 -2.92519 -0.623301 9
0.998533 -1.38662 -0.265449 4
1.24605 -2.58816 -0.759786 4
3.15381 -6.55867 1.66942 15
3.29567 -4.54109 1.49209 15
2.89921 -6.02627 1.05126 15
3.30829 -4.5768 1.08997 15
2.90117 -6.02769 0.5822 24
3.31019 -4.59114 0.689713 14
2.962 -4.11509 0.263904 27
1.30503 -2.71331 -0.156481 12
2.00251 -2.78677 -0.0592945 8
1.905 -2.65148 -0.282039 33
1.41293 -2.94314 -0.626634 11
0.991776 -1.38236 -0.264274 4
1.24213 -2.59272 -0.760432 4
1.10862 -1.54092 -0.429568 21
3.14227 -6.62626 1.68234 24
3.28938 -4.58435 1.50049 15
2.84963 -6.00617 1.04502 15
3.30143 -4.618 1.09569 15
2.86105 -6.02755 0.580675 27
3.29828 -4.62716 0.692451 14
1.36032 -2.86547 0.0547569 14
2.93244 -4.12089 0.26325 35
1.30792 -2.7562 -0.158581 3
1.99176 -2.80367 -0.0594254 3
1.88386 -2.65128 -0.280951 41
1.41062 -2.97958 -0.632824 11
0.991697 -1.39758 -0.266232 4
1.23266 -2.60793 -0.763019 3
1.10593 -1.55482 -0.431814 17
3.13602 -6.64 1.68458 35
3.29684 -4.61168 1.5076 15
2.83914 -6.0084 1.04463 15
3.3062 -4.64173 1.09998 14
2.84414 -6.01902 0.579368 23
3.30683 -4.65457 0.695797 14
1.35639 -2.87011 0.0548006 18
2.91584 -4.11124 0.262334 39
1.30843 -2.76977 -0.159237 3
1.9912 -2.81326 -0.0595563 3
1.87346 -2.64644 -0.280082 42
1.40647 -2.98426 -0.6333 11
0.990687 -1.40132 -0.266623 3
1.2281 -2.61007 -0.763019 3
3.09298 -6.63867 1.68009 30
3.28602 -4.64604 1.51341 14
3.30531 -4.69049 1.1076 14
3.29955 -4.69617 0.699448 14
1.32918 -2.84974 0.054277 18
2.87705 -4.10195 0.260764 33
1.30339 -2.79695 -0.160419 9
1.86101 -2.65825 -0.280299 50
1.39238 -2.99357 -0.633777 11
0.979075 -1.40043 -0.265449 3
1.21691 -2.62064 -0.764312 3
3.0773 -6.63521 1.67784 30
3.29183 -4.6715 1.51987 14
3.31182 -4.71891 1.11285 14
3.317 -4.73849 0.704925 30
1.32896 -2.86363 0.0544951 12
1.29956 -2.80149 -0.16055 8
1.84923 -2.65129 -0.279212 49
1.38818 -2.99822 -0.634253 9
0.98088 -1.4082 -0.266623 3
1.21491 -2.62955 -0.766252 3
3.03528 -6.63847 1.67447 29
3.28586 -4.71697 1.52892 14
3.30668 -4.76439 1.11952 41
3.30969 -4.78288 0.70888 47
1.27757 -2.79098 0.052968 8
1.29006 -2.81961 -0.161206 8
1.81832 -2.63636 -0.276602 24
1.37703 -3.01685 -0.636634 9
0.970435 -1.40943 -0.26584 3
1.19512 -2.62268 -0.762372 4
3.29968 -4.75442 1.53926 42
3.31094 -4.78831 1.12381 49
3.31967 -4.8152 0.712835 47
1.26338 -2.77273 0.0525754 8
3.30105 -4.79535 0.303287 14
1.2841 -2.81958 -0.161075 8
1.38799 -3.05501 -0.644252 9
0.974986 -1.42128 -0.267798 3
1.19353 -2.63137 -0.764312 4
3.298 -4.80546 1.55024 45
3.3094 -4.84 1.13191 47
3.3112 -4.8571 0.716486 47
1.24168 -2.76335 0.05227 14
3.29558 -4.84145 0.305119 8
1.2683 -2.82399 -0.160944 8
0.96778 -1.4262 -0.267798 3
1.17876 -2.63537 -0.763665 4
2.21532 -4.95593 1.24322 1
3.30599 -4.83512 1.558 45
2.22706 -4.97989 0.856542 2
3.31616 -4.86807 1.13715 47
3.32032 -4.88691 0.720137 49
1.23074 -2.75182 0.0520082 14
1.26541 -2.83076 -0.161206 8
0.966677 -1.42993 -0.268189 3
1.17415 -2.63743 -0.763665 3
2.20113 -4.99421 1.24996 2
3.30044 -4.87978 1.56705 47
2.20294 -4.996 0.857323 2
3.30658 -4.90717 1.1424 47
1.27517 -2.88913 0.273233 15
3.30993 -4.92687 0.723483 49
1.20873 -2.73971 0.0516591 9
1.24654 -2.82821 -0.160681 11
0.90575 -1.35749 -0.0278802 8
1.5219 -3.46022 -0.726629 12
0.959177 -1.43497 -0.268189 3
1.15788 -2.6367 -0.761726 4
3.30408 -4.90355 1.57286 47
3.31769 -4.94406 1.14955 50
1.26512 -2.87995 0.272144 15
3.31653 -4.95532 0.72683 53
1.20246 -2.73974 0.0516155 8
1.24261 -2.83266 -0.160813 12
0.903379 -1.35906 -0.0278802 4
1.51192 -3.45387 -0.724724 9
0.956671 -1.43664 -0.268189 3
1.15378 -2.64113 -0.762372 4
3.29492 -4.94747 1.58126 49
3.3067 -4.98385 1.15479 56
1.24063 -2.86617 0.270183 12
3.30063 -4.98974 0.729264 55
1.18711 -2.7437 0.0515719 9
1.23172 -2.8483 -0.161338 12
0.891877 -1.35768 -0.0277493 9
2.16233 -5.01014 -0.664765 27
1.51263 -3.50708 -0.734248 8
1.13803 -2.6427 -0.761079 4
3.30232 -4.97735 1.58902 55
3.30071 -4.9937 1.15574 50
1.22283 -2.83859 0.26735 9
3.28098 -4.97892 0.72683 44
1.18232 -2.74577 0.0515719 9
1.22872 -2.85503 -0.1616 24
0.889506 -1.35923 -0.0277493 9
2.14771 -5.00023 -0.662939 32
1.13436 -2.6469 -0.761726 3
2.81093 -6.62817 1.65145 27
3.27311 -4.98795 1.58708 47
2.81457 -6.63356 1.13321 45
3.26464 -4.99392 1.15193 42
1.21039 -2.84933 0.267786 11
3.2476 -4.983 0.725005 41
1.16841 -2.75172 0.0515719 9
1.21522 -2.86351 -0.161732 15
0.886708 -1.37 -0.0278802 8
2.11851 -5.00189 -0.661723 35
1.12095 -2.65261 -0.761726 3
2.79483 -6.61911 1.64808 29
3.25381 -4.97749 1.58191 39
2.79722 -6.62481 1.13087 47
3.24787 -4.98728 1.14907 41
1.20638 -2.85374 0.268004 9
3.23213 -4.97826 0.723483 39
1.16166 -2.74915 0.0514846 11
1.20052 -2.84263 -0.160419 4
0.884316 -1.37154 -0.0278802 8
2.10689 -4.99872 -0.66081 36
1.11726 -2.65679 -0.762372 3
2.75898 -6.63414 1.64808 30
3.22114 -4.98432 1.57868 38
2.7606 -6.63481 1.13009 44
3.21153 -4.99034 1.14573 39
1.18855 -2.85311 0.26735 9
3.20066 -4.98676 0.722266 35
1.1506 -2.76463 0.0516591 30
0.881941 -1.38262 0.08413 4
1.17459 -2.82372 -0.158975 8
0.879581 -1.38052 -0.0279675 8
2.07117 -4.98677 -0.657767 38
1.10194 -2.66056 -0.761726 4
2.73902 -6.61868 1.64303 30
3.21288 -4.99253 1.57932 38
2.74314 -6.62869 1.12814 41
3.19531 -4.98617 1.14335 32
1.18212 -2.85309 0.267132 9
3.20847 -5.02007 0.726222 1
1.14052 -2.75528 0.051441 11
0.87794 -1.38221 0.0839992 11
1.16631 -2.81905 -0.158581 8
0.876929 -1.3822 -0.0279675 8
2.06254 -4.99303 -0.658072 39
1.09959 -2.66938 -0.763665 4
2.69694 -6.62805 1.64134 32
3.17888 -5.0028 1.57674 26
2.69654 -6.62379 1.12463 32
3.19896 -5.05368 1.15479 1
1.16473 -2.85754 0.266914 8
3.19144 -5.05734 0.72896 1
1.12794 -2.76855 0.0515719 9
0.875295 -1.39568 0.0845226 9
1.14065 -2.80259 -0.157268 8
0.867862 -1.38497 -0.0279238 4
2.03188 -5.00023 -0.657463 41
1.08285 -2.671 -0.762372 4
2.68262 -6.62597 1.63966 30
3.16885 -5.0063 1.57609 3
2.6822 -6.62162 1.12346 33
3.18532 -5.05359 1.15336 3
1.15974 -2.85957 0.266914 4
1.12731 -2.7823 0.05179 9
0.868871 -1.39087 0.08413 9
1.14137 -2.81846 -0.158056 12
0.869433 -1.39283 -0.0280547 3
2.01665 -4.98766 -0.655334 35
0.861011 -1.37945 -0.138954 3
1.07772 -2.67307 -0.762372 4
2.64493 -6.63586 1.63854 32
3.14813 -5.03361 1.57932 17
2.64084 -6.62227 1.12111 33
3.1913 -5.12224 1.16527 12
1.1461 -2.87043 0.26735 8
1.11365 -2.79048 0.0518336 8
0.86265 -1.39767 0.0842609 4
1.12752 -2.82672 -0.158187 12
0.863202 -1.39964 -0.0280984 3
0.860346 -1.39451 -0.140041 3
1.45786 -3.66525 -0.758532 4
1.06015 -2.6697 -0.759786 4
2.63002 -6.62869 1.63573 30
3.13295 -5.02885 1.57609 38
2.63044 -6.62641 1.12111 35
3.20309 -5.16115 1.1729 20
1.14476 -2.88169 0.268222 8
0.874577 -1.41966 0.20019 9
1.1097 -2.79475 0.0518773 8
0.85914 -1.3969 0.08413 4
1.12167 -2.82636 -0.158056 3
0.859444 -1.39901 -0.0280547 3
0.8566 -1.3939 -0.139823 3
1.45237 -3.67008 -0.759008 4
1.05992 -2.68278 -0.763019 3
2.59261 -6.63556 1.63404 32
3.10238 -5.03642 1.57351 38
2.49686 -6.38709 1.07819 1
3.16793 -5.16266 1.16956 17
1.12835 -2.88281 0.267786 9
0.863242 -1.41787 0.199277 9
1.10282 -2.81895 0.0522263 8
0.857026 -1.4099 0.0846534 4
1.10644 -2.82968 -0.157925 2
0.853655 -1.40548 -0.0280984 3
1.15694 -2.96357 -0.385777 11
0.853433 -1.40459 -0.140476 3
1.43021 -3.66823 -0.757104 3
1.0472 -2.69036 -0.763665 3
1.56355 -2.55678 -0.682817 17
2.57601 -6.62373 1.63011 30
3.08726 -5.03154 1.57028 38
2.57722 -6.62345 1.1176 35
3.14482 -5.14516 1.16432 14
1.12783 -2.89638 0.268875 8
0.858427 -1.41499 0.198669 9
1.09609 -2.81621 0.0521391 8
0.85351 -1.40911 0.0845226 4
1.11235 -2.85953 -0.1595 3
0.855101 -1.41337 -0.0282293 3
1.15857 -2.98158 -0.387906 9
0.854867 -1.41246 -0.141128 3
1.4238 -3.67072 -0.757104 4
1.04425 -2.69669 -0.764959 3
2.53955 -6.63258 1.62899 32
3.05674 -5.03885 1.56769 38
2.53721 -6.62302 1.11526 33
3.10602 -5.14002 1.15955 14
1.10959 -2.89275 0.268004 8
0.844596 -1.40884 0.197148 8
1.08718 -2.83573 0.0524008 8
0.847409 -1.4157 0.0846534 3
1.10143 -2.87445 -0.160025 2
0.855672 -1.43053 -0.0284911 3
0.846422 -1.41463 -0.140911 3
1.40696 -3.68247 -0.758056 4
1.02715 -2.69291 -0.762372 4
2.52219 -6.61834 1.6245 32
3.03793 -5.02765 1.56252 38
2.52504 -6.62238 1.11448 35
3.09578 -5.14333 1.15908 14
1.10809 -2.90399 0.268875 8
0.846218 -1.41655 0.19806 3
1.08579 -2.84697 0.0525754 8
0.846469 -1.41917 0.0847842 3
1.09819 -2.88104 -0.160288 3
0.855745 -1.43631 -0.0285783 3
0.851639 -1.42892 -0.142215 3
1.4014 -3.68721 -0.758532 4
1.0233 -2.69696 -0.763019 4
1.70421 -2.83899 -0.755254 8
2.48408 -6.62234 1.62225 32
3.00625 -5.0326 1.55929 38
2.48339 -6.61701 1.11136 33
3.06343 -5.14839 1.15669 14
1.09775 -2.92122 0.269965 8
0.83879 -1.42096 0.19806 4
1.07927 -2.87349 0.052968 8
0.842848 -1.43002 0.0851768 3
1.09761 -2.92396 -0.162388 3
0.853563 -1.44922 -0.0287528 3
1.82974 -4.8847 -0.635254 12
0.840585 -1.42679 -0.141563 3
1.38014 -3.68736 -0.757104 4
1.00879 -2.69984 -0.762372 4
1.60335 -2.70343 -0.716509 8
2.46857 -6.61253 1.61888 32
2.99004 -5.02539 1.55541 38
2.46839 -6.61208 1.1098 33
3.05068 -5.1474 1.15526 14
1.10223 -2.94879 0.272362 4
0.835045 -1.42029 0.197756 4
0.837811 -1.42719 0.0849151 3
1.10297 -2.95394 -0.163963 4
0.84722 -1.44425 -0.0286219 3
1.81342 -4.86696 -0.632515 12
0.844426 -1.43897 -0.14265 3
1.37541 -3.69437 -0.758056 4
1.0066 -2.70839 -0.764312 4
1.61727 -2.73766 -0.724932 8
2.43192 -6.62351 1.61832 33
2.95633 -5.02849 1.55154 38
2.43118 -6.61796 1.10863 33
3.01375 -5.14637 1.15145 14
1.09193 -2.96855 0.273669 8
0.823838 -1.41821 0.196843 3
0.835362 -1.44018 0.0854384 3
0.845944 -1.45946 -0.0288401 3
1.77511 -4.84144 -0.627952 12
0.835625 -1.44122 -0.142433 3
1.35521 -3.69921 -0.75758 4
0.994889 -2.72043 -0.766252 4
1.57582 -2.69985 -0.712578 9
2.41733 -6.61588 1.61551 33
2.94144 -5.02323 1.54831 39
2.41824 -6.61482 1.10746 33
2.99857 -5.14103 1.14907 15
0.826607 -1.42808 0.19806 3
0.839376 -1.45228 0.0860926 2
0.845907 -1.46526 -0.0289274 3
0.836863 -1.44914 -0.143085 3
1.34875 -3.70157 -0.75758 4
0.989315 -2.71989 -0.765605 4
1.57895 -2.71494 -0.715947 12
2.38019 -6.62157 1.61383 32
2.90507 -5.01925 1.54249 39
2.38107 -6.62042 1.10629 33
2.96515 -5.14339 1.14621 14
0.819118 -1.43239 0.19806 3
0.833005 -1.45882 0.0862235 3
0.83848 -1.46952 -0.0289274 3
1.65667 -4.61516 -0.596919 4
0.835721 -1.46415 -0.144172 3
1.32751 -3.70142 -0.756151 4
0.973911 -2.72031 -0.764312 4
1.58175 -2.75272 -0.723809 3
2.36568 -6.61383 1.61102 33
2.89269 -5.01804 1.54055 38
2.36484 -6.60787 1.10355 33
2.94882 -5.13579 1.14335 15
2.36902 -6.61959 0.612051 38
0.823041 -1.44444 0.199582 3
0.835675 -1.4688 0.0867468 3
1.58206 -4.42415 -0.245223 3
0.839638 -1.47749 -0.0290583 3
1.64608 -4.60841 -0.595702 9
0.834402 -1.46777 -0.14439 3
1.32352 -3.71067 -0.75758 4
0.968352 -2.71973 -0.763665 4
1.63446 -2.85448 -0.7502 8
2.32941 -6.62153 1.6099 33
2.86246 -5.02423 1.53797 39
2.32612 -6.60852 1.1016 35
2.91673 -5.13998 1.14097 15
0.814243 -1.44657 0.199277 3
0.831661 -1.47967 0.0871394 3
1.54729 -4.39939 -0.243385 3
0.833379 -1.4839 -0.0291019 3
1.61947 -4.60994 -0.59479 4
0.832833 -1.48296 -0.145477 3
1.30554 -3.71963 -0.758056 8
0.958561 -2.736 -0.766899 4
1.62912 -2.87994 -0.754693 9
2.31383 -6.61408 1.60709 33
2.84891 -5.02082 1.53538 39
2.31132 -6.60324 1.10004 35
2.90081 -5.1349 1.13858 15
2.24081 -6.39814 0.590044 17
0.815376 -1.45447 0.20019 3
0.831529 -1.48547 0.087401 3
1.53467 -4.38795 -0.242597 3
0.839372 -1.5006 -0.0294073 3
1.61632 -4.62682 -0.596615 3
0.832688 -1.48875 -0.145912 3
1.30066 -3.72654 -0.759008 4
0.950134 -2.72871 -0.764312 4
1.63128 -2.89551 -0.758062 8
2.27563 -6.61959 1.60541 33
2.81461 -5.02352 1.5315 39
2.27395 -6.61098 1.09926 35
2.87268 -5.14787 1.13811 15
2.20454 -6.40546 0.589609 17
0.812326 -1.46753 0.201407 3
0.827121 -1.49649 0.0877936 3
1.50599 -4.3794 -0.241678 4
1.6774 -4.88665 -0.629169 26
0.826092 -1.49527 -0.14613 3
1.27809 -3.72656 -0.75758 4
0.938177 -2.7405 -0.766252 4
1.61678 -2.90642 -0.758623 8
2.25893 -6.60472 1.60091 32
2.79995 -5.01789 1.52827 39
2.26081 -6.61027 1.09848 36
2.85056 -5.12929 1.13286 14
2.1853 -6.38573 0.58743 17
0.825718 -1.50012 0.0879244 2
1.50157 -4.39147 -0.242204 8
1.68489 -4.93654 -0.635254 17
0.824687 -1.49889 -0.146347 4
1.27079 -3.72646 -0.757104 4
0.832837 -1.5118 -0.268189 9
0.934947 -2.74671 -0.767545 4
1.61289 -2.91137 -0.759185 8
2.22161 -6.61222 1.59979 33
2.76663 -5.0198 1.5244 39
2.22381 -6.61499 1.09731 36
2.8485 -5.18931 1.14287 12
2.15025 -6.39237 0.586994 17
1.473 -4.3827 -0.241285 9
1.6606 -4.95 -0.635862 17
0.820414 -1.50974 -0.146999 11
1.2536 -3.74005 -0.758532 4
0.829655 -1.5248 -0.269755 8
0.919022 -2.74698 -0.766252 3
1.59762 -2.91977 -0.759185 8
2.21045 -6.6134 1.59923 33
2.75437 -5.01827 1.52246 39
2.20678 -6.60247 1.09458 35
2.84887 -5.21149 1.14669 12
2.13593 -6.38666 0.586122 17
1.46772 -4.39237 -0.241678 4
1.65666 -4.96701 -0.637688 20
1.24397 -3.73291 -0.756627 4
0.915749 -2.75317 -0.767545 3
1.59135 -2.92042 -0.758623 8
2.16971 -6.60636 1.59474 33
2.72202 -5.01941 1.51858 39
2.17257 -6.61121 1.09419 36
2.83764 -5.2539 1.15288 11
2.09736 -6.37846 0.584379 15
1.44626 -4.40474 -0.241941 4
1.62995 -4.97062 -0.637079 24
1.22583 -3.74149 -0.757104 4
0.898054 -2.74629 -0.764312 4
1.57308 -2.922 -0.756939 4
2.15667 -6.60551 1.59361 33
2.70866 -5.01566 1.516 39
2.15796 -6.6056 1.09263 35
2.83221 -5.26798 1.15479 9
2.0839 -6.37501 0.583726 15
1.44398 -4.42387 -0.24286 4
1.6159 -4.95694 -0.634949 29
0.817793 -1.5366 -0.148956 3
1.22081 -3.7483 -0.758056 3
0.89576 -2.7572 -0.766899 4
1.57144 -2.93118 -0.758623 4
2.11792 -6.6078 1.59137 35
2.67238 -5.0132 1.51083 41
2.11993 -6.61012 1.09146 36
2.81496 -5.30224 1.15908 8
2.04482 -6.37196 0.582418 15
1.42004 -4.42899 -0.242729 4
1.59208 -4.97507 -0.636166 35
0.814394 -1.54967 -0.149826 3
1.20126 -3.75718 -0.758532 4
0.881312 -2.76185 -0.766899 8
1.55441 -2.93749 -0.758062 4
2.10311 -6.59719 1.588 35
2.65795 -5.0072 1.5076 41
2.10614 -6.60675 1.09029 36
2.81374 -5.32232 1.16241 8
2.03218 -6.37078 0.581982 15
1.42064 -4.45763 -0.244173 4
1.58189 -4.97311 -0.635558 41
1.19173 -3.74992 -0.756627 4
0.875761 -2.76108 -0.766252 4
1.55156 -2.9445 -0.759185 4
2.06447 -6.59917 1.58575 35
2.62945 -5.01677 1.5063 41
2.06783 -6.60591 1.08834 36
2.79607 -5.35655 1.1667 8
1.99433 -6.36707 0.580675 15
1.40324 -4.48407 -0.245223 4
1.55509 -4.97895 -0.635254 44
1.17427 -3.76314 -0.758056 4
0.859141 -2.75871 -0.764312 4
2.05411 -6.60241 1.58575 36
2.61286 -5.00637 1.50178 39
2.05745 -6.60915 1.08834 36
2.79692 -5.38102 1.17099 4
1.98173 -6.36578 0.580239 17
1.54705 -4.97152 0.0902726 45
1.408 -4.52705 -0.247455 3
1.54506 -4.97428 -0.634341 45
1.40903 -2.73103 -0.265295 20
1.16625 -3.76049 -0.757104 4
2.13458 -4.12498 -0.730963 11
0.857177 -2.76944 -0.766899 4
2.01595 -6.60142 1.58295 33
2.58527 -5.01524 1.50049 39
2.01777 -6.6033 1.0856 36
2.782 -5.41911 1.17623 8
1.94585 -6.36382 0.57915 17
1.51895 -4.96972 0.090098 45
1.38574 -4.53913 -0.247717 4
1.5161 -4.97281 -0.633124 45
1.39131 -2.73172 -0.264642 20
1.14434 -3.75695 -0.755199 4
2.11971 -4.14929 -0.733312 9
0.84385 -2.77605 -0.767545 4
2.00231 -6.59794 1.58126 33
2.56988 -5.00686 1.49661 39
2.00409 -6.59972 1.08443 36
2.78724 -5.45503 1.18291 9
1.93257 -6.36006 0.578496 17
1.50868 -4.97024 0.0900544 45
1.39591 -4.60127 -0.250999 3
1.50742 -4.97544 -0.633124 45
1.39558 -2.7519 -0.266382 14
1.1392 -3.76364 -0.756151 4
0.838519 -2.77766 -0.767545 4
1.96241 -6.59466 1.57789 32
2.54057 -5.01638 1.49532 39
1.96413 -6.59627 1.08209 36
2.77525 -5.5024 1.19006 8
1.89458 -6.35849 0.577407 17
1.4805 -4.97088 0.0899235 45
1.37251 -4.61091 -0.25113 3
1.47782 -4.97137 -0.631603 47
1.38674 -2.7703 -0.267469 14
1.12018 -3.77191 -0.756627 4
0.823279 -2.7797 -0.766899 4
1.95136 -6.5954 1.57733 32
2.52615 -5.00744 1.49144 39
1.95377 -6.59934 1.08209 36
2.78095 -5.53525 1.19625 9
1.88176 -6.35191 0.576535 18
1.46985 -4.96361 0.089749 47
1.38084 -4.66573 -0.254018 3
1.4686 -4.96893 -0.630994 47
1.38685 -2.78138 -0.268339 15
1.1136 -3.77386 -0.756627 4
1.46105 -2.92459 -0.512887 8
0.820273 -2.78562 -0.768192 4
1.91843 -6.60252 1.57677 35
2.49733 -5.01108 1.48886 38
1.91667 -6.59221 1.07936 36
2.77899 -5.59931 1.20721 9
1.84861 -6.35385 0.575882 18
1.44488 -4.96834 0.0897054 47
1.42538 -4.90764 -0.266883 12
1.33454 -2.71103 -0.0521391 12
1.43998 -4.96438 -0.629473 47
1.37937 -2.80176 -0.269644 49
1.09446 -3.7769 -0.756151 4
1.44185 -2.9231 -0.511321 11
0.805981 -2.78728 -0.767545 4
1.90555 -6.60117 1.57565 35
2.48213 -5.00246 1.48498 36
1.90379 -6.5908 1.07858 36
2.87056 -5.8114 1.25201 12
1.85272 -6.40971 0.580675 9
1.43395 -4.9663 0.0896181 47
2.46968 -5.02546 0.291642 8
1.43341 -4.96769 -0.270034 47
1.32209 -2.69765 -0.0518336 9
1.43062 -4.9645 -0.629169 47
1.37008 -2.79523 -0.268774 27
1.08651 -3.77409 -0.755199 4
1.44002 -2.93226 -0.512496 9
0.800628 -2.78882 -0.767545 4
1.86649 -6.59967 1.57284 33
2.44865 -5.0028 1.4811 35
1.86676 -6.59625 1.0778 36
1.84582 -6.51789 0.589609 11
2.9198 -6.01073 0.81506 15
1.40589 -4.96652 0.0894872 47
2.43264 -5.01854 0.290465 8
1.40602 -4.97032 -0.269771 45
1.30856 -2.70702 -0.0518773 9
1.40307 -4.96978 -0.628865 47
1.35869 -2.80908 -0.269426 11
1.06873 -3.78936 -0.757104 4
1.42845 -2.94889 -0.514062 8
0.786015 -2.79298 -0.767545 4
1.85283 -6.59086 1.57003 30
2.43461 -4.99622 1.47787 33
1.85324 -6.59237 1.07663 36
1.85533 -6.59543 0.596363 36
2.90606 -6.00912 0.814147 15
1.39654 -4.96656 0.0894436 47
2.41518 -5.0048 0.289418 8
1.396 -4.96796 -0.269509 45
1.30275 -2.70704 -0.0518336 9
1.39172 -4.96267 -0.627648 47
1.35162 -2.80696 -0.268991 9
1.06146 -3.78885 -0.756627 4
0.783086 -2.80132 -0.769485 3
1.81585 -6.59609 1.56891 32
2.40423 -5.0002 1.47529 32
1.81411 -6.58532 1.0739 36
3.13056 -6.53639 1.40071 21
1.82077 -6.60505 0.596363 39
2.87027 -6.01529 0.81293 26
1.3672 -4.96175 0.0892254 45
1.36778 -4.97063 -0.269246 45
1.2864 -2.70932 -0.0517464 11
1.36506 -4.96749 -0.627343 45
1.33856 -2.81873 -0.269426 14
1.0429 -3.79909 -0.75758 4
1.8037 -6.5969 1.56835 33
2.39341 -5.00003 1.47399 27
1.80327 -6.59086 1.07429 36
3.16981 -6.65091 1.42406 33
1.80595 -6.59621 0.595274 38
2.8587 -6.01805 0.812626 23
1.35701 -4.96196 0.0891818 45
1.35844 -4.9706 -0.269115 45
1.28382 -2.71607 -0.0518336 18
1.35443 -4.96269 -0.626431 45
1.33577 -2.82556 -0.269861 15
1.76672 -6.60186 1.56722 35
2.36115 -5.00199 1.47076 24
1.76822 -6.6029 1.07468 39
3.13285 -6.66297 1.42311 33
1.76766 -6.59626 0.594402 38
1.32972 -4.96417 0.0890945 45
1.36383 -2.92274 0.167213 12
1.33046 -4.97041 -0.268721 45
1.26698 -2.71845 -0.0517464 14
1.325 -4.96035 -0.625214 45
1.32518 -2.84154 -0.270731 9
1.28314 -2.7407 -0.689556 8
1.75447 -6.59756 1.56554 35
2.34933 -4.99955 1.46882 20
1.75098 -6.5845 1.07117 33
3.11184 -6.64843 1.41882 32
1.75551 -6.59693 0.594184 38
1.31977 -4.96165 0.0890073 47
1.35661 -2.92059 0.166952 21
1.3205 -4.96789 -0.268459 45
1.26118 -2.71839 -0.0517027 9
1.31634 -4.96266 -0.625214 45
1.32338 -2.85062 -0.271383 11
1.27319 -2.73191 -0.686748 8
1.71446 -6.59045 1.56161 33
2.30888 -4.98112 1.45978 15
1.71524 -6.5888 1.07039 36
3.06978 -6.64904 1.41548 29
1.29063 -4.9564 0.0887891 47
1.33191 -2.90724 0.165774 23
1.29259 -4.96749 -0.268065 45
1.24693 -2.72496 -0.0517027 9
1.28597 -4.95267 -0.623084 35
1.31259 -2.86656 -0.272253 14
1.35554 -2.95597 -0.510147 3
1.24866 -2.71642 -0.681133 11
2.29815 -4.98076 1.45848 15
3.0479 -6.6321 1.41072 27
1.28198 -4.95864 0.0887891 30
1.32788 -2.91183 0.165905 29
1.27706 -4.94315 -0.266621 8
1.24217 -2.72713 -0.0517027 9
1.27362 -4.94049 -0.621259 2
1.30966 -2.87338 -0.272688 15
1.2551 -2.74294 -0.687309 3
2.26402 -4.97514 1.45331 14
1.24498 -4.91807 0.44079 1
1.25477 -4.96044 0.0887019 2
1.3085 -2.90964 0.165382 15
1.2481 -4.93767 -0.265964 2
1.22582 -2.72904 -0.0516155 9
1.24106 -4.92062 -0.617912 3
1.29972 -2.89155 -0.273775 14
1.2248 -4.87757 1.15113 1
2.26033 -4.99008 1.45655 11
1.22935 -4.89576 0.792155 2
1.24064 -4.93715 0.442315 2
1.23213 -4.90686 0.0876983 2
1.30342 -2.91192 0.165382 26
1.22413 -2.73802 -0.0517464 11
1.24451 -4.97092 -0.623997 2
1.29059 -2.88472 -0.272906 11
1.20246 -4.90069 1.15506 2
2.21246 -4.95336 1.44233 1
1.209 -4.92371 0.795667 2
1.26327 -2.85721 0.378779 2
1.28512 -2.91185 0.164989 17
1.20674 -2.73753 -0.0516155 20
1.28253 -2.90738 -0.274428 9
1.8948 -4.28371 -0.737227 9
2.20578 -4.96162 1.44362 2
1.25929 -2.86168 0.379083 4
1.28004 -2.91409 0.164989 15
1.20196 -2.73963 -0.0516155 15
1.28348 -2.92329 -0.275733 9
1.88433 -4.28024 -0.736052 8
2.1721 -4.95801 1.4391 2
1.24577 -2.873 0.379692 9
1.25828 -2.90724 0.164204 14
1.18413 -2.73922 -0.0514846 9
1.27161 -2.93933 -0.276602 9
1.85795 -4.28099 -0.734486 8
2.16538 -4.96621 1.44039 3
1.24125 -2.87495 0.379692 9
1.24876 -2.89775 0.16355 14
1.17737 -2.73669 -0.0513973 9
1.84949 -4.28196 -0.734095 8
2.13257 -4.95937 1.43522 3
1.22131 -2.87 0.378171 8
1.23259 -2.90196 0.163419 14
1.16252 -2.74032 -0.0513537 9
1.83189 -4.30294 -0.736052 8
2.12391 -4.96308 1.43522 2
1.21338 -2.86528 0.377258 11
1.2246 -2.89721 0.163026 12
1.15969 -2.74694 -0.051441 9
1.82921 -4.31749 -0.73801 4
1.2974 -3.05706 -0.7575 8
2.09608 -4.97228 1.43457 2
2.78045 -6.62367 1.38832 38
1.19499 -2.86494 0.376345 8
1.20505 -2.89458 0.162503 12
1.14481 -2.75318 -0.051441 9
1.18628 -2.85109 -0.266599 3
1.80562 -4.32473 -0.737618 4
1.28178 -3.06628 -0.758062 8
2.07898 -4.95589 1.42876 2
2.77078 -6.63304 1.38927 33
1.19144 -2.8691 0.376649 9
1.2005 -2.89647 0.162503 11
1.1448 -2.76671 -0.0516591 12
0.503872 -2.27768 -0.281727 8
1.16887 -2.82326 -0.263773 2
1.80092 -4.33471 -0.738793 4
1.27603 -3.06604 -0.7575 4
2.04832 -4.95297 1.42488 2
2.73155 -6.63337 1.38641 41
1.17263 -2.86612 0.375432 9
0.488116 -2.25488 0.0396606 9
1.18342 -2.89809 0.162241 12
1.13173 -2.77479 -0.0517027 20
0.489852 -2.27058 -0.28051 8
1.78195 -4.35322 -0.740359 4
1.26181 -3.07719 -0.758623 8
2.04059 -4.95877 1.42553 2
2.71509 -6.62952 1.38451 32
0.483878 -2.2524 0.198497 9
1.16856 -2.87046 0.375737 8
0.483263 -2.25337 0.039617 9
1.17931 -2.90247 0.162372 18
1.12971 -2.7837 -0.0518336 12
0.4833 -2.2593 -0.278988 12
1.77248 -4.35175 -0.739576 4
1.25274 -3.07037 -0.756377 4
2.00373 -4.94512 1.41842 2
2.67758 -6.63682 1.38308 32
0.470667 -2.25011 0.198061 8
1.15116 -2.87213 0.375128 8
0.470948 -2.25342 0.0395733 12
1.16731 -2.91807 0.162896 27
1.12209 -2.80833 -0.0521827 14
0.472078 -2.26674 -0.279597 8
1.75613 -4.37701 -0.742316 4
1.23702 -3.07936 -0.756939 4
1.99691 -4.95309 1.41971 2
2.66141 -6.6301 1.38069 32
0.464219 -2.23873 0.196972 9
1.14665 -2.87394 0.375128 4
0.466509 -2.25179 0.0395297 9
1.16551 -2.92686 0.163288 30
1.11811 -2.8126 -0.0522263 12
0.467015 -2.26019 -0.278684 8
1.74573 -4.37319 -0.741142 8
1.22674 -3.06773 -0.75357 8
1.97002 -4.95865 1.41842 3
2.6242 -6.63436 1.37879 32
0.453373 -2.24349 0.19719 9
1.13523 -2.88914 0.376345 4
0.454119 -2.24922 0.0394424 9
1.14834 -2.92827 0.163026 24
1.10935 -2.83218 -0.0524881 12
0.453711 -2.2553 -0.277771 4
1.72462 -4.38686 -0.741925 8
1.20887 -3.06958 -0.752447 11
1.96048 -4.95983 1.41777 2
2.60336 -6.61884 1.3745 32
0.448482 -2.2394 0.196754 9
1.132 -2.89573 0.376954 8
0.450777 -2.25499 0.0395297 9
1.14504 -2.93492 0.163288 24
1.10258 -2.82946 -0.0524008 8
0.450741 -2.26096 -0.27838 4
0.450849 -2.2656 -0.441406 3
1.71786 -4.39217 -0.742316 8
1.20083 -3.06489 -0.750762 9
1.92747 -4.95462 1.41325 2
2.56601 -6.62551 1.37307 32
0.438256 -2.25157 0.197626 8
1.12437 -2.92265 0.379692 8
0.437537 -2.24996 0.0393988 4
1.12915 -2.94107 0.163288 20
1.08636 -2.83305 -0.0523572 8
0.438031 -2.26093 -0.278076 4
0.43812 -2.2656 -0.44093 3
1.6895 -4.38728 -0.739967 8
1.18423 -3.07134 -0.750762 11
1.91795 -4.95572 1.4126 2
0.433517 -2.24806 0.356275 4
2.55179 -6.62311 1.37164 32
0.431976 -2.2401 0.196536 4
0.433138 -2.24827 0.0393552 8
1.12721 -2.94984 0.163681 15
1.07962 -2.83028 -0.05227 11
0.434479 -2.26161 -0.278076 4
0.432784 -2.25913 -0.439501 4
1.68539 -4.39944 -0.741533 9
1.17152 -3.05274 -0.745708 9
1.88853 -4.95409 1.40937 3
0.419927 -2.24059 0.354714 4
2.51474 -6.62677 1.36973 32
0.420174 -2.23981 0.196318 8
0.420835 -2.24552 0.0392679 9
1.0644 -2.83337 -0.0522263 12
0.421724 -2.25898 -0.277467 8
0.422688 -2.26853 -0.44093 4
1.66058 -4.40359 -0.74075 9
0.422408 -2.27577 -0.610415 4
1.1607 -3.0725 -0.749077 3
1.87644 -4.94835 1.40679 2
0.416016 -2.24132 0.354714 3
2.49941 -6.6247 1.3683 32
0.416264 -2.24054 0.196318 8
2.48746 -6.6174 0.862521 32
0.417432 -2.25124 0.0393552 12
1.06033 -2.83756 -0.05227 12
0.416432 -2.25239 -0.276554 4
1.86629 -4.98408 -0.461656 50
0.417396 -2.26202 -0.439501 4
1.62159 -4.32329 -0.726656 3
0.418038 -2.27658 -0.610415 4
1.1605 -3.08819 -0.752447 4
1.84795 -4.9539 1.4055 2
0.403447 -2.2411 0.354324 3
2.45956 -6.62389 1.36544 32
0.403255 -2.23786 0.195883 11
2.44645 -6.6168 0.860696 33
0.404315 -2.24601 0.0392243 14
1.0415 -2.83388 -0.0520954 9
0.405548 -2.26194 -0.277467 8
1.83758 -4.98677 -0.461004 45
0.406013 -2.26908 -0.440453 4
1.60674 -4.35515 -0.730571 9
0.406535 -2.28112 -0.611062 3
1.14632 -3.10128 -0.754131 4
1.83593 -4.94807 1.40291 2
0.399535 -2.2418 0.354324 4
2.44629 -6.62357 1.36449 32
0.398041 -2.2312 0.195229 11
2.4306 -6.60942 0.859174 35
0.399083 -2.23933 0.0390934 12
1.04431 -2.85681 -0.0524881 9
0.399871 -2.25287 -0.27625 9
1.82458 -4.97828 -0.459917 45
0.400346 -2.26012 -0.438549 4
1.6017 -4.3649 -0.731746 11
0.402971 -2.2842 -0.611708 4
1.14344 -3.11013 -0.755816 4
1.81083 -4.95988 1.40356 2
0.387791 -2.24387 0.354324 8
2.40989 -6.63168 1.36354 32
0.388046 -2.24307 0.1961 11
2.39512 -6.61972 0.85887 35
0.387352 -2.24139 0.0390934 12
1.02594 -2.85283 -0.0523136 2
0.389328 -2.26227 -0.277163 9
0.390576 -2.27428 -0.44093 8
1.59725 -4.4217 -0.739967 12
0.391411 -2.28866 -0.612355 4
1.1313 -3.12752 -0.758623 8
1.79887 -4.95396 1.40097 2
0.384266 -2.24447 0.354324 8
2.39497 -6.62664 1.36163 32
0.38413 -2.24375 0.1961 11
2.37966 -6.60947 0.857045 35
0.38386 -2.24452 0.039137 14
1.03872 -2.90402 -0.0532298 2
0.386189 -2.26532 -0.277467 9
0.387016 -2.27738 -0.441406 8
1.59121 -4.42913 -0.74075 12
0.387817 -2.29172 -0.613002 4
1.12638 -3.1293 -0.758623 8
1.77458 -4.96527 1.40162 3
0.372911 -2.24889 0.354714 8
2.35728 -6.62712 1.35925 32
0.373581 -2.25058 0.196536 8
2.3442 -6.6195 0.856741 35
0.373309 -2.25137 0.0392243 4
1.75798 -4.9787 0.274895 4
1.02317 -2.90688 -0.0531862 2
0.374726 -2.26976 -0.277771 4
1.68472 -4.77451 -0.439041 12
0.377074 -2.28899 -0.44331 4
1.5746 -4.45602 -0.743883 12
0.377381 -2.3008 -0.614941 4
1.1108 -3.13745 -0.759185 4
1.76186 -4.95699 1.39839 3
2.33997 -6.61503 1.35591 33
0.369653 -2.25123 0.196536 8
2.32521 -6.60252 0.854002 32
0.370588 -2.25942 0.0393552 11
1.75177 -4.98882 0.275287 8
1.0322 -2.94875 -0.0539279 3
0.372756 -2.28266 -0.279293 4
1.74584 -4.97478 -0.457307 45
0.371505 -2.27996 -0.441406 4
1.57174 -4.47273 -0.746232 9
0.37298 -2.29907 -0.614295 4
1.10451 -3.13708 -0.758623 4
1.73268 -4.95703 1.3958 3
2.30288 -6.62024 1.35448 33
0.359417 -2.26297 0.197408 9
2.28898 -6.60992 0.853394 33
0.358753 -2.26133 0.0393552 9
1.72236 -4.98849 0.274764 8
1.02573 -2.9801 -0.0544079 3
0.360799 -2.28458 -0.279293 3
1.71814 -4.97914 -0.456872 45
0.361085 -2.29157 -0.44331 4
1.54911 -4.48323 -0.746623 8
0.361682 -2.30577 -0.615588 4
1.08807 -3.14282 -0.758623 4
1.72324 -4.95776 1.39516 3
2.2857 -6.60802 1.35114 35
0.355852 -2.26605 0.197626 9
2.27501 -6.60687 0.852481 33
0.356735 -2.2743 0.0395733 8
1.7104 -4.98205 0.27424 8
0.356429 -2.28275 -0.278988 3
1.7054 -4.97036 -0.455785 45
0.356708 -2.28977 -0.442834 4
1.54531 -4.4976 -0.748581 8
0.356552 -2.29924 -0.613648 4
1.08258 -3.14472 -0.758623 4
1.69412 -4.95758 1.39257 4
2.25027 -6.61758 1.35067 33
0.344726 -2.27281 0.198061 8
2.23719 -6.60929 0.851264 32
0.342584 -2.26131 0.0393115 8
1.68029 -4.97911 0.273586 8
0.344841 -2.28704 -0.279293 3
1.67935 -4.97922 -0.455785 45
0.344351 -2.28918 -0.442358 8
1.51619 -4.48926 -0.74584 8
0.344864 -2.30346 -0.614295 8
1.06689 -3.15265 -0.759185 4
1.68858 -4.96967 1.39516 4
2.23557 -6.6122 1.34876 35
0.339655 -2.26602 0.197408 8
2.22328 -6.60613 0.850352 35
0.339374 -2.26685 0.0393988 9
1.67319 -4.98677 0.273848 9
0.340777 -2.27898 -0.11933 8
0.34012 -2.28273 -0.278684 3
1.66669 -4.97034 -0.454698 45
0.339636 -2.28492 -0.441406 4
1.50993 -4.49658 -0.746623 9
0.340139 -2.29928 -0.613002 8
1.0645 -3.16374 -0.761431 4
1.65794 -4.96471 1.39128 4
2.19782 -6.6145 1.34686 35
0.329205 -2.27763 0.198279 4
2.18553 -6.60826 0.849135 33
0.326434 -2.26117 0.0392679 9
1.6447 -4.98835 0.273455 9
0.32742 -2.27085 -0.118804 9
1.63634 -4.96886 -0.0907089 45
0.328866 -2.2894 -0.279293 4
1.63751 -4.96954 -0.453828 45
0.326281 -2.27695 -0.439501 8
1.48248 -4.4927 -0.744666 8
0.327417 -2.29625 -0.611708 4
1.04639 -3.16464 -0.760308 8
1.64698 -4.96072 1.38934 4
2.18395 -6.61133 1.34543 35
0.323827 -2.26834 0.197408 8
2.17322 -6.60971 0.84883 33
0.322135 -2.25926 0.0392243 9
1.63443 -4.98647 0.273194 9
0.322756 -2.26647 -0.118542 9
1.62454 -4.96221 -0.0905344 44
0.324522 -2.28751 -0.278988 4
1.62806 -4.97003 -0.45361 45
0.322991 -2.28238 -0.440453 8
1.47387 -4.49294 -0.744274 8
0.323409 -2.29682 -0.611708 4
1.04239 -3.17109 -0.761431 8
1.64201 -5.03354 1.40743 8
2.14779 -6.61801 1.34447 35
0.312284 -2.27247 0.197626 4
2.13552 -6.61155 0.847613 33
0.310978 -2.26587 0.0393115 9
1.60216 -4.97595 0.272147 9
0.310825 -2.27066 -0.118673 8
1.59777 -4.96827 -0.0904907 45
0.311538 -2.2818 -0.278076 4
1.59732 -4.96691 -0.452523 45
0.311366 -2.28647 -0.44093 4
1.44956 -4.49825 -0.743883 8
0.311701 -2.30087 -0.612355 3
1.02728 -3.18114 -0.762554 4
2.13206 -6.61278 1.34257 33
0.307984 -2.27054 0.197408 8
2.11942 -6.6011 0.845788 33
0.306961 -2.26894 0.0393552 8
1.58813 -4.9621 0.271231 9
0.306196 -2.26625 -0.118411 8
1.58604 -4.96153 -0.0903162 45
0.306895 -2.27742 -0.277467 4
1.58789 -4.96732 -0.452306 45
0.30705 -2.28458 -0.440453 9
1.44322 -4.50547 -0.744666 8
0.307283 -2.30146 -0.612355 4
1.02023 -3.17829 -0.761431 4
2.09369 -6.61216 1.34018 35
0.295055 -2.26723 0.196972 8
2.07994 -6.60064 0.844267 33
0.295077 -2.27052 0.0393552 9
1.55901 -4.96348 0.270839 8
0.293686 -2.26287 -0.118148 9
1.55768 -4.96527 -0.0902289 45
0.295202 -2.28397 -0.278076 3
1.55887 -4.96606 -0.451436 45
0.296558 -2.30081 -0.44331 3
1.42105 -4.52028 -0.74584 4
0.295534 -2.30544 -0.613002 8
1.00596 -3.19306 -0.763677 4
2.0874 -6.59251 1.84104 1
2.07846 -6.6041 1.3378 33
0.290466 -2.2628 0.196536 11
2.06767 -6.60189 0.843962 33
0.292062 -2.27847 0.0394861 9
1.55035 -4.96619 0.270839 9
0.291314 -2.27576 -0.118804 9
1.54901 -4.96798 -0.0902289 45
0.29184 -2.28941 -0.278684 3
1.54945 -4.9664 -0.451218 45
0.292542 -2.30133 -0.44331 11
1.41611 -4.53217 -0.747406 8
0.290606 -2.29876 -0.611062 70
0.99892 -3.19016 -0.762554 4
2.03633 -6.55032 1.82617 1
2.04167 -6.60786 1.33637 33
0.278614 -2.2643 0.196536 8
2.02942 -6.60077 0.842441 36
0.280129 -2.27996 0.0394861 9
1.52799 -4.98617 0.271493 9
0.279394 -2.27726 -0.118804 3
1.51857 -4.96168 -0.0899671 44
0.279849 -2.2909 -0.278684 52
1.52123 -4.9673 -0.450566 47
0.279602 -2.29552 -0.441882 58
1.39388 -4.54164 -0.747798 4
0.279721 -2.30984 -0.613648 58
0.980764 -3.19069 -0.761431 4
2.01918 -6.53541 1.821 1
2.02869 -6.60672 1.33542 33
0.274662 -2.26478 0.196536 8
2.01687 -6.59683 0.841529 36
0.276149 -2.28045 0.0394861 44
1.5187 -4.98379 0.271231 9
0.277506 -2.29509 -0.119723 56
1.50772 -4.95715 -0.0898363 45
0.276545 -2.2938 -0.278988 50
1.51038 -4.9628 -0.449914 45
0.275596 -2.296 -0.441882 50
1.38885 -4.55351 -0.749364 8
0.274835 -2.30313 -0.611708 59
0.975751 -3.19223 -0.761431 4
1.98045 -6.52706 1.81583 1
1.99097 -6.60281 1.33256 35
0.263481 -2.26861 0.196754 8
1.98087 -6.60255 0.84092 35
0.266035 -2.29423 0.0397042 53
1.49832 -5.01081 0.272278 11
0.265886 -2.29647 -0.119723 53
1.47759 -4.94796 -0.0895308 45
0.264531 -2.29522 -0.278988 52
1.48453 -4.968 -0.449696 47
0.263971 -2.29737 -0.441882 52
1.36356 -4.55599 -0.748581 8
0.263174 -2.30449 -0.611708 59
0.959023 -3.19729 -0.761431 8
1.96276 -6.5097 1.81002 1
1.98015 -6.60863 1.33303 33
0.258958 -2.26412 0.196318 8
1.9665 -6.59648 0.839703 36
0.26203 -2.29469 0.0397042 53
1.47959 -4.97992 0.270446 9
0.262722 -2.30437 -0.120117 53
1.47109 -4.95772 -0.0896617 42
0.25969 -2.28828 -0.278076 52
1.47301 -4.96103 -0.448826 47
0.259687 -2.29538 -0.441406 52
1.36197 -4.57966 -0.752104 8
0.258078 -2.29535 -0.609122 61
0.953442 -3.19896 -0.761431 4
1.94033 -6.55925 1.821 1
1.94066 -6.60242 1.3297 35
0.2471 -2.26545 0.196318 9
1.92984 -6.59955 0.83879 36
0.249205 -2.28858 0.0395733 52
1.45209 -4.98281 0.270184 8
0.249447 -2.29831 -0.119723 55
1.4367 -4.93656 -0.0891382 8
0.24797 -2.29208 -0.27838 50
1.44475 -4.96415 -0.448392 47
0.247664 -2.29671 -0.441406 52
1.33728 -4.58436 -0.751713 4
0.246312 -2.29907 -0.609768 59
0.940114 -3.2156 -0.764239 4
1.93638 -6.58811 1.82811 1
1.92453 -6.59436 1.32731 33
0.242353 -2.25844 0.195665 9
1.91554 -6.59337 0.837573 36
0.245075 -2.29154 0.039617 55
1.43991 -4.97335 0.26953 8
0.245435 -2.29874 -0.119723 55
1.43157 -4.95106 -0.0893563 21
0.24397 -2.29251 -0.27838 53
1.434 -4.95949 -0.447739 47
0.243398 -2.2947 -0.44093 52
1.3341 -4.60328 -0.754454 4
0.241396 -2.29474 -0.608475 59
0.932452 -3.21022 -0.762554 3
0.570913 -5.64578 1.29994 11
1.90205 -6.60313 1.82941 1
0.570436 -5.63133 0.888931 12
1.88863 -6.59963 1.32636 33
0.229377 -2.25229 0.195011 9
1.8778 -6.59648 0.836661 35
0.232822 -2.2903 0.0395733 53
1.41093 -4.97386 0.269138 8
0.232894 -2.29503 -0.119461 55
1.40134 -4.94672 -0.0891382 45
0.231315 -2.29132 -0.278076 52
1.40801 -4.96693 -0.447739 47
0.230735 -2.29354 -0.440453 52
1.31066 -4.61258 -0.754845 4
0.229854 -2.30078 -0.609768 59
0.914399 -3.21287 -0.761993 4
0.562525 -5.65152 1.30106 11
1.8792 -6.56698 1.81842 1
0.564766 -5.66416 0.894004 12
1.87509 -6.59584 1.32493 33
0.225693 -2.25516 0.195229 9
1.86608 -6.59465 0.836052 35
0.229071 -2.29319 0.039617 56
1.39836 -4.95925 0.268222 8
0.228888 -2.29543 -0.119461 56
1.39339 -4.95156 -0.0891818 45
0.227715 -2.29168 -0.278076 53
1.39663 -4.95979 -0.446869 47
0.226732 -2.29394 -0.440453 52
1.29924 -4.60298 -0.752887 4
0.225135 -2.29396 -0.607829 59
0.906685 -3.20493 -0.759746 4
1.8407 -6.55781 1.81325 1
1.84102 -6.60288 1.32446 35
0.213574 -2.24884 0.194575 9
1.83086 -6.60194 0.835748 35
0.216992 -2.28935 0.0395297 56
1.37437 -4.97372 0.268614 9
0.217267 -2.29656 -0.119461 56
1.36497 -4.9465 -0.0889636 45
0.215482 -2.29037 -0.277771 53
1.37218 -4.9692 -0.447087 47
0.214208 -2.28528 -0.438549 52
1.27776 -4.61924 -0.754454 4
0.213521 -2.29507 -0.607829 59
0.893163 -3.22137 -0.762554 4
1.82665 -6.5517 1.81067 1
1.82686 -6.59662 1.32255 36
0.209878 -2.25169 0.194793 11
1.81669 -6.59556 0.834531 36
0.212996 -2.28972 0.0395297 58
1.36436 -4.9713 0.268353 9
0.213488 -2.29942 -0.119592 56
1.35899 -4.95852 -0.0891382 45
0.211484 -2.29075 -0.277771 55
1.3602 -4.95958 -0.446 47
0.211112 -2.29543 -0.440453 52
1.26379 -4.60004 -0.75093 4
0.209734 -2.29785 -0.608475 59
0.884938 -3.21353 -0.760308 4
1.79679 -6.57748 1.81519 1
1.79037 -6.59899 1.32112 35
0.197869 -2.25028 0.194575 11
1.77825 -6.59061 0.832706 33
0.201439 -2.29579 0.039617 58
1.33701 -4.97356 0.268091 9
0.200612 -2.29557 -0.11933 56
1.3304 -4.95591 -0.0889636 45
0.199273 -2.28935 -0.277467 53
1.3327 -4.96446 -0.445782 47
0.19888 -2.29406 -0.439977 52
1.24226 -4.61613 -0.752496 4
0.197905 -2.30132 -0.609122 59
0.868738 -3.22047 -0.760869 4
1.7758 -6.54565 1.8055 1
1.77641 -6.59768 1.32017 35
0.193729 -2.24814 0.194357 11
1.76352 -6.58172 0.831184 32
0.196818 -2.29368 0.0395733 58
1.33027 -4.98312 0.268483 9
0.196817 -2.2984 -0.119461 58
1.32046 -4.9534 -0.0888764 45
0.195696 -2.29464 -0.278076 55
1.32338 -4.96437 -0.445565 47
0.19467 -2.29196 -0.439501 52
1.22844 -4.59682 -0.748972 4
0.193486 -2.3017 -0.609122 59
0.864383 -3.22669 -0.761993 4
1.75341 -6.60418 1.81907 12
1.73871 -6.59503 1.31778 33
0.182159 -2.2566 0.195011 11
1.72725 -6.58877 0.83088 29
0.184806 -2.29468 0.0395733 59
1.30139 -4.983 0.268091 9
0.18478 -2.2994 -0.119461 58
1.29237 -4.95563 -0.0887891 44
0.18269 -2.28824 -0.277163 53
1.29422 -4.95919 -0.444477 42
0.18188 -2.28808 -0.438549 52
1.21063 -4.62707 -0.752887 4
0.181244 -2.30027 -0.608475 59
0.365251 -4.65414 1.06802 1
1.74003 -6.60022 1.81713 14
1.66239 -6.35119 1.26822 1
0.178025 -2.25443 0.194793 11
0.180606 -2.2925 0.0395297 61
1.28727 -4.96088 0.266783 9
0.180572 -2.29723 -0.11933 59
1.27806 -4.93611 -0.0883964 9
0.17948 -2.29348 -0.277771 55
1.27177 -4.90841 -0.439693 2
0.178264 -2.29329 -0.439501 52
1.19258 -4.59095 -0.746623 4
0.176677 -2.29336 -0.606535 61
0.339815 -4.64141 1.06466 3
0.166249 -2.25033 0.194357 11
0.169 -2.29339 0.0395297 67
1.24833 -4.91674 0.264035 2
0.168579 -2.29314 -0.119067 61
1.24073 -4.89407 -0.0875238 2
0.167111 -2.28943 -0.277163 56
1.24629 -4.91237 -0.439476 2
0.166478 -2.29172 -0.439025 52
1.16975 -4.60192 -0.747406 4
0.164895 -2.29181 -0.605889 61
0.162676 -2.25559 0.194793 11
0.165353 -2.29867 0.039617 68
1.23729 -4.90923 0.263512 2
0.164754 -2.29592 -0.119198 61
0.163289 -2.2922 -0.277467 55
1.24016 -4.9242 -0.440346 2
0.162306 -2.28956 -0.438549 52
1.16293 -4.60874 -0.748189 4
0.161062 -2.29451 -0.606535 61
1.24184 -4.96038 1.35897 1
1.22166 -4.91614 0.977018 2
0.150141 -2.25147 0.194357 11
0.152256 -2.28955 0.0394424 70
