# .PCD v0.7 - Point Cloud Data file format
VERSION 0.7
FIELDS x y z intensity
SIZE 4 4 4 4
TYPE F F F F
COUNT 1 1 1 1
WIDTH 1613
HEIGHT 1
VIEWPOINT 0 0 0 1 0 0 0
POINTS 1613
DATA ascii
3.4982 -0.813813 -0.0620869 62
3.505 -0.815397 -0.311178 64
3.51184 -0.814428 -0.566134 64
3.07672 -0.710781 -0.719878 11
1.37591 -0.595015 0.337478 50
3.48343 -0.815002 0.947982 64
1.39208 -0.601747 0.234135 53
3.48771 -0.822362 0.689155 65
1.41067 -0.609524 0.131387 47
3.49113 -0.828273 0.435672 61
1.39497 -0.603015 0.0259168 35
3.4971 -0.832241 0.186578 64
3.49618 -0.833304 -0.0621306 64
3.5031 -0.834312 -0.311395 65
3.50739 -0.833417 -0.566134 65
1.3943 -0.605583 -0.397675 30
3.07283 -0.727417 -0.719878 9
1.37721 -0.598149 0.338039 47
3.48201 -0.821081 0.947982 62
1.3865 -0.602204 0.233354 55
3.49582 -0.830704 0.691062 65
1.40047 -0.60801 0.130516 49
3.49451 -0.835512 0.436281 62
1.38933 -0.603453 0.0258296 32
3.5005 -0.839501 0.186839 64
3.49715 -0.839985 -0.0621742 62
3.50407 -0.841003 -0.311613 65
3.50833 -0.840109 -0.566525 64
1.39103 -0.607047 -0.397028 30
3.07866 -0.734464 -0.721563 11
1.36515 -0.601414 0.335793 56
3.4825 -0.83982 0.949275 62
1.38117 -0.608217 0.232964 56
3.4868 -0.847235 0.690108 64
1.39281 -0.61308 0.13008 50
3.48783 -0.852603 0.435976 59
1.38855 -0.611487 0.0258732 33
3.48893 -0.855434 0.186447 62
3.49042 -0.857082 -0.0621306 56
3.50218 -0.859318 -0.31183 64
1.39696 -0.616937 -0.289509 35
3.50643 -0.85844 -0.566917 64
1.39015 -0.615059 -0.397675 27
3.06307 -0.747169 -0.718755 11
1.36643 -0.604546 0.336355 61
3.48338 -0.846464 0.949921 62
1.38236 -0.611628 0.233354 56
3.49009 -0.85448 0.691062 67
1.39174 -0.61551 0.13008 49
3.49115 -0.859869 0.436585 62
1.38291 -0.611882 0.0257859 33
3.49713 -0.863904 0.18697 61
1.40396 -0.621515 -0.0788966 27
3.5031 -0.866024 -0.312047 65
1.39364 -0.618377 -0.289033 35
3.50972 -0.865734 -0.5677 64
1.38025 -0.613553 -0.395089 27
3.06649 -0.75367 -0.719878 9
1.36314 -0.61193 0.336355 77
3.48124 -0.865271 0.950567 65
1.37464 -0.616831 0.232574 55
3.49033 -0.873928 0.692015 65
1.38396 -0.620746 0.129644 50
3.4842 -0.877534 0.436281 61
1.37285 -0.616038 0.025655 33
3.49014 -0.881595 0.186839 61
1.40286 -0.630127 -0.0790279 29
3.49836 -0.884964 -0.312047 65
1.39039 -0.625665 -0.289033 38
3.50754 -0.8847 -0.568091 64
1.37702 -0.620771 -0.395089 29
3.04596 -0.765584 -0.715947 11
1.36207 -0.614308 0.336355 90
3.47973 -0.871345 0.950567 65
1.36906 -0.617196 0.231793 55
3.48864 -0.880628 0.692015 65
1.38741 -0.625211 0.13008 50
3.48266 -0.883614 0.436281 61
1.36938 -0.617643 0.0256114 33
3.49102 -0.888297 0.18697 62
1.38811 -0.6264 -0.0782403 29
3.50405 -0.892904 -0.3127 65
1.38482 -0.626065 -0.28808 38
3.50838 -0.891425 -0.568483 64
1.36263 -0.617421 -0.391209 27
2.99501 -0.758419 -0.704155 9
1.35208 -0.618622 0.33467 73
3.47964 -0.891352 0.951859 64
1.3657 -0.624594 0.231793 55
3.49112 -0.900712 0.693444 65
1.37495 -0.628558 0.129208 50
3.48023 -0.903064 0.436585 61
1.36613 -0.624805 0.0256114 35
3.48616 -0.907172 0.18697 61
1.38935 -0.635742 -0.0785028 30
3.17066 -0.826695 -0.0565894 4
1.38756 -0.635793 -0.182848 29
3.49933 -0.911239 -0.3127 62
1.37918 -0.632523 -0.287604 39
3.50367 -0.909783 -0.568483 61
1.36157 -0.625557 -0.391855 29
2.95311 -0.764899 -0.695171 8
3.48042 -0.898024 0.952506 62
1.36023 -0.624673 0.231013 56
3.48716 -0.906189 0.692968 65
1.37838 -0.63304 0.129644 50
3.48601 -0.910401 0.437497 62
1.36731 -0.628234 0.025655 35
3.48956 -0.913906 0.187232 64
1.37916 -0.633986 -0.0779777 30
2.99749 -0.787403 -0.0534916 3
1.38656 -0.637972 -0.182848 35
3.49291 -0.916088 -0.312265 56
1.37139 -0.631842 -0.286176 41
3.50685 -0.91714 -0.569266 62
1.3539 -0.624891 -0.389916 30
2.92361 -0.762207 -0.688432 12
3.48284 -0.917464 0.954444 64
1.35918 -0.632831 0.231403 56
3.48728 -0.92508 0.693921 65
1.36838 -0.63685 0.128991 52
3.4788 -0.928005 0.437193 61
1.36185 -0.634089 0.0256114 35
3.43648 -0.919326 0.184615 64
1.3782 -0.642015 -0.078109 32
1.38769 -0.647326 -0.183457 35
3.46176 -0.926706 -0.309873 45
1.36818 -0.638775 -0.286176 41
3.50677 -0.936757 -0.570049 61
1.35509 -0.633786 -0.391209 33
2.9078 -0.774389 -0.685625 11
3.47656 -0.922309 0.953152 62
1.36031 -0.636251 0.231793 56
3.48803 -0.931795 0.694398 64
1.36501 -0.63818 0.128773 52
3.48197 -0.935356 0.437802 61
1.35621 -0.634343 0.0255241 36
3.48068 -0.937599 0.187101 42
1.36578 -0.639118 -0.0774526 30
1.38656 -0.649747 -0.183457 36
3.42886 -0.924362 -0.307046 32
1.36262 -0.639074 -0.285223 41
3.50752 -0.943514 -0.57044 62
1.35617 -0.637179 -0.391855 33
2.92527 -0.784481 -0.690117 8
3.47868 -0.942385 0.95509 64
1.35696 -0.643364 0.231793 56
3.48531 -0.951297 0.694874 65
1.3639 -0.646387 0.128991 47
3.48421 -0.955534 0.438714 62
1.3505 -0.640598 0.0254805 38
1.36004 -0.645426 -0.0773213 33
1.37866 -0.654864 -0.182848 36
3.40219 -0.936978 -0.305089 23
1.36136 -0.647493 -0.285699 41
3.50491 -0.962517 -0.570832 62
1.34835 -0.642425 -0.390562 36
2.92569 -0.801576 -0.69124 3
1.27196 -0.605951 0.316701 39
3.4792 -0.949694 0.955737 61
1.35572 -0.645969 0.231793 56
3.48127 -0.956731 0.694398 61
1.35817 -0.646859 0.128555 50
3.48476 -0.962879 0.439019 61
1.35389 -0.645109 0.0255678 36
3.32466 -0.921351 0.178989 4
1.3543 -0.645882 -0.0770588 30
2.91874 -0.810556 -0.05227 4
1.37292 -0.655368 -0.18224 36
1.35801 -0.648808 -0.285223 42
3.50782 -0.970555 -0.571615 62
1.35146 -0.647103 -0.391855 36
2.97597 -0.820851 -0.703594 4
1.27065 -0.614329 0.317263 44
3.47617 -0.969757 0.956383 61
1.35209 -0.65353 0.231793 56
3.48769 -0.979461 0.696781 65
1.35005 -0.652263 0.128119 52
3.4841 -0.983669 0.439627 62
1.34577 -0.65048 0.0254805 39
1.34629 -0.651023 -0.0767962 36
3.21008 -0.9103 -0.0576366 4
1.35808 -0.657608 -0.180719 30
1.35437 -0.656383 -0.285223 42
3.50472 -0.9908 -0.572007 61
1.34794 -0.654405 -0.391855 38
3.03937 -0.856517 -0.719878 11
1.26092 -0.61206 0.315017 45
3.47912 -0.977122 0.957675 61
1.35095 -0.655889 0.231793 56
3.48834 -0.986211 0.697257 64
1.34891 -0.654618 0.128119 56
3.48477 -0.990424 0.439931 62
1.34913 -0.655016 0.0255678 36
1.34515 -0.653371 -0.0767962 44
3.10268 -0.885862 -0.0557168 32
1.35024 -0.656715 -0.179806 33
1.3466 -0.655517 -0.283795 41
3.50774 -0.998261 -0.57279 61
1.34897 -0.657818 -0.392502 36
3.00974 -0.853885 -0.71314 11
1.2554 -0.617796 0.314455 47
3.47396 -0.995325 0.957675 59
1.34528 -0.661861 0.231403 56
3.48077 -1.00379 0.696781 62
1.34099 -0.65947 0.127683 56
3.48192 -1.00934 0.440236 62
1.34568 -0.662071 0.0255678 35
1.33947 -0.659301 -0.076665 36
3.0908 -0.90001 -0.0555859 41
1.33566 -0.65828 -0.178285 35
1.35195 -0.66691 -0.285699 39
3.50501 -1.01669 -0.573181 62
1.34983 -0.667015 -0.393795 33
3.03332 -0.877715 -0.719878 11
1.2457 -0.615442 0.312209 50
3.47918 -1.00339 0.959614 61
1.34645 -0.665069 0.231793 55
3.4908 -1.01326 0.699164 67
1.34207 -0.662914 0.127901 55
3.4851 -1.01619 0.440844 62
1.34004 -0.662199 0.0254805 36
1.34056 -0.662746 -0.0767962 36
3.07723 -0.901906 -0.0553678 33
1.35685 -0.671403 -0.181327 41
1.34639 -0.667085 -0.284747 38
3.50798 -1.02418 -0.573964 62
1.34867 -0.66937 -0.393795 29
3.02959 -0.881801 -0.719316 11
1.24464 -0.623049 0.312771 50
3.47637 -1.02166 0.96026 62
1.34516 -0.673217 0.232183 55
3.48327 -1.03023 0.698687 67
1.34093 -0.670815 0.128119 53
3.47735 -1.03372 0.44054 61
1.34338 -0.672336 0.0256114 36
1.32826 -0.665044 -0.0762711 38
3.05105 -0.911065 -0.0549751 33
1.35553 -0.679613 -0.181631 42
1.34738 -0.676096 -0.285699 41
3.50256 -1.04253 -0.573964 62
1.34526 -0.676188 -0.393795 26
3.02727 -0.898341 -0.719878 9
1.24148 -0.623907 0.312209 50
3.4769 -1.02841 0.960906 62
1.33957 -0.673342 0.231403 55
3.48618 -1.0377 0.69964 67
1.34643 -0.676515 0.128773 58
3.47792 -1.0405 0.440844 59
1.3422 -0.674679 0.0256114 35
2.87146 -0.862104 0.155307 35
1.33602 -0.671856 -0.0767962 36
3.0303 -0.910662 -0.054626 36
1.36542 -0.687568 -0.183153 39
1.34839 -0.679554 -0.286176 41
3.50547 -1.05006 -0.574747 62
1.34408 -0.678535 -0.393795 26
1.23809 -0.630615 0.312209 50
3.47378 -1.04729 0.961553 61
1.34263 -0.683715 0.232574 53
3.48539 -1.05736 0.700593 65
1.34287 -0.683555 0.128773 55
3.47717 -1.06014 0.441453 62
1.33865 -0.681698 0.0256114 36
2.85736 -0.874221 0.154784 41
1.32359 -0.6743 -0.0762711 32
3.01354 -0.922875 -0.0544079 41
1.35959 -0.693578 -0.182848 41
2.82891 -0.866114 -0.255292 8
1.34044 -0.684368 -0.285223 38
3.50248 -1.0685 -0.575139 62
1.34481 -0.687766 -0.395089 27
1.23276 -0.630336 0.311086 50
3.47657 -1.05475 0.962845 62
1.33716 -0.683571 0.231793 55
3.48824 -1.06486 0.701547 68
1.33946 -0.684762 0.128555 52
3.48499 -1.0685 0.44267 62
1.33968 -0.685173 0.025655 33
2.84882 -0.876517 0.154391 44
1.32907 -0.680027 -0.076665 35
3.00236 -0.925203 -0.0542333 45
1.36292 -0.697979 -0.183457 39
2.82263 -0.869592 -0.254857 8
1.34143 -0.687829 -0.285699 39
3.50297 -1.07534 -0.57553 62
1.35434 -0.695639 -0.398322 23
2.29235 -0.702863 -0.544681 14
1.22944 -0.636782 0.311086 52
3.4735 -1.07304 0.963491 62
1.33137 -0.689425 0.231403 58
3.47577 -1.08033 0.700117 59
1.33597 -0.691533 0.128555 52
3.47698 -1.08599 0.442365 59
1.33398 -0.690794 0.0256114 36
2.84181 -0.890679 0.15426 47
1.32118 -0.684444 -0.0764024 38
2.98332 -0.93592 -0.0539716 42
1.35704 -0.703961 -0.183153 38
2.82771 -0.886833 -0.255727 8
1.34446 -0.698008 -0.287128 39
3.49984 -1.09379 -0.575922 62
1.35294 -0.703601 -0.398968 35
2.277 -0.711248 -0.541874 14
1.23276 -0.640965 0.312209 53
3.47623 -1.08053 0.964783 61
1.33247 -0.692657 0.231793 56
3.4856 -1.09004 0.7025 67
1.33697 -0.695015 0.128773 52
3.48238 -1.09367 0.443278 62
1.33499 -0.694276 0.025655 35
2.83087 -0.892155 0.153737 47
1.31998 -0.686749 -0.0764024 38
2.97214 -0.938131 -0.053797 44
1.35154 -0.703795 -0.182544 36
2.82616 -0.891767 -0.255727 9
1.34324 -0.700353 -0.287128 42
3.50499 -1.1021 -0.577096 62
2.26658 -0.711923 -0.539628 14
1.22723 -0.646273 0.311648 53
3.47072 -1.09811 0.964783 61
1.33101 -0.700776 0.232183 55
3.4777 -1.10693 0.702023 61
1.33784 -0.704096 0.129208 52
3.47897 -1.11264 0.443582 62
1.32925 -0.699858 0.0256114 35
2.81665 -0.903929 0.153214 44
1.31858 -0.694817 -0.0765337 39
2.96736 -0.953162 -0.053797 50
1.35441 -0.714341 -0.183457 39
2.83094 -0.909584 -0.256597 8
1.34402 -0.709438 -0.28808 42
3.49447 -1.11894 -0.576313 59
2.25354 -0.720831 -0.537382 14
1.23041 -0.650696 0.312771 53
3.47801 -1.10708 0.967368 56
1.33197 -0.704254 0.232574 53
3.48726 -1.11733 0.704406 65
1.33881 -0.707596 0.129426 49
3.47702 -1.11871 0.443582 62
1.33011 -0.703579 0.025655 38
2.80556 -0.905791 0.15269 42
1.31957 -0.698287 -0.076665 39
2.95617 -0.95528 -0.0536225 50
1.34878 -0.714377 -0.182848 41
2.83172 -0.915286 -0.256814 8
1.34061 -0.710632 -0.287604 41
1.35954 -0.72219 -0.402848 26
2.23835 -0.720314 -0.534012 14
1.22258 -0.655038 0.311648 53
1.33467 -0.714955 0.233744 50
3.48136 -1.13558 0.704406 64
1.34594 -0.720718 0.130516 49
3.47328 -1.13828 0.443887 61
1.32641 -0.710534 0.025655 38
2.80299 -0.921733 0.152821 41
1.31589 -0.705187 -0.076665 38
2.95571 -0.972816 -0.0537098 50
1.34927 -0.724015 -0.183457 39
2.83399 -0.932424 -0.257466 8
1.34971 -0.724854 -0.290461 42
1.35574 -0.729299 -0.402848 27
2.2321 -0.73166 -0.533451 14
1.22369 -0.658114 0.312209 52
1.33994 -0.720799 0.234915 50
3.47937 -1.14165 0.704406 64
1.35345 -0.727791 0.131387 52
1.32956 -0.715221 0.0257423 36
1.31686 -0.708668 -0.0767962 39
2.94926 -0.976409 -0.0536225 53
1.348 -0.726369 -0.183457 39
2.82289 -0.934254 -0.256597 8
1.3506 -0.728375 -0.290937 41
2.2123 -0.72949 -0.528959 14
1.2245 -0.666847 0.313332 50
1.34494 -0.732303 0.236476 45
3.48286 -1.16234 0.706313 65
1.35412 -0.737018 0.131823 53
1.32812 -0.723138 0.0257859 39
1.31545 -0.71652 -0.0769275 38
2.94191 -0.99053 -0.0535789 55
1.34213 -0.731992 -0.183153 38
2.82757 -0.951693 -0.257466 8
1.35766 -0.741091 -0.293318 41
2.21089 -0.741448 -0.52952 14
1.21918 -0.666428 0.312209 47
1.34583 -0.735836 0.236866 50
3.48083 -1.16842 0.706313 52
1.3572 -0.741773 0.132259 52
2.78123 -0.938891 0.355657 14
1.32466 -0.724254 0.0257423 41
1.31857 -0.721215 -0.0771901 35
2.94018 -0.995663 -0.0535789 55
1.34738 -0.737915 -0.184065 39
2.83299 -0.95901 -0.258119 8
1.35422 -0.742278 -0.292842 42
1.96939 -1.08196 -0.59231 14
2.19112 -0.739115 -0.525028 14
1.22408 -0.677744 0.314455 44
1.34196 -0.742872 0.236866 55
1.35983 -0.752492 0.132913 52
2.76219 -0.948628 0.353831 17
1.32523 -0.733605 0.0258296 36
1.32775 -0.73561 -0.0779777 32
2.93965 -1.01267 -0.0536661 55
1.34783 -0.74737 -0.184674 38
2.82305 -0.972709 -0.257684 8
1.35675 -0.752937 -0.29427 42
1.95948 -1.08991 -0.591016 11
2.17799 -0.747434 -0.522782 14
1.23141 -0.684622 0.316701 50
1.34497 -0.747617 0.237647 50
1.36069 -0.756076 0.13313 50
2.76287 -0.954254 0.354136 17
1.33037 -0.739798 0.0259605 32
1.32428 -0.73671 -0.0778464 35
2.93552 -1.01698 -0.0536225 53
1.35086 -0.75214 -0.185282 38
1.35329 -0.754107 -0.293794 41
2.24235 -0.776326 -0.370767 14
2.16055 -0.745705 -0.518851 14
1.23405 -0.694867 0.318386 49
1.34306 -0.756096 0.238037 41
1.35875 -0.76465 0.133348 42
2.75064 -0.966732 0.353223 27
1.32865 -0.747982 0.0260041 27
1.32258 -0.744861 -0.0779777 36
2.93233 -1.03367 -0.0536661 53
1.34893 -0.760658 -0.185587 39
1.36201 -0.768667 -0.296651 42
2.22194 -0.78235 -0.368026 12
2.14729 -0.754175 -0.516605 14
1.23084 -0.695604 0.317824 39
1.34831 -0.761855 0.239207 39
1.55759 -0.550281 0.314076 17
1.35741 -0.767021 0.133348 38
1.33822 -0.75646 0.0262222 27
1.33431 -0.754554 -0.0787654 35
2.92345 -1.0363 -0.0535353 49
1.35205 -0.765225 -0.186195 39
2.20893 -0.78213 -0.366068 12
2.12771 -0.751099 -0.512113 14
1.23774 -0.708098 0.320632 41
1.35288 -0.773816 0.240768 42
1.54554 -0.554868 0.312169 35
1.35351 -0.773881 0.133348 41
1.33437 -0.763224 0.0262222 27
1.33251 -0.762772 -0.0788966 33
2.90876 -1.04771 -0.0533607 39
1.35018 -0.773529 -0.186499 39
2.20015 -0.792022 -0.365285 12
1.23651 -0.710257 0.320632 41
1.36223 -0.782334 0.242719 41
1.53291 -0.553699 0.309786 47
1.35648 -0.778726 0.133784 41
1.33983 -0.77008 -0.0794218 33
1.35528 -0.779602 -0.187412 36
2.1918 -0.793354 -0.364111 12
1.35797 -0.789693 0.242719 36
1.53691 -0.564235 0.311216 53
1.36085 -0.791068 0.134656 33
1.34225 -0.780857 -0.0798156 30
1.53362 -0.566074 0.310739 53
1.37237 -0.800985 0.135963 23
1.34734 -0.786982 -0.0802094 29
1.59761 -0.593846 -0.0291455 17
1.43756 -0.536417 0.401293 33
1.51693 -0.568701 0.30788 47
1.58053 -0.596667 -0.0288837 18
2.00736 -1.18837 -0.281727 24
1.42078 -0.533038 0.39677 33
1.49975 -0.565599 0.304544 24
1.51471 -0.574453 0.0830833 24
1.99462 -1.18553 -0.280205 26
1.99378 -1.18596 -0.44331 30
1.41336 -0.53901 0.395477 41
1.47382 -0.564733 0.299778 20
1.49992 -0.578184 0.0824291 27
1.97293 -1.18572 -0.119198 24
1.97755 -1.1899 -0.278684 26
1.97263 -1.18786 -0.439977 30
1.41919 -0.544048 0.397416 49
1.46137 -0.562929 0.297395 27
1.48736 -0.576066 0.0817749 26
1.97086 -1.18916 -0.119198 26
1.54716 -0.599948 -0.0283602 15
1.96294 -1.1853 -0.276859 27
1.95585 -1.18241 -0.436644 32
1.63061 -0.630443 -0.271713 24
1.62122 -0.624937 -0.392508 29
1.41191 -0.549487 0.396123 50
1.44706 -0.565885 0.295012 32
1.46804 -0.577498 0.0808591 24
1.95203 -1.19131 -0.118411 26
1.51616 -0.596865 -0.0278366 15
1.94612 -1.18908 -0.275337 27
1.93938 -1.18588 -0.434263 32
1.6205 -0.636001 -0.270538 26
1.60657 -0.629008 -0.3897 32
1.39969 -0.547588 0.392892 41
3.43471 -2.10398 0.630993 61
1.43921 -0.565737 0.293582 35
1.4588 -0.575385 0.18802 30
2.46179 -1.50814 0.049783 21
1.44853 -0.572519 0.0798123 32
1.94357 -1.19079 -0.118017 27
1.4965 -0.592208 -0.0274875 15
1.94002 -1.18954 -0.274729 27
1.61249 -0.636129 -0.269364 26
1.91213 -1.17561 -0.591663 44
1.60104 -0.62976 -0.388577 33
1.39914 -0.555549 0.393539 50
3.43204 -2.12714 0.632553 68
1.4272 -0.569405 0.291676 39
3.43189 -2.12623 0.350148 68
1.45115 -0.581184 0.187412 39
2.45837 -1.52322 0.0498702 15
1.43623 -0.576405 0.079289 39
1.92246 -1.19174 -0.117098 27
1.47259 -0.591453 -0.0270949 15
1.9169 -1.18921 -0.272295 27
1.60225 -0.641828 -0.268189 26
1.90615 -1.18527 -0.591663 39
1.59319 -0.63634 -0.387454 35
1.38919 -0.554438 0.390954 79
3.43252 -2.13574 0.633334 74
1.42154 -0.570331 0.290722 50
3.44086 -2.14011 0.351456 79
1.44322 -0.580958 0.186499 47
1.42827 -0.57613 0.0788964 44
1.90978 -1.18849 -0.116441 26
1.45531 -0.587521 -0.0267894 15
1.90219 -1.18467 -0.27047 27
1.59348 -0.642826 -0.146999 26
1.59654 -0.642792 -0.267406 26
1.58981 -0.638219 -0.386892 35
1.38841 -0.562847 0.3916 56
3.41882 -2.15296 0.632944 41
1.41853 -0.577767 0.290722 53
3.4208 -2.15339 0.350584 39
1.44006 -0.588758 0.186499 49
1.42282 -0.58291 0.0787656 47
1.89508 -1.19315 -0.115916 27
1.44053 -0.590681 -0.0265713 15
1.88736 -1.18965 -0.269253 27
1.58317 -0.648349 -0.146347 24
1.58618 -0.648636 -0.266232 26
1.58634 -0.646811 -0.386892 35
1.38743 -0.565269 0.3916 50
3.38793 -2.14176 0.627871 24
1.4198 -0.581164 0.291199 59
3.39388 -2.14471 0.348187 24
1.43443 -0.589398 0.185891 50
1.41718 -0.583506 0.0785039 45
1.87823 -1.18711 -0.114997 33
1.43718 -0.592249 -0.0265277 15
1.57511 -0.648287 -0.145695 24
1.57818 -0.648607 -0.265057 24
1.37998 -0.570695 0.390308 53
3.36211 -2.15016 0.625139 20
1.41674 -0.58859 0.291199 83
3.37212 -2.15574 0.347098 21
1.42903 -0.595953 0.185587 53
1.4118 -0.589963 0.0783731 44
1.42944 -0.597851 -0.0264404 14
1.5717 -0.656525 -0.145695 26
1.57248 -0.655918 -0.264666 26
1.37451 -0.571263 0.389015 55
3.33135 -2.13867 0.620066 20
1.4089 -0.588247 0.289769 90
3.34111 -2.14413 0.344265 20
1.42112 -0.59559 0.184674 53
1.40385 -0.589548 0.0779806 44
1.42147 -0.597461 -0.0263095 15
1.55905 -0.65448 -0.144607 30
1.56678 -0.656765 -0.263883 26
1.3715 -0.578452 0.389015 59
3.31389 -2.15205 0.618896 44
1.41033 -0.597516 0.290722 74
3.32148 -2.15617 0.343394 32
1.41569 -0.602059 0.18437 55
1.39844 -0.595919 0.0778497 45
1.40221 -0.598081 -0.0260041 23
1.54872 -0.659725 -0.143955 32
1.56559 -0.66592 -0.264274 27
3.30884 -2.15697 0.902374 4
1.37049 -0.580845 0.389015 68
3.31634 -2.16187 0.620066 2
1.40702 -0.599022 0.290246 59
3.3198 -2.16332 0.343612 9
1.41007 -0.602593 0.183761 55
2.39359 -1.5599 0.0492594 3
1.3974 -0.598359 0.0778497 45
1.39656 -0.598572 -0.0259168 32
2.07825 -1.35623 -0.299981 47
3.10909 -2.03131 -0.713773 12
1.56443 -0.668651 -0.264274 27
3.3008 -2.1781 0.903497 2
1.36289 -0.586357 0.387723 64
3.32314 -2.19203 0.623578 4
1.40151 -0.60566 0.289769 58
3.31012 -2.18262 0.343829 11
1.40679 -0.610213 0.183761 56
1.38727 -0.602947 0.0774572 47
1.39101 -0.60513 -0.0258732 36
2.07709 -1.37156 -0.300894 47
3.11443 -2.05894 -0.717582 12
3.31159 -2.1927 0.907428 2
1.35742 -0.586833 0.38643 55
3.30734 -2.18906 0.621237 3
1.39594 -0.606165 0.288816 55
3.30839 -2.18977 0.344047 3
1.39672 -0.608487 0.182544 58
1.38403 -0.604134 0.0773264 50
1.39224 -0.608551 -0.0259168 35
2.07907 -1.37757 -0.301502 47
3.10674 -2.06166 -0.71663 12
3.27376 -2.19238 0.900128 9
1.35 -0.591772 0.385138 55
3.29583 -2.20635 0.621237 9
1.39285 -0.613222 0.288816 50
3.30347 -2.21065 0.344701 8
1.39124 -0.614796 0.18224 58
1.38084 -0.611372 0.0773264 50
2.0744 -1.38912 -0.129438 47
1.37999 -0.611567 -0.0257423 33
2.07595 -1.3912 -0.302111 45
3.08404 -2.06914 -0.713773 11
3.31238 -2.22664 0.91192 2
1.34011 -0.590263 0.382553 47
3.31247 -2.22588 0.625139 3
1.38718 -0.613923 0.287863 47
3.32647 -2.23447 0.347534 1
1.38789 -0.616223 0.181936 58
1.37749 -0.612774 0.0771955 50
2.07818 -1.39692 -0.129832 45
1.37435 -0.611956 -0.025655 33
2.08175 -1.40037 -0.303328 45
3.10485 -2.09098 -0.719487 12
1.36795 -0.606369 -0.336916 35
3.30834 -2.25002 0.914166 2
3.31058 -2.25072 0.62709 2
1.38394 -0.621178 0.287863 52
3.31228 -2.25104 0.347316 3
1.38001 -0.621699 0.181327 58
1.3696 -0.618178 0.0769338 52
2.07497 -1.41059 -0.130094 47
1.3733 -0.620405 -0.0256987 33
2.07619 -1.41301 -0.303632 45
3.09957 -2.1119 -0.720915 14
1.36243 -0.61277 -0.336355 36
3.31083 -2.25933 0.915851 15
3.31724 -2.26287 0.629041 15
1.37614 -0.620587 0.286433 55
3.36594 -2.29613 0.353417 23
1.37677 -0.62285 0.181023 58
1.36862 -0.620329 0.0769338 52
2.07663 -1.41703 -0.130357 45
1.35854 -0.616646 -0.0254369 33
2.07807 -1.41907 -0.30424 44
1.39923 -0.634678 -0.131125 26
3.07968 -2.10622 -0.717106 15
1.36369 -0.615905 -0.336916 35
3.38716 -2.33755 0.940558 15
3.33177 -2.29845 0.634114 15
1.37968 -0.630584 0.287863 58
3.38092 -2.33153 0.356249 17
1.37123 -0.629023 0.180719 59
1.36309 -0.626451 0.076803 52
2.07559 -1.43177 -0.130751 45
1.36222 -0.626626 -0.0255678 33
2.07673 -1.43416 -0.305153 44
1.38467 -0.636586 -0.130038 24
3.05889 -2.1148 -0.714725 15
1.35601 -0.621022 -0.335793 36
3.38749 -2.34564 0.941681 12
1.27675 -0.583994 0.366398 41
3.30136 -2.28598 0.629041 12
1.37188 -0.62994 0.286433 64
3.3748 -2.33601 0.356031 14
1.37013 -0.631416 0.180719 59
1.35972 -0.62779 0.0766722 52
2.07924 -1.43966 -0.131144 47
1.35204 -0.624837 -0.0253932 36
2.07423 -1.43779 -0.305153 44
1.37676 -0.63589 -0.129386 29
3.0431 -2.11173 -0.711868 15
1.3745 -0.634014 -0.234519 29
1.35714 -0.624399 -0.336355 36
3.37475 -2.36393 0.941681 11
1.27367 -0.590671 0.366398 42
3.28328 -2.29898 0.627871 14
1.37302 -0.639172 0.287386 90
3.40943 -2.38651 0.361043 18
1.3668 -0.638581 0.180719 59
1.35868 -0.635952 0.076803 50
2.07756 -1.45519 -0.131538 45
1.35328 -0.634014 -0.0254805 42
2.0748 -1.45433 -0.30637 47
1.37104 -0.642281 -0.129168 32
3.02999 -2.12623 -0.711392 15
1.37564 -0.64328 -0.235302 32
1.35606 -0.632519 -0.336916 36
3.38855 -2.38244 0.946735 11
1.27483 -0.593905 0.367044 44
3.30552 -2.32317 0.632944 14
1.3807 -0.645938 0.289293 90
3.42156 -2.40391 0.362786 21
1.35669 -0.636777 0.179502 59
1.3553 -0.637267 0.0766722 49
2.07093 -1.45594 -0.131276 45
1.34764 -0.634261 -0.0253932 38
2.07834 -1.46223 -0.307283 47
1.37218 -0.645726 -0.129386 33
3.02226 -2.12868 -0.710439 18
1.37451 -0.64568 -0.235302 36
2.28209 -1.6099 -0.738447 8
1.35274 -0.633858 -0.336355 36
3.38355 -2.40639 0.948981 11
1.2716 -0.600794 0.367044 47
3.24461 -2.30667 0.623578 29
1.37063 -0.650025 0.287863 90
3.42068 -2.43105 0.364093 20
1.35546 -0.645167 0.179806 59
1.35184 -0.64459 0.0766722 55
2.07548 -1.47545 -0.132063 45
1.34193 -0.640474 -0.0253496 35
2.07646 -1.47778 -0.308195 47
1.35977 -0.648641 -0.128516 36
3.00471 -2.14073 -0.709011 15
1.36665 -0.650759 -0.234519 38
2.27953 -1.62603 -0.740387 4
1.34489 -0.639091 -0.335232 38
3.38571 -2.41595 0.950666 11
1.27274 -0.60404 0.36769 49
3.38569 -2.41506 0.651674 11
1.3695 -0.652416 0.287863 64
3.42049 -2.43991 0.364529 20
1.34997 -0.64517 0.179198 61
1.35308 -0.647784 0.076803 58
2.07493 -1.48052 -0.132195 45
1.34081 -0.642815 -0.0253496 35
2.07817 -1.48392 -0.308804 47
1.36089 -0.652083 -0.128733 38
1.3722 -0.656318 -0.235693 35
2.27669 -1.63001 -0.740387 4
1.34829 -0.643287 -0.336355 36
3.37301 -2.43364 0.950666 11
1.26748 -0.609435 0.367044 49
3.37901 -2.43709 0.652845 11
1.35732 -0.655101 0.285957 56
3.41618 -2.46302 0.3654 21
1.34881 -0.653304 0.179502 59
2.96199 -2.13612 0.0631341 12
1.35192 -0.655942 0.0769338 55
2.06918 -1.49283 -0.132326 45
1.33529 -0.648508 -0.025306 35
2.07239 -1.49624 -0.309108 47
1.35072 -0.655957 -0.128081 38
2.66991 -1.92955 -0.632348 35
1.36875 -0.663494 -0.235693 35
2.27428 -1.64576 -0.742327 4
1.3427 -0.649284 -0.335793 38
3.38257 -2.44953 0.954596 11
1.26206 -0.609561 0.365752 49
3.39275 -2.45602 0.656357 11
1.36048 -0.659833 0.28691 47
3.41994 -2.47482 0.366272 21
1.3499 -0.656735 0.179806 59
2.97205 -2.15207 0.0634395 12
1.34852 -0.657214 0.076803 52
2.07263 -1.50083 -0.13272 44
1.3364 -0.651926 -0.0253496 35
2.07781 -1.50568 -0.310325 45
1.35182 -0.659398 -0.128298 38
2.64867 -1.92123 -0.628063 30
1.36759 -0.665882 -0.235693 33
2.26525 -1.64586 -0.740387 8
1.34815 -0.654798 -0.337478 38
3.37516 -2.47212 0.956281 11
1.25657 -0.615326 0.365106 50
3.38937 -2.48164 0.658308 11
3.40851 -2.49476 0.36649 21
1.34187 -0.661848 0.179198 58
2.96074 -2.1676 0.0634395 12
1.34495 -0.664501 0.076803 50
2.06676 -1.51314 -0.132851 44
1.32613 -0.655845 -0.0252187 35
2.07563 -1.5213 -0.311238 45
1.34388 -0.664274 -0.127863 36
2.62439 -1.92536 -0.62473 30
1.35965 -0.670862 -0.23491 32
2.26244 -1.662 -0.742327 8
1.33802 -0.658876 -0.335793 39
3.36931 -2.47597 0.95572 11
1.25115 -0.615402 0.363813 50
3.38945 -2.48988 0.659089 11
3.41418 -2.50808 0.367579 21
1.34083 -0.663955 0.179198 58
2.94487 -2.16388 0.0631777 14
1.34166 -0.665511 0.0766722 49
2.07417 -1.52414 -0.133507 44
1.32722 -0.659263 -0.0252624 33
2.07724 -1.52751 -0.311846 45
1.34271 -0.666619 -0.127863 33
2.61114 -1.92266 -0.622349 29
1.35847 -0.673234 -0.23491 35
2.25371 -1.66164 -0.740387 8
1.34355 -0.664194 -0.337478 38
3.36412 -2.49939 0.957966 11
1.25669 -0.626003 0.366398 50
3.38627 -2.51496 0.66104 11
3.40544 -2.5283 0.368015 23
1.344 -0.674284 0.18011 59
2.92185 -2.16981 0.0629159 14
1.34263 -0.674754 0.0769338 52
2.06817 -1.53647 -0.133639 44
1.32834 -0.668205 -0.0253496 33
2.06921 -1.53836 -0.311846 45
1.34143 -0.674752 -0.128081 32
2.58366 -1.92266 -0.618063 30
1.36156 -0.683641 -0.236085 35
2.24914 -1.67591 -0.74168 9
1.33787 -0.670136 -0.336916 36
3.36951 -2.51255 0.960773 11
1.25343 -0.627123 0.365752 50
3.37792 -2.51792 0.660259 11
3.415 -2.54466 0.36954 23
1.33616 -0.6733 0.179198 58
2.90966 -2.16944 0.0627414 15
1.33921 -0.675979 0.076803 53
2.07148 -1.54456 -0.134032 44
1.32047 -0.667162 -0.0252187 33
2.07646 -1.54939 -0.313367 45
1.3358 -0.67486 -0.127646 35
2.57048 -1.91982 -0.615682 30
1.35153 -0.681597 -0.234519 38
2.23625 -1.67299 -0.738447 9
1.33888 -0.673557 -0.337478 36
3.36171 -2.53514 0.962458 11
1.24786 -0.63281 0.365106 50
3.37213 -2.5421 0.66182 11
1.26213 -0.64269 0.268322 38
3.40317 -2.5646 0.369758 23
1.33692 -0.682762 0.179806 55
2.88828 -2.17711 0.0625232 15
1.33999 -0.685474 0.0770647 53
2.06935 -1.55989 -0.134426 44
1.32575 -0.678825 -0.0253932 33
2.06805 -1.56061 -0.313367 45
1.33669 -0.6841 -0.128081 33
2.54439 -1.92186 -0.611873 32
1.35235 -0.690897 -0.235302 36
2.23324 -1.68905 -0.740387 11
1.34608 -0.686289 -0.340286 38
3.36549 -2.5463 0.964704 11
1.24891 -0.636076 0.365752 50
3.37404 -2.55187 0.662991 11
1.25444 -0.641562 0.266893 42
3.41458 -2.58256 0.371501 23
1.33585 -0.684862 0.179806 55
1.33669 -0.686445 0.0769338 53
2.0706 -1.56652 -0.134689 45
1.31789 -0.67773 -0.0252624 33
2.07548 -1.57135 -0.314889 45
1.33549 -0.686432 -0.128081 33
2.53321 -1.92036 -0.609968 32
1.35114 -0.693256 -0.235302 36
2.23029 -1.69294 -0.740387 9
1.34935 -0.690609 -0.341409 39
3.36178 -2.57129 0.967512 11
1.24567 -0.642389 0.365752 49
3.36652 -2.574 0.664162 11
1.25554 -0.650145 0.267846 44
3.39948 -2.5983 0.371283 21
1.33666 -0.69412 0.180414 55
1.33307 -0.693434 0.0769338 53
2.06463 -1.5785 -0.13482 44
1.32332 -0.688981 -0.0254369 33
2.0692 -1.5837 -0.315193 45
1.33864 -0.696611 -0.128733 38
2.50788 -1.92121 -0.606159 32
1.34969 -0.701453 -0.235693 38
2.23127 -1.71156 -0.74362 9
1.34138 -0.695436 -0.340286 36
3.36547 -2.5825 0.969758 11
1.2381 -0.641253 0.363813 45
3.38161 -2.59491 0.668064 11
1.25004 -0.650086 0.266893 45
3.4068 -2.61333 0.372591 23
1.33324 -0.695311 0.18011 56
1.32965 -0.694611 0.076803 53
2.07375 -1.59122 -0.135608 44
1.31768 -0.688987 -0.0253496 32
2.0743 -1.59336 -0.31641 45
1.333 -0.696653 -0.128298 38
2.49674 -1.9196 -0.604254 32
1.34627 -0.702672 -0.235302 36
2.22828 -1.71546 -0.74362 9
1.34233 -0.698894 -0.340847 36
3.36107 -2.60814 0.972565 11
1.2283 -0.644383 0.361875 47
3.36992 -2.6141 0.668454 11
1.24445 -0.655486 0.266416 44
3.40684 -2.64181 0.374116 21
1.33398 -0.704586 0.180719 55
2.32486 -1.8029 0.0507429 12
1.33041 -0.703885 0.0770647 50
2.06933 -1.60512 -0.13587 44
1.31848 -0.698202 -0.0254369 33
2.07376 -1.61029 -0.317627 45
1.33375 -0.705939 -0.128733 38
2.47503 -1.9236 -0.601397 32
1.34476 -0.710858 -0.235693 38
2.22117 -1.72858 -0.744267 9
1.34944 -0.71156 -0.343655 36
3.37426 -2.6269 0.977619 11
1.23574 -0.650999 0.364459 44
3.38289 -2.63363 0.671966 11
1.24547 -0.658797 0.266893 39
3.40812 -2.65235 0.37477 21
1.33274 -0.706914 0.180719 55
2.33157 -1.81463 0.050961 14
1.33139 -0.70737 0.0771955 49
2.07244 -1.61333 -0.136264 44
1.31726 -0.700502 -0.0254369 33
2.0729 -1.61544 -0.317931 44
1.33251 -0.708266 -0.128733 38
2.45426 -1.91433 -0.597112 32
1.3457 -0.714355 -0.236085 38
2.20864 -1.72502 -0.741034 11
1.35036 -0.715047 -0.344216 39
3.36336 -2.64872 0.978742 11
1.22793 -0.655416 0.363167 44
3.37635 -2.65801 0.673527 11
1.24839 -0.668981 0.268322 33
3.40154 -2.67691 0.375641 21
1.33766 -0.718785 0.181936 56
1.33195 -0.716916 0.0774572 47
2.0676 -1.62761 -0.136527 42
1.32006 -0.711155 -0.0255678 33
2.07193 -1.63278 -0.319148 44
1.32866 -0.715465 -0.128733 38
2.44001 -1.92454 -0.59616 32
1.3463 -0.723716 -0.236868 38
2.20685 -1.74294 -0.74362 11
1.35292 -0.725777 -0.345901 36
3.37449 -2.66608 0.983234 11
3.37604 -2.66637 0.674307 11
1.24289 -0.668848 0.267369 30
3.40273 -2.68748 0.376295 18
1.33871 -0.722056 0.18224 55
1.33522 -0.721367 0.0777189 49
2.06867 -1.63432 -0.136789 42
1.31662 -0.712275 -0.0255241 33
2.07909 -1.64373 -0.320669 44
1.33399 -0.721316 -0.129386 36
2.42126 -1.9166 -0.59235 33
1.34939 -0.728396 -0.237651 38
2.19434 -1.73928 -0.740387 11
1.36037 -0.732494 -0.348147 36
3.36429 -2.68676 0.984357 11
3.37168 -2.69172 0.676259 11
1.24597 -0.678629 0.268799 26
3.38908 -2.70467 0.376295 17
1.32619 -0.724325 0.181023 53
1.32923 -0.727156 0.0775881 47
2.07012 -1.65256 -0.137446 42
1.31519 -0.720123 -0.0255678 33
2.07239 -1.65614 -0.320973 44
1.33251 -0.729248 -0.129603 36
2.40004 -1.91963 -0.589493 33
1.3499 -0.737807 -0.238434 38
2.1874 -1.75187 -0.741034 9
1.36937 -0.746563 -0.351516 41
3.36767 -2.69813 0.986603 11
3.37083 -2.70069 0.677039 11
1.25125 -0.684314 0.270229 26
3.39019 -2.71525 0.376949 18
1.33364 -0.731384 0.18224 50
1.33234 -0.731865 0.0778497 45
2.06918 -1.65773 -0.137577 42
1.31832 -0.724812 -0.025655 29
2.07337 -1.66286 -0.321582 44
1.32905 -0.73038 -0.129386 36
2.3852 -1.91459 -0.586636 33
1.35077 -0.741343 -0.238825 38
2.18246 -1.75418 -0.740387 9
1.36807 -0.748952 -0.351516 38
3.36059 -2.72245 0.98885 11
3.36816 -2.72763 0.67938 11
1.24765 -0.690856 0.270229 26
3.37786 -2.73453 0.377166 18
1.33197 -0.739555 0.182544 49
1.32631 -0.737625 0.0777189 42
2.06794 -1.67519 -0.138102 42
1.32326 -0.73654 -0.0258296 24
2.07427 -1.68151 -0.323103 42
1.3338 -0.742377 -0.130255 35
2.36753 -1.92086 -0.584732 33
1.34687 -0.748405 -0.238825 38
2.17699 -1.76863 -0.74168 9
3.36339 -2.73446 0.991096 11
3.37489 -2.74285 0.681722 11
1.25062 -0.695621 0.271182 26
3.36922 -2.73728 0.376731 18
1.33719 -0.745483 0.183457 49
1.32938 -0.742359 0.0779806 39
2.07276 -1.6851 -0.138627 44
1.32197 -0.738849 -0.0258296 23
2.07902 -1.6914 -0.32432 42
1.33904 -0.748329 -0.130908 35
2.35275 -1.91569 -0.581875 33
2.17359 -1.7728 -0.74168 9
3.34855 -2.75262 0.991096 11
3.35428 -2.75637 0.680551 11
1.25553 -0.706948 0.273088 24
3.34474 -2.74756 0.375641 15
1.33746 -0.755133 0.184065 49
1.3297 -0.751986 0.0782422 36
2.06969 -1.70069 -0.139021 42
1.33103 -0.753337 -0.0260913 24
2.07176 -1.7042 -0.324624 42
1.33727 -0.756549 -0.131125 35
2.33289 -1.92059 -0.579494 35
2.17173 -1.79031 -0.744267 9
2.10488 -1.1834 -0.548612 21
3.36113 -2.77183 0.996149 11
3.43494 -1.92454 1.04427 36
3.35947 -2.76949 0.682502 11
1.265 -0.715141 0.275471 24
3.33033 -2.74547 0.374552 15
1.34709 -0.763316 0.185587 47
1.3394 -0.760201 0.0788964 33
2.07057 -1.70748 -0.139283 41
2.07482 -1.71219 -0.325537 42
1.34246 -0.762552 -0.131778 35
2.32196 -1.9184 -0.577589 33
2.16488 -1.79101 -0.742973 9
2.08603 -1.17716 -0.54412 21
3.35592 -2.79719 0.998957 11
3.43146 -1.94547 1.04621 56
3.35061 -2.79178 0.683673 11
1.26563 -0.723958 0.276425 24
3.28196 -2.73359 0.37063 15
1.3517 -0.775271 0.186804 44
1.3419 -0.770915 0.079289 29
2.06544 -1.7215 -0.139546 39
2.07154 -1.72781 -0.32645 42
1.34493 -0.773275 -0.13243 32
2.30092 -1.92069 -0.574732 35
2.15393 -1.8004 -0.742327 9
2.06713 -1.18084 -0.540751 21
3.35477 -2.80617 1.00008 11
3.43436 -1.95503 1.04814 58
1.27916 -0.734895 0.279761 24
1.35465 -0.780092 0.187412 42
1.35355 -0.7807 0.080074 21
2.06817 -1.72991 -0.13994 42
2.07423 -1.7362 -0.327363 42
1.3479 -0.778098 -0.132865 32
2.2844 -1.91366 -0.571399 35
2.15232 -1.80608 -0.742973 9
2.05025 -1.17599 -0.53682 21
3.42792 -1.97599 1.04944 56
1.35256 -0.788654 0.187716 39
2.0648 -1.74555 -0.140334 42
2.0648 -1.7474 -0.327363 42
2.2684 -1.92123 -0.56997 35
2.14468 -1.81889 -0.74362 9
2.03121 -1.17975 -0.533451 21
3.42865 -1.98438 1.05073 56
2.50745 -2.12616 0.284563 1
1.36205 -0.797011 0.189237 36
2.06936 -1.75562 -0.140859 42
2.0734 -1.76028 -0.329188 42
2.25196 -1.91405 -0.566637 35
2.13598 -1.81793 -0.74168 9
2.0146 -1.17438 -0.52952 21
2.47162 -2.11882 0.742339 2
3.42691 -2.00658 1.05331 56
2.48846 -2.13254 0.512364 2
2.49665 -2.13882 0.284563 1
1.36427 -0.807905 0.19015 36
2.06614 -1.77094 -0.141253 42
2.07168 -1.77758 -0.330405 41
2.00575 -1.18751 -0.200493 21
2.2348 -1.91903 -0.564733 35
2.13591 -1.8366 -0.744913 11
1.99792 -1.17875 -0.526713 23
2.47198 -2.12588 0.743462 2
3.42965 -2.01623 1.05525 56
2.48474 -2.13688 0.512364 3
2.49858 -2.14805 0.285217 4
1.37354 -0.816593 0.191671 27
2.07061 -1.78106 -0.141778 42
2.07234 -1.78443 -0.331013 41
1.99295 -1.18466 -0.199406 21
2.21844 -1.91171 -0.5614 35
2.12539 -1.83401 -0.742327 11
1.98117 -1.17357 -0.522782 23
2.47147 -2.14882 0.746831 3
3.42528 -2.03785 1.05719 56
2.49401 -2.16769 0.516657 9
2.49106 -2.16437 0.285653 9
2.06659 -1.79716 -0.142172 42
1.97438 -1.18815 -0.039617 21
2.06858 -1.80015 -0.331926 41
1.97369 -1.18775 -0.198101 21
2.1973 -1.91362 -0.558542 36
1.96839 -1.18274 -0.35863 23
2.12303 -1.85147 -0.744913 11
1.96663 -1.17894 -0.520536 24
2.47322 -2.15794 0.748516 9
3.43209 -2.05001 1.06042 56
2.46604 -2.15092 0.511584 14
2.45913 -2.14415 0.282385 14
2.06721 -1.80405 -0.142434 42
1.9573 -1.18257 -0.0393115 21
2.07291 -1.81029 -0.333143 41
1.96095 -1.18478 -0.197014 23
2.18656 -1.91099 -0.556638 35
1.95785 -1.18109 -0.357064 23
2.12129 -1.85713 -0.74556 11
1.95621 -1.17736 -0.51829 24
2.45968 -2.16967 0.747954 9
3.42302 -2.06979 1.06107 56
2.45807 -2.1675 0.512364 11
2.46804 -2.17555 0.284781 12
3.43778 -2.09662 0.209213 61
2.06335 -1.8198 -0.142828 41
1.94234 -1.18795 -0.039137 21
2.06866 -1.82641 -0.334056 42
1.93982 -1.18597 -0.195492 23
2.17068 -1.91791 -0.555209 36
1.93687 -1.18235 -0.354323 21
2.11154 -1.86821 -0.74556 11
1.93315 -1.17782 -0.513797 24
2.44898 -2.16707 0.745708 11
3.42973 -2.08202 1.0643 56
2.44726 -2.16481 0.510804 9
2.44745 -2.165 0.28282 11
3.43643 -2.09994 0.489523 61
3.44513 -2.10852 0.209867 65
2.06765 -1.83002 -0.143353 41
1.9296 -1.18482 -0.0389189 23
2.0695 -1.83295 -0.334664 42
1.92925 -1.18416 -0.194622 24
2.15815 -1.91355 -0.552828 36
1.92216 -1.17801 -0.351974 21
2.10827 -1.87189 -0.74556 11
1.92297 -1.17579 -0.511551 26
2.44304 -2.18474 0.747393 2
3.42532 -2.10313 1.06624 56
3.43275 -2.11587 0.776372 59
2.41976 -2.16241 0.280859 9
3.43383 -2.12311 0.49074 65
3.44042 -2.13047 0.21026 77
2.06548 -1.84749 -0.143878 42
1.91082 -1.18668 -0.0386571 23
2.07096 -1.85369 -0.33649 41
1.91031 -1.18638 -0.193317 24
2.1393 -1.91626 -0.550448 36
1.90546 -1.18158 -0.350016 23
2.10057 -1.88415 -0.746207 12
1.90019 -1.17563 -0.507059 26
3.42782 -2.1129 1.06818 58
3.44122 -2.13019 0.779231 73
2.56425 -2.29972 0.298291 12
3.44067 -2.13563 0.492261 79
3.44306 -2.14042 0.210652 76
2.06596 -1.85443 -0.144141 42
1.90025 -1.18474 -0.0384826 23
2.07326 -1.86228 -0.337402 42
2.12501 -1.91014 -0.547591 36
2.08977 -1.88172 -0.74362 12
1.88985 -1.17382 -0.504813 29
3.42659 -2.1378 1.07141 65
3.35641 -3.04473 0.710598 12
3.43418 -2.15078 0.780185 73
2.53148 -2.29515 0.295894 12
3.41645 -2.14631 0.490435 44
2.24043 -2.03176 0.0521827 14
3.41663 -2.14972 0.209736 35
2.06916 -1.87697 -0.14506 42
1.87899 -1.1857 -0.0381771 26
2.06683 -1.87681 -0.338011 35
2.11101 -1.91831 -0.546638 36
2.08168 -1.89426 -0.744267 12
3.35499 -3.05411 1.0377 12
3.429 -2.14761 1.07335 61
3.36441 -3.06163 0.71333 12
3.41379 -2.14634 0.776372 32
2.44645 -2.22579 0.286307 11
3.38577 -2.1345 0.48648 23
2.22949 -2.02894 0.0520082 14
3.39212 -2.14178 0.208428 20
2.07142 -1.88562 -0.145453 53
1.87481 -1.18765 -0.0381335 33
2.07305 -1.88841 -0.339532 42
2.09678 -1.91206 -0.543781 36
2.0748 -1.89463 -0.742973 12
3.35149 -3.08318 1.04163 11
3.38746 -2.1456 1.06365 30
3.36287 -3.09258 0.716452 12
3.38215 -2.15045 0.771606 20
2.38016 -2.18756 0.27977 9
3.35779 -2.14155 0.484046 18
2.2008 -2.02327 0.0515719 15
3.36401 -2.14878 0.207381 18
2.07103 -1.90453 -0.14611 67
2.07225 -1.90765 -0.341053 59
2.07806 -1.91433 -0.541401 38
2.06164 -1.90183 -0.74168 12
3.35739 -3.09836 1.045 11
3.36535 -2.13986 1.05784 18
3.35928 -3.10012 0.716842 11
3.3639 -2.14713 0.76827 17
2.36536 -2.18157 0.278463 9
3.33732 -2.13672 0.481612 20
2.25052 -2.07629 0.0528372 12
3.33502 -2.13851 0.205811 27
2.06954 -1.90984 -0.146241 71
2.07256 -1.91463 -0.341662 58
2.06931 -1.91295 -0.539972 38
2.06186 -1.90871 -0.742973 12
3.35427 -3.13036 1.04949 11
3.33137 -2.14369 1.05073 15
3.3569 -3.13173 0.719964 11
3.32542 -2.14802 0.762074 24
2.31893 -2.16206 0.274323 8
3.31321 -2.14667 0.479787 36
3.3234 -2.15652 0.205811 18
2.061 -1.92271 -0.146372 53
2.05311 -1.91735 -0.340141 41
2.04638 -1.91239 -0.536639 38
2.0515 -1.91984 -0.742973 12
3.35291 -3.13896 1.05062 12
3.3195 -2.14427 1.04814 24
3.35683 -3.14265 0.721134 11
3.3196 -2.15249 0.761597 23
2.30424 -2.15589 0.273015 8
3.33027 -2.16595 0.482829 2
3.32172 -2.16368 0.205942 12
2.04853 -1.91777 -0.145716 39
2.0389 -1.91074 -0.338315 36
2.08546 -1.36106 -0.21441 42
2.03767 -1.91092 -0.53521 38
2.04287 -1.91845 -0.741034 12
3.34472 -3.16543 1.05343 11
3.30216 -2.15767 1.04621 12
3.35109 -3.17037 0.723476 11
3.33909 -2.18999 0.768746 1
2.29293 -2.16792 0.273015 8
3.33133 -2.19152 0.484655 9
2.04854 -1.93733 0.0486049 14
3.31661 -2.18516 0.206335 3
2.0294 -1.91989 -0.14506 36
2.02347 -1.91627 -0.337402 38
2.08039 -1.37333 -0.214628 42
2.01874 -1.91311 -0.53283 38
2.01879 -1.91582 -0.735861 14
2.67336 -1.75721 -0.729424 9
3.34504 -3.17571 1.05511 11
3.35498 -2.20045 1.0643 1
3.36167 -3.19152 0.726988 11
3.3168 -2.18369 0.764457 3
2.27108 -2.15477 0.270836 8
3.30056 -2.17959 0.4807 3
2.04515 -1.9409 0.0486049 12
3.30654 -2.18682 0.205942 12
2.017 -1.91483 -0.144403 36
2.01652 -1.91638 -0.336794 38
2.08423 -1.38108 -0.21528 42
2.00651 -1.90817 -0.530449 36
2.08376 -1.37923 -0.390734 41
2.00845 -1.91267 -0.733274 23
2.66011 -1.75518 -0.726616 11
3.34011 -3.20557 1.05904 11
3.30514 -2.19266 1.05202 2
3.34847 -3.2125 0.727768 11
3.30532 -2.20103 0.764457 3
2.25258 -2.15973 0.269965 4
3.29943 -2.20372 0.482221 8
2.00611 -1.92389 0.0479069 11
3.28674 -2.19856 0.205419 17
2.07383 -1.39038 -0.0429765 42
1.99752 -1.91831 -0.335273 36
2.07904 -1.39335 -0.215498 41
1.98764 -1.91015 -0.528068 36
2.0788 -1.39113 -0.391126 41
1.98797 -1.91311 -0.729394 35
2.66103 -1.77583 -0.729424 9
3.35086 -3.22603 1.06409 11
3.29326 -2.19308 1.04944 4
3.35587 -3.22975 0.7305 11
3.29535 -2.20271 0.763027 4
2.23266 -2.14811 0.268004 4
3.30628 -2.2158 0.483742 2
2.00635 -1.93085 0.0479941 11
3.26876 -2.194 0.204503 17
2.0714 -1.394 -0.0429765 42
1.98379 -1.91111 -0.333447 36
2.08281 -1.40114 -0.21615 42
1.98078 -1.9102 -0.527116 38
2.07842 -1.39613 -0.391517 41
1.97942 -1.91154 -0.727454 42
2.66229 -1.78271 -0.730547 9
3.33916 -3.24863 1.06578 11
3.29215 -2.21646 1.05267 3
3.34423 -3.25244 0.73167 11
3.31265 -2.23856 0.7697 1
3.30697 -2.24142 0.485567 9
1.97326 -1.91832 0.0474269 9
3.24068 -2.19989 0.203456 18
2.07052 -1.40867 -0.0431074 42
1.96842 -1.91628 -0.332535 38
2.07751 -1.41342 -0.216367 41
1.96054 -1.90992 -0.524259 38
2.07313 -1.40838 -0.391909 39
1.96108 -1.9131 -0.724221 44
2.65292 -1.79663 -0.730547 9
3.34568 -3.26637 1.06971 11
3.31631 -2.24109 1.06171 1
3.35444 -3.2738 0.735182 11
3.32664 -2.2573 0.773989 11
3.3359 -2.26948 0.490435 14
1.97673 -1.92909 0.0476014 14
3.21413 -2.1901 0.202017 18
2.06806 -1.41229 -0.0431074 39
1.95798 -1.91277 -0.331318 38
2.08122 -1.42125 -0.21702 39
1.95194 -1.90819 -0.52283 39
2.07475 -1.41477 -0.392692 39
1.94878 -1.90841 -0.720988 45
2.64776 -1.79989 -0.729985 9
3.34183 -3.29812 1.0742 11
3.30613 -2.26037 1.06236 12
3.34723 -3.30231 0.737524 11
3.34718 -2.29686 0.781614 15
3.37267 -2.3212 0.497737 4
1.96304 -1.9359 0.0475142 12
3.1796 -2.1919 0.200578 21
2.06863 -1.42912 -0.043282 39
1.94054 -1.91636 -0.330101 38
2.0799 -1.43636 -0.217672 41
1.93286 -1.91009 -0.520449 39
2.07546 -1.4312 -0.394258 41
1.9319 -1.91179 -0.718402 44
2.63999 -1.81557 -0.730547 9
3.34357 -3.31022 1.07645 11
3.35599 -2.30296 1.07981 20
3.35607 -3.32146 0.740646 11
3.39373 -2.33744 0.793529 15
3.34246 -2.3082 0.493782 11
1.95611 -1.93581 0.0474269 11
3.16382 -2.18839 0.199793 20
2.07436 -1.43841 -0.0434565 42
1.93048 -1.91241 -0.328884 39
2.08354 -1.44423 -0.218324 42
1.92604 -1.91001 -0.519497 39
2.07906 -1.43903 -0.395432 41
1.92171 -1.90835 -0.715815 44
2.63915 -1.82109 -0.731109 9
3.3348 -3.3363 1.07926 11
3.38202 -2.34603 1.09209 12
3.34562 -3.34598 0.742207 11
3.39395 -2.36299 0.796389 11
3.34051 -2.33276 0.495303 11
1.93568 -1.93508 0.0471651 11
3.13799 -2.19492 0.198877 18
2.0732 -1.45318 -0.0435874 42
1.91343 -1.91547 -0.327667 39
2.08208 -1.4594 -0.218977 42
1.90769 -1.91104 -0.517116 39
2.07352 -1.45131 -0.395824 41
1.91032 -1.91634 -0.715168 44
2.61958 -1.82793 -0.728301 9
3.33756 -3.35074 1.08206 11
3.39379 -2.36295 1.09726 9
3.35023 -3.36231 0.744548 11
3.39545 -2.37371 0.797819 11
3.35473 -2.35138 0.498041 14
1.92491 -1.9317 0.0469906 18
3.1137 -2.18608 0.197568 18
2.07066 -1.4568 -0.0435874 42
2.07749 -1.4616 -0.218759 42
1.89743 -1.90741 -0.515211 39
2.07705 -1.45917 -0.396998 39
1.89984 -1.91314 -0.712582 45
2.62237 -1.83668 -0.729985 9
3.33135 -3.3809 1.08599 11
3.38689 -2.38544 1.09919 11
3.34931 -3.39798 0.74845 11
3.393 -2.39853 0.800202 11
3.36627 -2.38669 0.501692 11
1.90074 -1.92751 0.0466416 3
3.08349 -2.1899 0.196391 18
2.06886 -1.47232 -0.0437183 41
2.07793 -1.47822 -0.219629 41
1.88364 -1.91414 -0.514259 41
2.07745 -1.47573 -0.398564 39
1.88134 -1.91445 -0.709349 45
2.61439 -1.85225 -0.730547 11
3.33628 -3.39656 1.08936 11
3.38074 -2.38996 1.09855 11
3.34743 -3.40676 0.749231 11
3.39282 -2.40729 0.801155 11
3.37669 -2.40203 0.503822 11
1.89562 -1.92904 0.0465979 3
3.0658 -2.18462 0.195475 17
2.07036 -1.47883 -0.0438055 41
2.07332 -1.4804 -0.219412 39
1.87343 -1.91042 -0.512354 41
2.07688 -1.48078 -0.398956 39
1.87124 -1.91082 -0.706762 47
2.60949 -1.85495 -0.729985 11
3.33712 -3.43321 1.09554 11
3.38237 -2.41685 1.10307 11
3.33988 -3.43486 0.751572 11
3.38658 -2.42871 0.802585 11
3.38221 -2.43269 0.50656 11
1.87886 -1.93144 0.0464234 21
3.0381 -2.18899 0.194428 18
1.86374 -1.91722 -0.138758 38
2.06488 -1.49075 -0.0438492 41
2.07363 -1.49705 -0.220282 41
1.85177 -1.90754 -0.509021 41
2.07512 -1.49596 -0.40013 38
1.85314 -1.9116 -0.703529 47
2.60172 -1.87 -0.730547 11
3.33959 -3.44778 1.09835 11
3.38208 -2.42556 1.10436 11
3.34762 -3.45488 0.754694 11
3.39785 -2.44666 0.806397 11
3.39004 -2.44729 0.508385 11
1.86472 -1.92427 0.0461616 23
3.01403 -2.17968 0.19312 18
1.85345 -1.91329 -0.138233 39
2.0643 -1.49581 -0.0438928 39
2.07505 -1.50358 -0.220716 39
1.83821 -1.90018 -0.506164 41
2.08452 -1.50824 -0.40248 39
1.84612 -1.91167 -0.702236 45
2.59845 -1.87454 -0.730547 11
3.33437 -3.47987 1.10284 11
3.3826 -2.45373 1.10889 11
3.33742 -3.48186 0.756645 11
3.39492 -2.47163 0.80878 11
3.38477 -2.47144 0.509602 11
1.8477 -1.92678 0.0459871 20
2.99211 -2.1886 0.192465 20
1.8365 -1.91576 -0.137708 39
2.06426 -1.51285 -0.0440673 39
2.0752 -1.5203 -0.221586 41
1.8279 -1.9101 -0.506164 41
2.08059 -1.52204 -0.403263 38
2.58433 -1.88571 -0.729424 11
3.34067 -3.49744 1.10677 11
3.38222 -2.46247 1.11018 11
3.34729 -3.50317 0.760157 11
3.39854 -2.48333 0.810687 11
3.39691 -2.48847 0.512036 11
1.83916 -1.92458 0.0458562 9
2.97859 -2.18593 0.191811 20
1.82453 -1.90993 -0.137052 39
2.06564 -1.51941 -0.0441546 39
2.07656 -1.52686 -0.222021 39
1.81271 -1.90085 -0.502831 41
2.08789 -1.53296 -0.40522 38
2.5794 -1.88833 -0.728862 11
3.32901 -3.52197 1.10902 11
3.37361 -2.48242 1.11147 11
3.34078 -3.53321 0.762888 11
3.3879 -2.50196 0.811163 11
3.38982 -2.51065 0.512949 11
1.82596 -1.93023 0.0457689 17
2.94704 -2.18664 0.190503 20
1.81108 -1.91582 -0.136789 39
2.06195 -1.53282 -0.0442418 39
2.06854 -1.53771 -0.222021 39
1.7997 -1.90643 -0.501879 39
2.08976 -1.55121 -0.407178 38
2.57144 -1.90325 -0.729424 11
3.3312 -3.53664 1.11182 11
3.37704 -2.49403 1.11406 11
3.34984 -3.55521 0.7664 11
3.39493 -2.51722 0.814023 11
3.39341 -2.52247 0.514166 11
1.81197 -1.92281 0.0455071 20
2.93119 -2.18285 0.189718 20
1.80089 -1.91171 -0.136264 39
2.06529 -1.54089 -0.0443727 41
2.07784 -1.55024 -0.223326 39
2.09697 -1.56221 -0.409135 38
2.56028 -1.90194 -0.727178 11
3.3253 -3.56888 1.11632 11
3.37512 -2.52092 1.11793 11
3.34066 -3.58413 0.768742 11
3.38956 -2.54084 0.815929 11
3.38765 -2.54675 0.515383 11
1.79677 -1.92679 0.0453763 45
2.90337 -2.18669 0.188671 20
1.78235 -1.91198 -0.135608 38
2.06291 -1.55655 -0.0445036 39
2.07567 -1.56558 -0.223978 41
2.09863 -1.58058 -0.411093 36
2.5441 -1.91138 -0.725493 11
3.33129 -3.58659 1.12025 11
3.38039 -2.53404 1.12117 11
3.3451 -3.60023 0.771083 11
3.38512 -2.54675 0.815929 11
3.39753 -2.56251 0.517513 11
1.7951 -1.93175 0.0454199 30
2.88398 -2.17922 0.187624 20
1.77391 -1.9096 -0.135214 39
2.06418 -1.56315 -0.0445909 38
2.07691 -1.5722 -0.224413 41
2.1156 -1.59909 -0.415008 35
2.53331 -1.90952 -0.723247 12
3.3306 -3.62372 1.12642 11
3.36944 -2.55257 1.12181 11
3.34292 -3.63587 0.774985 11
3.38001 -2.56978 0.817836 11
3.38604 -2.58177 0.517817 11
1.79038 -1.94634 0.0455508 29
2.85466 -2.18068 0.186447 20
1.7676 -1.92223 -0.135476 39
2.0642 -1.57964 -0.0447654 41
2.07289 -1.58571 -0.224848 39
2.1347 -1.63109 -0.420489 35
2.51163 -1.91392 -0.719878 14
3.33148 -3.63613 1.12867 11
3.37076 -2.56283 1.12375 11
3.34157 -3.64717 0.776156 11
3.38919 -2.58608 0.821172 11
3.39139 -2.5952 0.519338 11
1.79204 -1.95499 0.0456817 29
2.83696 -2.17504 0.185531 20
1.76593 -1.92715 -0.135608 38
2.05945 -1.58172 -0.0447218 38
2.0721 -1.59084 -0.225066 39
2.1554 -1.6528 -0.425188 33
2.50054 -1.91239 -0.717632 15
3.32484 -3.66855 1.13316 11
3.37646 -2.59514 1.13021 11
3.33569 -3.67925 0.779278 11
3.37755 -2.60529 0.821648 11
3.38168 -2.61596 0.519947 11
1.78682 -1.9699 0.0458126 29
2.81368 -2.18071 0.184746 20
2.06103 -1.60013 -0.0449399 39
2.07331 -1.60965 -0.226153 39
2.18775 -1.69576 -0.433409 33
2.47313 -1.91208 -0.712578 20
3.33149 -3.68882 1.13765 11
3.37766 -2.60545 1.13215 11
3.33423 -3.69057 0.780448 11
3.38614 -2.62227 0.824984 11
3.38692 -2.62945 0.521468 11
1.78805 -1.9789 0.0459435 29
2.79804 -2.17643 0.183961 21
2.0681 -1.61139 -0.0451581 41
2.07443 -1.61632 -0.226588 39
2.23358 -1.73739 -0.443197 32
2.45822 -1.90745 -0.709209 24
3.32933 -3.72678 1.14383 11
3.36733 -2.62665 1.13344 11
3.33066 -3.72697 0.784351 11
3.37236 -2.63997 0.824984 11
3.38437 -2.65692 0.523293 11
1.78266 -1.99382 0.0460743 29
2.76854 -2.17767 0.182783 21
1.9298 -2.15932 -0.150442 33
2.06525 -1.62719 -0.045289 41
2.07378 -1.63331 -0.227458 39
2.26332 -1.77952 -0.451028 30
2.43252 -1.90871 -0.704717 27
3.33157 -3.7411 1.14664 11
3.37035 -2.63847 1.13603 11
3.33794 -3.74695 0.787472 11
3.3832 -2.65796 0.828797 11
3.38799 -2.66837 0.52451 11
1.78749 -2.00627 0.0462925 30
2.75727 -2.17584 0.18226 23
1.92105 -2.15709 -0.150048 33
2.0683 -1.63543 -0.0454199 39
1.16027 -1.30291 -0.209622 4
2.07288 -1.63846 -0.227675 38
2.30873 -1.82162 -0.460816 29
2.42376 -1.90802 -0.703032 27
3.32321 -3.77129 1.15057 11
3.37212 -2.66746 1.1412 11
3.33623 -3.78476 0.791765 11
3.38124 -2.68419 0.831657 11
3.37592 -2.68761 0.524814 11
1.77897 -2.01716 0.0463361 30
2.72825 -2.17626 0.181082 23
1.90313 -2.15963 -0.149523 35
2.06587 -1.65055 -0.0455508 41
1.15179 -1.30711 -0.209317 4
2.07012 -1.65395 -0.228327 38
2.33202 -1.8598 -0.467471 29
2.39847 -1.90857 -0.69854 27
3.33269 -3.79539 1.15618 9
3.37125 -2.67634 1.14249 11
3.34428 -3.80728 0.795277 11
3.37993 -2.69373 0.83261 11
3.3848 -2.70433 0.526944 11
1.7652 -2.0093 0.0460743 30
2.71079 -2.17012 0.180167 21
1.88948 -2.15168 -0.148735 35
2.06493 -1.65571 -0.0455944 41
