# .PCD v0.7 - Point Cloud Data file format
VERSION 0.7
FIELDS x y z intensity
SIZE 4 4 4 4
TYPE F F F F
COUNT 1 1 1 1
WIDTH 1587
HEIGHT 1
VIEWPOINT 0 0 0 1 0 0 0
POINTS 1587
DATA ascii
-3.53188 -5.521 1.03019 12
-2.29109 -5.5514 1.15955 18
-3.54354 -5.54133 0.572395 11
-2.29287 -5.53385 0.730177 29
-1.42038 -2.22185 0.0454199 47
-0.934861 -2.24445 0.125606 44
-1.41904 -2.21891 -0.136658 45
-0.934845 -2.24221 -0.0417985 47
-1.42509 -2.2258 -0.319757 47
-0.936849 -2.24813 -0.209626 49
-1.42104 -2.21778 -0.50426 45
-0.933485 -2.24325 -0.379772 49
-1.42748 -2.22444 -0.698356 52
-0.930102 -2.24161 -0.55142 52
-3.30314 -5.14383 1.40101 12
-2.28985 -5.54825 1.59677 15
-3.54952 -5.52729 1.03253 11
-2.2989 -5.54286 1.1586 18
-3.55052 -5.53094 0.57196 12
-2.30157 -5.52755 0.729872 30
-1.4256 -2.22147 0.0454635 47
-0.938777 -2.24282 0.125606 45
-1.42831 -2.22483 -0.137183 47
-0.940679 -2.24519 -0.0418858 45
-1.42629 -2.21913 -0.319148 47
-0.939814 -2.24419 -0.209409 47
-1.42623 -2.21736 -0.504736 45
-0.939295 -2.24618 -0.380555 49
-1.43529 -2.22803 -0.700296 52
-0.934013 -2.23999 -0.55142 47
-3.311 -5.09524 1.39259 12
-2.31514 -5.52727 1.59419 15
-3.56496 -5.48793 1.02863 9
-2.32029 -5.51265 1.15479 15
-3.56586 -5.49139 0.569781 11
-2.32759 -5.50856 0.72896 21
-1.44266 -2.22235 0.045638 47
-0.951479 -2.24017 0.125737 47
-1.44266 -2.2215 -0.137446 45
-0.952422 -2.24024 -0.0418858 47
-1.44465 -2.22203 -0.320669 45
-0.95446 -2.24612 -0.210061 49
-1.44586 -2.2222 -0.507593 44
-0.952003 -2.24351 -0.380946 49
-1.44825 -2.22251 -0.700943 52
-0.949508 -2.24405 -0.553666 49
-3.30436 -5.06759 1.38641 11
-2.32572 -5.52544 1.59483 14
-3.58128 -5.49204 1.03058 9
-2.35948 -5.57868 1.16956 14
-3.5768 -5.48725 0.569999 11
-2.38463 -5.61645 0.743867 27
-1.44791 -2.22193 0.0456817 47
-0.957339 -2.24311 0.125999 47
-1.452 -2.22735 -0.137971 45
-0.959263 -2.24547 -0.0420167 45
-1.45124 -2.22366 -0.321278 47
-0.960326 -2.24904 -0.210496 49
-1.45108 -2.22173 -0.508069 45
-0.958809 -2.24866 -0.382121 47
-1.4561 -2.22604 -0.702883 52
-0.954372 -2.24463 -0.554227 50
-3.31965 -5.03134 1.38136 9
-2.38113 -5.5754 1.61293 12
-3.60318 -5.4629 1.02863 8
-2.40991 -5.61588 1.18005 20
-3.63154 -5.50794 0.574138 8
-2.41694 -5.61073 0.74478 29
-1.4609 -2.2164 0.0457253 47
-0.971045 -2.24265 0.12626 45
-1.46403 -2.21946 -0.137971 45
-0.972986 -2.24501 -0.0421039 45
-1.4656 -2.22017 -0.321886 47
-0.973466 -2.24609 -0.210714 49
-1.46405 -2.21615 -0.508545 44
-0.971546 -2.24588 -0.382512 47
-1.4704 -2.22241 -0.704176 52
-0.967072 -2.24184 -0.554789 50
-3.31497 -5.00523 1.37574 4
-2.40892 -5.61342 1.6252 14
-3.68362 -5.56366 1.04892 9
-2.42069 -5.61125 1.18005 20
-3.68927 -5.57427 0.581765 11
-2.42477 -5.60194 0.744172 29
-1.46791 -2.21776 0.0458126 45
-0.97595 -2.24324 0.126391 45
-1.47342 -2.22522 -0.138496 45
-0.976903 -2.24331 -0.0421039 45
-1.47222 -2.22175 -0.322495 45
-0.977385 -2.24439 -0.210714 49
-1.47198 -2.21972 -0.509974 45
-0.977424 -2.24871 -0.383295 47
-1.47734 -2.22361 -0.705469 52
-0.972912 -2.24462 -0.555912 49
-2.44503 -5.61359 1.62908 15
-3.72467 -5.56006 1.05204 9
-2.44807 -5.594 1.17909 17
-3.72076 -5.5563 0.581982 11
-2.44707 -5.57056 0.741738 26
-1.4809 -2.21212 0.0458562 45
-0.99008 -2.2425 0.126653 45
-1.48922 -2.2237 -0.13889 47
-0.990032 -2.24028 -0.0421476 45
-1.48699 -2.21787 -0.323103 45
-0.990125 -2.24152 -0.210931 50
-1.48671 -2.2158 -0.510926 45
-0.990568 -2.24565 -0.383687 47
-1.49166 -2.21985 -0.706762 52
-0.985042 -2.23933 -0.555912 49
-2.44709 -5.59161 1.62391 14
-3.73161 -5.54945 1.05126 9
-2.45389 -5.58073 1.17719 17
-3.71794 -5.5312 0.580021 11
-2.45079 -5.55266 0.739912 23
-1.48894 -2.21575 0.0459871 45
-0.996008 -2.24534 0.126915 45
-1.49449 -2.22317 -0.139021 45
-0.994951 -2.24083 -0.0421912 45
-1.49224 -2.21733 -0.323407 45
-0.996047 -2.24435 -0.211366 47
-1.49606 -2.22134 -0.512831 45
-0.994486 -2.24392 -0.383687 47
-1.49958 -2.22325 -0.708702 50
-0.99091 -2.24207 -0.557035 50
-2.47144 -5.56768 1.62068 14
-3.74673 -5.50942 1.04736 8
-2.47709 -5.55435 1.17433 15
-3.73845 -5.4993 0.578714 11
-2.47578 -5.53068 0.738695 24
-1.50333 -2.21206 0.0460743 45
-1.00775 -2.24009 0.126915 45
-1.50892 -2.21944 -0.139283 45
-1.00871 -2.24016 -0.0422784 45
-1.50802 -2.21564 -0.32432 45
-1.0088 -2.24138 -0.211583 47
-1.51044 -2.21753 -0.513783 45
-1.00925 -2.24544 -0.384861 47
-1.51393 -2.21935 -0.709995 50
-1.00363 -2.23907 -0.557597 49
-2.48018 -5.56115 1.62004 14
-3.75912 -5.50695 1.04814 4
-2.48077 -5.53657 1.17147 15
-3.73541 -5.47425 0.576753 9
-2.48441 -5.52409 0.738391 26
-1.51424 -2.21975 0.0462925 45
-1.01371 -2.24288 0.127176 45
-1.51983 -2.22711 -0.13994 45
-1.01467 -2.24295 -0.0423657 47
-1.51609 -2.21915 -0.325233 45
-1.01476 -2.24415 -0.212018 47
-1.51847 -2.22097 -0.515211 45
-1.01417 -2.24593 -0.385253 47
-1.5219 -2.22268 -0.711935 52
-1.01152 -2.24621 -0.559843 49
-2.50529 -5.53928 1.61745 14
-3.76826 -5.45875 1.04268 8
-2.50567 -5.51457 1.16956 18
-3.76543 -5.45667 0.576971 11
-2.52666 -5.54037 0.742346 24
-1.52868 -2.21591 0.0463798 45
-1.02751 -2.24209 0.127438 45
-1.53147 -2.21912 -0.13994 45
-1.02744 -2.23988 -0.0424093 47
-1.53192 -2.2173 -0.326146 45
-1.02753 -2.24108 -0.212236 49
-1.53007 -2.21299 -0.515211 45
-1.02655 -2.24302 -0.385644 47
-1.53489 -2.21667 -0.712582 50
-1.02326 -2.24088 -0.559843 50
-2.50897 -5.52171 1.61357 14
-3.8148 -5.50762 1.05322 8
-2.54581 -5.57719 1.18386 15
-3.81041 -5.50127 0.582418 9
-2.57971 -5.63344 0.755429 32
-1.5354 -2.21735 0.046467 45
-1.03207 -2.24274 0.127569 45
-1.53961 -2.2226 -0.140334 44
-1.03343 -2.24263 -0.0424966 47
-1.53682 -2.21693 -0.32645 45
-1.03455 -2.24607 -0.212888 45
-1.53813 -2.21636 -0.51664 45
-1.03252 -2.24571 -0.386427 47
-1.54565 -2.2239 -0.715815 50
-1.02678 -2.23927 -0.559843 49
-2.54797 -5.53307 1.62068 14
-3.89035 -5.55431 1.06609 8
-2.58944 -5.59765 1.19101 18
-3.87822 -5.53903 0.588519 11
-2.60709 -5.61535 0.75482 27
-1.54947 -2.21364 0.0465543 45
-1.0459 -2.24183 0.127831 45
-1.55266 -2.21655 -0.140465 45
-1.04688 -2.2419 -0.0425839 45
-1.04839 -2.24514 -0.213323 49
-1.55074 -2.21055 -0.517116 45
-1.04426 -2.24028 -0.386427 45
-1.55967 -2.22 -0.717108 52
-1.04054 -2.23829 -0.560966 50
-2.57484 -5.56589 1.63167 14
-3.89436 -5.53943 1.06453 9
-2.61154 -5.61716 1.19625 18
-3.88358 -5.52614 0.587865 11
-2.60223 -5.5793 0.750561 18
-1.55947 -2.21884 0.0467288 47
-1.04981 -2.24001 0.127831 44
-1.5594 -2.21792 -0.140727 44
-1.05079 -2.24007 -0.0425839 45
-1.05126 -2.24105 -0.213106 47
-1.56025 -2.21587 -0.519021 47
-1.05234 -2.2474 -0.387993 45
-1.56671 -2.22094 -0.718402 50
-1.04444 -2.23647 -0.560966 49
-3.35706 -4.71929 1.32689 3
-2.62949 -5.60437 1.64718 14
-3.92713 -5.5223 1.06531 8
-2.62734 -5.57454 1.19006 15
-3.90909 -5.49895 0.587212 11
-2.61119 -5.52026 0.744476 15
-1.57251 -2.21268 0.0467724 45
-1.06512 -2.24106 0.128223 44
-1.06717 -2.24339 -0.0427584 45
-1.06511 -2.24002 -0.21354 47
-1.57507 -2.21139 -0.519973 45
-1.0641 -2.24186 -0.387993 47
-1.57972 -2.21467 -0.719048 50
-1.05757 -2.23299 -0.561527 49
-3.39844 -4.76159 1.34037 4
-2.62488 -5.56918 1.63813 14
-3.92146 -5.49603 1.06141 8
-2.62134 -5.53666 1.18291 14
-3.90277 -5.46983 0.584815 9
-2.61773 -5.51167 0.743867 20
-1.06971 -2.24164 0.128354 45
-1.07108 -2.24153 -0.0427584 47
-1.07115 -2.24266 -0.213975 45
-1.58464 -2.21662 -0.521878 45
-1.06907 -2.24223 -0.388385 47
-1.58921 -2.21977 -0.721635 50
-1.06316 -2.23573 -0.56265 49
-3.43616 -4.76151 1.34542 9
-2.64056 -5.52966 1.63037 14
-3.93284 -5.45139 1.05673 4
-2.64403 -5.51225 1.18052 15
-3.92312 -5.4399 0.583726 9
-2.64978 -5.50459 0.74478 23
-1.08251 -2.23826 0.128485 44
-1.0835 -2.23833 -0.042802 47
-1.08396 -2.23926 -0.214193 45
-1.084 -2.24328 -0.38956 47
-1.60184 -2.21365 -0.722281 50
-1.07696 -2.23452 -0.563773 49
-2.65751 -5.54029 1.6349 14
-2.65354 -5.50496 1.18005 15
-2.6583 -5.49773 0.744476 23
-1.08859 -2.24086 0.128746 44
-1.08958 -2.24093 -0.0428893 45
-1.09112 -2.24409 -0.214845 45
-1.08899 -2.24361 -0.389951 49
-1.60893 -2.21448 -0.723575 50
-1.08191 -2.23484 -0.564335 49
-2.67585 -5.50193 1.62779 14
-2.68771 -5.50202 1.18243 17
-2.69346 -5.49441 0.745997 27
-1.0996 -2.2327 0.128616 44
-1.10279 -2.23725 -0.0429329 47
-1.10505 -2.24282 -0.21528 47
-1.10181 -2.24009 -0.390343 47
-1.62623 -2.2138 -0.726161 49
-1.09613 -2.23333 -0.565458 49
-2.6918 -5.51028 1.63167 15
-2.70162 -5.50613 1.18434 20
-2.70099 -5.48794 0.745693 24
-1.10751 -2.23993 0.129139 44
-1.16465 -1.5855 -0.101607 12
-1.1078 -2.23757 -0.0429765 45
-1.10896 -2.24089 -0.21528 45
-1.10898 -2.24481 -0.391517 47
-1.63296 -2.21485 -0.727454 49
-1.10071 -2.23379 -0.56602 49
-3.3119 -4.45696 1.27186 4
-2.71751 -5.49226 1.63037 14
-2.73491 -5.50338 1.18672 18
-2.74185 -5.49816 0.74904 21
-1.22151 -1.64589 0.0351666 11
-1.11923 -2.2341 0.129139 44
-1.16846 -1.57337 -0.101214 14
-1.12358 -2.24088 -0.0431511 45
-1.12291 -2.23951 -0.215715 45
-1.12072 -2.23898 -0.391517 47
-1.64848 -2.21236 -0.729394 49
-1.11347 -2.23018 -0.566581 47
-3.3153 -4.44532 1.27017 4
-2.74212 -5.51779 1.63942 15
-2.75532 -5.51789 1.19101 18
-2.77364 -5.53776 0.755124 21
-1.22168 -1.63954 0.0350793 11
-1.1276 -2.24107 0.129662 44
-1.16673 -1.56532 -0.10082 14
-1.13085 -2.24562 -0.043282 47
-1.13128 -2.24645 -0.216585 49
-1.12573 -2.23923 -0.391909 47
-1.65707 -2.21499 -0.731334 49
-1.11845 -2.23041 -0.567143 47
-2.76868 -5.4964 1.63748 14
-2.80187 -5.53844 1.19863 15
-2.85066 -5.61564 0.767902 35
-1.22874 -1.63112 0.0350357 11
-1.1397 -2.23494 0.129662 44
-1.1704 -1.55321 -0.100426 15
-1.14298 -2.23946 -0.043282 47
-1.17021 -1.55129 -0.233961 4
-1.14528 -2.24494 -0.21702 49
-1.16258 -1.54008 -0.3676 15
-1.13967 -2.2377 -0.392692 47
-1.67156 -2.21014 -0.732627 49
-1.1338 -2.23085 -0.568827 49
-2.81745 -5.56917 1.66075 14
-2.85482 -5.6189 1.21722 20
-2.8516 -5.59567 0.765773 27
-1.22857 -1.62499 0.0349484 11
-1.14548 -2.2376 0.129924 42
-1.17009 -1.54719 -0.100163 15
-1.14689 -2.23747 -0.043282 45
-1.17115 -1.54747 -0.233657 8
-1.15146 -2.24737 -0.217455 49
-1.15785 -1.52827 -0.365219 15
-1.1447 -2.23791 -0.393083 47
-1.1384 -2.23124 -0.569389 47
-2.86759 -5.59785 1.67367 15
-2.86865 -5.576 1.21103 17
-2.86609 -5.55199 0.761818 23
-1.23678 -1.61875 0.0349484 11
-1.16176 -2.24044 0.130447 44
-1.17791 -1.54125 -0.100163 15
-1.16049 -2.23607 -0.0433692 44
-1.17923 -1.54132 -0.233657 14
-1.16282 -2.24151 -0.217455 47
-1.16258 -1.5185 -0.364267 17
-1.1564 -2.23189 -0.393083 47
-1.1523 -2.22958 -0.570512 47
-2.85971 -5.55846 1.66333 14
-2.86826 -5.55136 1.20674 15
-2.86551 -5.52714 0.759079 21
-1.24417 -1.62254 0.0350793 11
-1.16452 -2.23619 0.130317 44
-1.1882 -1.54909 -0.10082 14
-1.16669 -2.23848 -0.0434565 45
-1.18192 -1.53926 -0.233657 18
-1.16673 -2.23948 -0.217455 47
-1.15775 -1.50674 -0.361886 17
-1.16256 -2.23425 -0.393866 47
-1.15731 -2.22973 -0.571073 49
-2.88766 -5.54127 1.66268 14
-2.88479 -5.51233 1.20149 15
-2.88635 -5.49668 0.75695 21
-1.25418 -1.61797 0.035123 11
-1.17969 -2.2367 0.130709 44
-1.19629 -1.54285 -0.10082 14
-1.18305 -2.24119 -0.043631 44
-1.18996 -1.53305 -0.233657 20
-1.18191 -2.23996 -0.218107 45
-1.15809 -1.49097 -0.359505 18
-1.17539 -2.23032 -0.394258 45
-1.1701 -2.2258 -0.571635 47
-2.88503 -5.51267 1.65558 14
-2.89326 -5.50512 1.20102 15
-2.92714 -5.55092 0.765164 21
-1.25547 -1.61381 0.0350793 11
-1.18476 -2.23684 0.13084 44
-1.20052 -1.54272 -0.100951 14
-1.18579 -2.23692 -0.0435874 44
-1.18806 -1.5251 -0.232744 15
-1.18814 -2.2423 -0.218542 45
-1.15767 -1.48508 -0.358553 18
-1.18274 -2.23482 -0.395432 45
-1.17738 -2.23022 -0.573319 47
-2.92401 -5.5167 1.66139 14
-3.03719 -5.70662 1.24868 15
-1.72584 -2.19461 0.241204 12
-3.03204 -5.67785 0.78494 15
-1.27008 -1.61507 0.0352539 11
-1.19763 -2.23281 0.130971 44
-1.21348 -1.54209 -0.101345 14
-1.19984 -2.23509 -0.0436746 45
-1.19756 -1.52081 -0.233048 14
-1.20261 -2.24023 -0.218977 47
-1.16086 -1.47322 -0.357124 18
-1.19559 -2.23077 -0.395824 45
-1.19133 -2.22833 -0.574442 45
-3.04128 -5.7142 1.72278 20
-3.03312 -5.67263 1.24248 15
-1.72967 -2.19159 0.241204 12
-3.02086 -5.63317 0.779464 15
-1.27938 -1.62047 0.0354284 11
-1.20389 -2.23512 0.131232 44
-1.22082 -1.54584 -0.101739 14
-1.20493 -2.23519 -0.0437183 44
-1.19868 -1.51677 -0.232744 14
-1.20769 -2.24032 -0.219194 47
-1.15886 -1.46542 -0.355696 17
-1.20414 -2.23739 -0.39739 44
-1.19407 -2.2241 -0.573881 44
-3.05269 -5.66151 1.7118 15
-3.04527 -5.62429 1.23533 18
-3.0513 -5.61674 0.779464 35
-1.28941 -1.6157 0.035472 11
-1.21954 -2.23515 0.131625 44
-1.23202 -1.54333 -0.102001 14
-1.217 -2.22864 -0.0437183 44
-1.21307 -1.51801 -0.233961 14
-1.21822 -2.23178 -0.218977 44
-1.15603 -1.44572 -0.352363 15
-1.21584 -2.23105 -0.39739 45
-1.21188 -2.22831 -0.576689 45
-3.0442 -5.62218 1.70146 24
-3.05977 -5.62759 1.23724 35
-3.06368 -5.61848 0.780376 35
-1.30161 -1.62515 0.0357338 11
-1.22424 -2.23543 0.131756 44
-1.24252 -1.55091 -0.102658 14
-1.22328 -2.2309 -0.0438055 44
-1.217 -1.51804 -0.234265 14
-1.2245 -2.23402 -0.219412 44
-1.15548 -1.43987 -0.35141 15
-1.22091 -2.2311 -0.397781 45
-1.21771 -2.23069 -0.577812 45
-3.08189 -5.62365 1.70663 30
-3.09176 -5.61849 1.23867 36
-3.09186 -5.60019 0.780072 21
-1.31297 -1.62243 0.0358211 12
-1.23714 -2.23117 0.131887 44
-1.25035 -1.54461 -0.102658 14
-1.23698 -2.22905 -0.0438928 44
-1.22806 -1.5155 -0.234873 14
-1.2382 -2.23215 -0.219847 44
-1.15811 -1.42829 -0.349982 14
-1.23496 -2.229 -0.398564 44
-1.23054 -2.22642 -0.578373 45
-3.09286 -5.62038 1.70727 30
-3.10037 -5.61093 1.23819 21
-3.11244 -5.61433 0.78281 33
-1.31895 -1.62401 0.0359083 12
-1.24103 -2.22901 0.131887 44
-1.26408 -1.55598 -0.103576 14
-1.24208 -2.22908 -0.0439364 44
-1.22914 -1.51143 -0.234569 14
-1.2433 -2.23217 -0.220064 44
-1.15285 -1.41676 -0.347601 15
-1.24124 -2.23116 -0.399347 44
-1.23678 -2.22853 -0.579496 45
-3.12322 -5.60357 1.70727 27
-3.13787 -5.60693 1.24105 32
-3.14641 -5.6039 0.783723 33
-1.33248 -1.62264 0.0360392 12
-1.25552 -2.22662 0.132148 44
-1.27565 -1.55297 -0.103839 14
-1.25779 -2.22886 -0.0440673 44
-1.24203 -1.5105 -0.235482 14
-1.25901 -2.23192 -0.220716 44
-1.15738 -1.40671 -0.346649 15
-1.25532 -2.22894 -0.40013 44
-1.25001 -2.22393 -0.580058 45
-3.1436 -5.61708 1.71309 32
-3.15725 -5.61857 1.24486 32
-3.15886 -5.60544 0.784636 33
-1.34168 -1.62803 0.0362137 12
-1.26146 -2.22899 0.13241 44
-1.28471 -1.55844 -0.104364 14
-1.26168 -2.22666 -0.0440673 44
-1.25388 -1.52003 -0.237307 14
-1.26413 -2.23189 -0.220934 44
-1.15827 -1.4028 -0.346173 15
-1.26285 -2.2332 -0.401305 44
-1.25589 -2.22621 -0.581181 45
-3.17555 -5.60741 1.71503 32
-3.19171 -5.61319 1.24725 32
-3.19676 -5.60391 0.786765 32
-1.3531 -1.62505 0.036301 12
-1.27435 -2.22452 0.132541 44
-1.29925 -1.55936 -0.104889 14
-1.27541 -2.22459 -0.0441546 44
-1.2666 -1.51916 -0.23822 14
-1.27827 -2.22957 -0.221369 44
-1.15748 -1.3875 -0.343792 14
-1.27697 -2.23085 -0.402088 44
-1.84224 -2.20394 -0.759786 11
-1.27114 -2.22596 -0.582865 44
-4.56213 -5.45264 1.63068 12
-3.1913 -5.61236 1.71826 32
-4.56291 -5.45548 1.11838 11
-3.2122 -5.62411 1.25106 32
-3.21269 -5.6091 0.788287 32
-1.36424 -1.63204 0.0365192 12
-1.28071 -2.22663 0.132802 44
-1.30518 -1.56092 -0.105152 14
-1.28054 -2.22453 -0.0441982 44
-1.27403 -1.52265 -0.239133 14
-1.2834 -2.22949 -0.221586 44
-1.1536 -1.37795 -0.341887 12
-1.28209 -2.23076 -0.40248 44
-1.84336 -2.1967 -0.758492 11
-1.27744 -2.22797 -0.583988 45
-4.63877 -5.48366 1.64752 9
-3.22763 -5.60548 1.72149 29
-4.65934 -5.5099 1.13477 12
-3.24651 -5.61571 1.25297 32
-4.65625 -5.50818 0.627957 14
-3.24921 -5.60237 0.789808 30
-1.37923 -1.63251 0.0366937 12
-1.29525 -2.22399 0.133064 44
-1.32301 -1.5655 -0.105939 14
-1.29507 -2.22189 -0.0442855 44
-1.29348 -1.52899 -0.241263 14
-1.29755 -2.22705 -0.222021 44
-1.16738 -1.37918 -0.343792 14
-1.29499 -2.22615 -0.402871 44
-1.86891 -2.20359 -0.764312 9
-1.2907 -2.22314 -0.58455 45
-4.68207 -5.51723 1.65987 11
-3.24586 -5.61448 1.72601 29
-4.67438 -5.5101 1.13633 12
-3.26123 -5.61853 1.25487 32
-4.6723 -5.50764 0.628829 14
-3.25053 -5.58439 0.787982 23
-1.38854 -1.63772 0.0368682 12
-1.30502 -2.23274 0.133718 45
-1.32897 -1.56699 -0.106202 14
-1.30397 -2.22827 -0.04446 44
-1.3007 -1.53263 -0.242175 14
-1.3052 -2.23124 -0.222674 44
-1.16184 -1.36779 -0.341411 14
-1.30259 -2.23029 -0.404046 44
-1.86805 -2.19481 -0.762372 8
-1.29663 -2.22532 -0.585673 44
-4.71089 -5.49263 1.65987 11
-3.28276 -5.61257 1.73054 29
-4.70156 -5.48368 1.13594 12
-3.28714 -5.59772 1.25392 12
-4.68877 -5.47068 0.627303 12
-3.28853 -5.58226 0.790112 2
-1.40332 -1.63826 0.0370427 12
-1.31669 -2.22587 0.133718 44
-1.34529 -1.56949 -0.106858 14
-1.31778 -2.22595 -0.0445473 42
-1.31355 -1.53144 -0.243088 14
-1.31813 -2.22652 -0.222891 44
-1.16715 -1.36004 -0.340935 14
-1.31551 -2.22557 -0.404437 44
-1.88229 -2.18899 -0.763665 9
-1.31197 -2.2248 -0.587358 44
-4.72683 -5.49179 1.66212 11
-3.28645 -5.59642 1.72731 8
-4.71273 -5.47733 1.13633 12
-3.29913 -5.59351 1.2544 1
-4.69344 -5.45683 0.62665 12
-3.2806 -5.5466 0.785853 1
-1.4081 -1.63746 0.0370864 12
-1.32566 -2.23217 0.134242 45
-1.35128 -1.57092 -0.107121 14
-1.3242 -2.22794 -0.0446345 42
-1.32919 -1.54418 -0.245522 14
-1.32455 -2.2285 -0.223326 44
-1.16311 -1.35056 -0.33903 12
-1.32316 -2.22964 -0.405612 44
-1.88806 -2.1872 -0.764312 9
-1.31461 -2.22041 -0.586796 44
-4.74847 -5.45695 1.65931 11
-3.30435 -5.55779 1.72084 1
-4.74392 -5.45362 1.13672 11
-3.33842 -5.59303 1.25821 1
-4.72617 -5.43511 0.627086 12
-3.29783 -5.50747 0.78281 1
-1.42322 -1.6376 0.0372609 12
-1.34028 -2.22925 0.134503 44
-1.36277 -1.56759 -0.107383 15
-1.34009 -2.22718 -0.0447654 42
-1.34404 -1.54445 -0.246739 14
-1.33876 -2.22581 -0.223761 44
-1.16233 -1.335 -0.336649 14
-1.33861 -2.22904 -0.406786 42
-1.90108 -2.1791 -0.764959 11
-1.3316 -2.22163 -0.589042 44
-4.76505 -5.45865 1.66212 11
-3.31157 -5.54786 1.71955 3
-4.7606 -5.45546 1.13867 11
-3.34188 -5.57666 1.25583 3
-4.73401 -5.42498 0.626868 12
-3.30137 -5.49377 0.781593 2
-1.42936 -1.63888 0.0373481 12
-1.34635 -2.23142 0.134765 44
-1.36879 -1.56897 -0.107646 14
-1.34527 -2.22698 -0.0448091 42
-1.34973 -1.54607 -0.247347 14
-1.34778 -2.23201 -0.224631 42
-1.34377 -2.22882 -0.407178 44
-1.9017 -2.17214 -0.763665 11
-1.33634 -2.22163 -0.589604 44
-4.79034 -5.42998 1.661 8
-3.33338 -5.52069 1.71632 14
-4.78583 -5.42676 1.13789 9
-3.38785 -5.58907 1.2625 2
-4.79435 -5.4383 0.631225 8
-3.38933 -5.57398 0.795588 11
-1.43764 -1.63163 0.0373481 12
-1.36061 -2.22861 0.135027 42
-1.38029 -1.56552 -0.107909 14
-1.35782 -2.22228 -0.0448527 42
-1.36274 -1.54457 -0.24826 14
-1.36074 -2.22705 -0.224848 42
-1.35927 -2.22808 -0.408352 44
-1.91747 -2.16792 -0.765605 12
-1.35048 -2.21877 -0.590727 44
-4.7982 -5.41978 1.66044 4
-3.3205 -5.47767 1.70469 14
-4.81985 -5.44613 1.14375 4
-3.4024 -5.58885 1.26393 11
-4.83024 -5.45977 0.634712 8
-3.39259 -5.55747 0.794067 12
-1.4474 -1.63635 0.0375227 12
-1.3671 -2.23049 0.135288 42
-1.38964 -1.57059 -0.108434 14
-1.36561 -2.2263 -0.0449836 42
-1.37366 -1.55147 -0.249781 14
-1.36722 -2.22892 -0.225283 42
-1.36444 -2.22782 -0.408744 42
-1.92484 -2.16784 -0.766899 12
-1.35561 -2.21849 -0.591288 44
-4.8827 -5.45545 1.67953 3
-3.34 -5.44315 1.69952 12
-4.94312 -5.52485 1.16599 8
-3.41105 -5.53751 1.2563 11
-4.92116 -5.50223 0.642774 9
-3.40307 -5.50735 0.789503 12
-1.45761 -1.63061 0.0375663 12
-1.38309 -2.22943 0.135681 42
-1.40118 -1.56701 -0.108696 14
-1.37895 -2.22101 -0.0450272 41
-1.38866 -1.5514 -0.250998 14
-1.38018 -2.22385 -0.2255 42
-1.38037 -2.2267 -0.409918 42
-1.94423 -2.16672 -0.770132 11
-1.37271 -2.21942 -0.593534 45
-4.97754 -5.54383 1.70929 12
-3.33052 -5.40646 1.68983 12
-4.97255 -5.53826 1.17067 11
-3.41168 -5.51693 1.25297 12
-4.979 -5.54737 0.649092 11
-3.39961 -5.48031 0.786461 12
-1.46714 -1.6355 0.0377408 12
-1.38697 -2.22701 0.135681 39
-1.41058 -1.57199 -0.109221 14
-1.38414 -2.22072 -0.0450708 41
-1.39469 -1.55267 -0.251607 14
-1.388 -2.22779 -0.226153 42
-1.38555 -2.22639 -0.41031 42
-1.95286 -2.1687 -0.772072 9
-1.37914 -2.22116 -0.594657 44
-5.02057 -5.53125 1.71378 11
-3.33581 -5.35203 1.67819 11
-5.02472 -5.53774 1.17614 11
-3.44572 -5.50732 1.25487 12
-5.02137 -5.53598 0.650836 11
-3.44012 -5.48136 0.789199 12
-1.47904 -1.6315 0.0378281 12
-1.4026 -2.22607 0.136073 39
-1.42551 -1.57197 -0.109746 14
-1.40107 -2.22191 -0.0452454 41
-1.40613 -1.54902 -0.252215 14
-1.39965 -2.22049 -0.226153 42
-1.40113 -2.22538 -0.411485 42
-1.96581 -2.16023 -0.772718 8
-1.39075 -2.21391 -0.594657 44
-5.04237 -5.53776 1.71827 12
-3.32084 -5.30729 1.66592 11
-5.04103 -5.53627 1.1777 9
-3.51269 -5.59278 1.27584 11
-5.03606 -5.53273 0.651489 11
-3.51442 -5.57827 0.804107 12
-1.48693 -1.63446 0.037959 12
-1.40515 -2.2215 0.135943 36
-1.42993 -1.57133 -0.109878 14
-1.40761 -2.22369 -0.0453326 41
-1.4075 -2.22436 -0.226805 42
-1.40632 -2.22502 -0.411876 42
-1.97936 -2.16749 -0.776598 3
-1.40109 -2.2218 -0.597465 44
-5.08051 -5.51936 1.72108 9
-3.32794 -5.25716 1.65558 11
-5.08834 -5.52978 1.18199 11
-3.5485 -5.58467 1.27823 11
-5.09194 -5.53561 0.654975 11
-3.53825 -5.55141 0.80289 9
-1.49886 -1.63033 0.0380462 12
-1.42079 -2.22043 0.136335 33
-1.4449 -1.57117 -0.110403 14
-1.42326 -2.22261 -0.0454635 41
-1.42047 -2.21906 -0.227023 42
-1.42061 -2.22179 -0.412659 42
-1.99395 -2.16065 -0.777891 2
-1.41401 -2.21649 -0.598027 44
-5.10571 -5.52927 1.7267 9
-3.319 -5.22279 1.64653 11
-5.11307 -5.53722 1.1855 11
-3.54638 -5.55984 1.27394 9
-5.1168 -5.54318 0.656936 11
-3.54392 -5.53896 0.801977 9
-1.5034 -1.62955 0.0380899 12
-1.42735 -2.22215 0.136597 30
-1.44426 -1.56498 -0.11014 14
-1.42714 -2.22013 -0.0454635 41
-1.43105 -2.22707 -0.22811 42
-1.42581 -2.22139 -0.413051 42
-2.00593 -2.16602 -0.781124 2
-1.41919 -2.21607 -0.598588 44
-5.15217 -5.51937 1.73231 11
-3.32674 -5.17486 1.63684 11
-5.15884 -5.52842 1.1894 9
-3.57278 -5.53707 1.27298 11
-5.15425 -5.52542 0.658026 11
-3.57018 -5.51616 0.801369 9
-1.51873 -1.62896 0.0382644 12
-1.44304 -2.22094 0.136989 29
-1.46095 -1.56652 -0.110797 14
-1.44554 -2.22311 -0.0456817 42
-1.44405 -2.22164 -0.228327 42
-1.43838 -2.21622 -0.413442 42
-2.0288 -2.16782 -0.785651 2
-1.43474 -2.21475 -0.600273 44
-5.18082 -5.5326 1.73905 11
-3.31091 -5.13047 1.62456 11
-5.19452 -5.54915 1.19565 11
-3.57178 -5.51434 1.26917 4
-5.1775 -5.53096 0.659769 4
-3.56804 -5.49389 0.798935 8
-1.52157 -1.62631 0.0382644 12
-1.44516 -2.21657 0.136859 26
-1.46027 -1.56032 -0.110534 14
-1.44942 -2.22059 -0.0456817 41
-1.45335 -2.22747 -0.229197 42
-1.44762 -2.22199 -0.415008 42
-2.03589 -2.1678 -0.786944 2
-1.43954 -2.21454 -0.600834 42
-5.22647 -5.52309 1.74467 1
-3.31838 -5.08531 1.61551 11
-5.27273 -5.57389 1.20696 1
-3.59562 -5.49003 1.26774 4
-5.19516 -5.49382 0.658462 9
-3.59404 -5.47098 0.798326 8
-1.46086 -2.21524 0.137251 23
-1.46613 -2.22158 -0.0458562 42
-1.46597 -2.22216 -0.229415 42
-1.45885 -2.21464 -0.415008 42
-2.05515 -2.16622 -0.790177 2
-1.45378 -2.21104 -0.601957 44
-5.21836 -5.49721 1.73905 8
-3.31139 -5.05526 1.60776 11
-5.20837 -5.48859 1.19018 11
-3.60385 -5.48169 1.26726 4
-5.18417 -5.46307 0.655847 9
-3.67629 -5.57726 0.814755 9
-1.46709 -2.21711 0.137513 20
-1.47001 -2.21902 -0.0458562 42
-1.47396 -2.22584 -0.230067 42
-1.46814 -2.22033 -0.416574 42
-1.45993 -2.21283 -0.60308 42
-5.23358 -5.45575 1.73456 9
-3.32096 -5.01426 1.6 11
-5.22507 -5.44877 1.18745 9
-3.7089 -5.57994 1.29443 4
-3.70544 -5.55793 0.814755 9
-1.48006 -2.21147 0.137644 18
-1.48538 -2.21778 -0.0459871 42
-1.48798 -2.22249 -0.230502 42
-1.18149 -1.23105 -0.324269 14
-1.48249 -2.21673 -0.417357 42
-1.47959 -2.21733 -0.606449 44
-3.30967 -4.97827 1.59031 11
-3.71863 -5.57345 1.29443 4
-3.71238 -5.54733 0.814147 8
-1.48947 -2.21719 0.138167 15
-1.49342 -2.22142 -0.046118 41
-1.49324 -2.22196 -0.230719 42
-1.17682 -1.22192 -0.322364 14
-1.48635 -2.21414 -0.417357 41
-1.48616 -2.2188 -0.607573 44
-3.31147 -4.92478 1.57868 12
-3.74776 -5.55391 1.29443 4
-3.73165 -5.51342 0.812017 9
-1.49966 -2.20729 0.138036 15
-1.50503 -2.21357 -0.046118 41
-1.50764 -2.21824 -0.231154 42
-1.18492 -1.2175 -0.32284 12
-1.50069 -2.21041 -0.41814 42
-1.50048 -2.21502 -0.608696 44
-3.30116 -4.89095 1.56963 11
-3.7492 -5.53516 1.29157 8
-3.74405 -5.51101 0.812626 8
-1.50491 -2.20673 0.138167 14
-1.51452 -2.21921 -0.0462925 41
-1.51291 -2.21766 -0.231372 41
-1.18361 -1.21192 -0.321888 12
-1.5101 -2.21596 -0.419706 41
-1.50434 -2.2124 -0.608696 42
-3.22166 -3.26669 1.04949 2
-3.30905 -4.84766 1.56123 12
-3.77675 -5.51343 1.29109 4
-3.22543 -3.27276 0.398955 3
-3.75601 -5.46678 0.808975 8
-2.14236 -2.1737 0.0526626 38
-1.52069 -2.205 0.138559 14
-1.52611 -2.21125 -0.0462925 41
-1.52912 -2.2156 -0.232024 41
-1.19166 -1.20746 -0.322364 9
-1.52587 -2.21413 -0.420881 41
-1.52141 -2.21253 -0.610942 42
-3.22564 -3.25933 1.04893 3
-3.29705 -4.81197 1.55154 12
-3.1541 -3.18818 0.703184 1
-3.76787 -5.47785 1.28442 4
-3.20661 -3.24234 0.395905 12
-3.80073 -5.51131 0.816581 8
-2.16763 -2.19089 0.0531862 39
-1.53304 -2.21467 0.139344 14
-1.5344 -2.21498 -0.232242 41
-1.19377 -1.20537 -0.322364 8
-1.53254 -2.21553 -0.421664 41
-1.52665 -2.21188 -0.611503 42
-3.2415 -3.2401 1.04837 3
-3.30243 -4.76427 1.54184 11
-3.24292 -3.24263 0.719183 8
-3.8511 -5.53665 1.30301 4
-3.23115 -3.23198 0.396776 8
-3.87304 -5.55175 0.825708 9
-2.18615 -2.18658 0.0533607 38
-1.54357 -2.2043 0.139214 12
-1.55025 -2.21304 -0.232894 41
-1.20375 -1.20236 -0.323317 8
-1.54874 -2.21328 -0.422839 41
-1.54277 -2.20959 -0.613188 42
-3.29834 -4.74065 1.53603 12
-3.88321 -5.56214 1.31063 8
-3.87988 -5.54091 0.8251 9
-2.19528 -2.18805 0.0534916 36
-1.55314 -2.20978 0.139737 12
-1.55697 -2.21441 -0.233329 41
-1.20236 -1.1968 -0.322364 8
-1.55684 -2.21665 -0.424013 41
-1.54941 -2.21089 -0.614311 42
-3.30507 -4.69762 1.52763 12
-3.9137 -5.54373 1.31111 8
-3.90598 -5.51647 0.824491 9
-2.2156 -2.1853 0.0537098 38
-1.56469 -2.20162 0.139737 11
-1.55736 -1.53451 -0.263776 15
-1.57142 -2.21029 -0.233764 41
-1.20861 -1.19049 -0.322364 8
-1.5694 -2.21469 -0.61768 44
-5.49568 -5.3988 1.76769 12
-3.29518 -4.66618 1.51923 12
-3.91628 -5.52688 1.30873 4
-5.48715 -5.39227 0.67001 14
-3.90555 -5.49548 0.822361 9
-2.22655 -2.18844 0.0538843 35
-1.56998 -2.20092 0.139868 11
-1.56358 -1.53526 -0.264385 15
-1.21069 -1.18838 -0.322364 4
-1.57749 -2.21791 -0.619365 45
-5.61043 -5.45216 1.7952 11
-3.30274 -4.62527 1.51147 12
-3.93231 -5.48833 1.30444 4
-5.61888 -5.46415 0.682647 12
-3.9227 -5.45882 0.819928 8
-2.24515 -2.18372 0.0540588 35
-1.58585 -2.19875 0.14026 9
-1.16969 -1.61842 -0.0342503 11
-1.57338 -1.52878 -0.264689 15
-1.22218 -1.18715 -0.323793 4
-1.59334 -2.21556 -0.621049 44
-5.64874 -5.47215 1.80475 11
-3.30098 -4.60575 1.50695 11
-5.65275 -5.47602 1.23818 12
-3.929 -5.46352 1.30015 3
-5.52108 -5.35036 0.669574 1
-2.25793 -2.18849 0.054277 35
-1.59115 -2.198 0.140391 9
-1.1652 -1.60624 -0.0340322 12
-1.57961 -1.52948 -0.265298 15
-1.22425 -1.18501 -0.323793 8
-1.5972 -2.21277 -0.621049 44
-5.69937 -5.46173 1.81149 11
-3.30665 -4.56296 1.49855 11
-5.69026 -5.45489 1.24013 12
-5.67667 -5.44375 0.685044 14
-2.27658 -2.18356 0.0544515 33
-1.61146 -2.20175 0.141176 8
-1.59119 -1.52462 -0.265906 15
-1.23398 -1.18198 -0.324745 4
-1.61449 -2.21226 -0.623295 44
-5.70185 -5.44504 1.80924 11
-3.30467 -4.5435 1.49403 4
-5.69977 -5.44495 1.24013 12
-5.68436 -5.43211 0.684826 14
-2.28438 -2.18263 0.0545388 33
-1.6153 -2.19893 0.141176 4
-1.59564 -1.52356 -0.26621 14
-1.23249 -1.17644 -0.323793 9
-1.62122 -2.21338 -0.624418 44
-5.73122 -5.41411 1.80924 12
-3.31062 -4.50025 1.48562 4
-5.72736 -5.41234 1.23974 12
-5.72091 -5.40812 0.685698 14
-3.28854 -4.441 0.673284 1
-2.30668 -2.18094 0.0548006 33
-1.63015 -2.19417 0.141438 3
-1.18055 -1.58565 -0.0339013 14
-1.16718 -1.56816 -0.167658 12
-1.24598 -1.17649 -0.325697 9
-1.15631 -1.5557 -0.30186 12
-1.63462 -2.20653 -0.62498 41
-5.73795 -5.40344 1.80868 12
-3.31704 -4.49252 1.48498 1
-5.73945 -5.40672 1.24052 12
-5.73034 -5.39812 0.685698 12
-3.30734 -4.45178 0.675718 1
-2.31777 -2.18376 0.0549751 33
-1.63806 -2.19762 0.14183 2
-1.18779 -1.5896 -0.0340322 14
-1.16546 -1.56012 -0.167005 14
-1.24982 -1.17599 -0.326174 8
-1.15461 -1.54773 -0.300685 14
-2.2719 -2.13316 -0.825095 11
-1.64534 -2.21375 -0.627787 44
-5.76973 -5.37664 1.8098 9
-3.31233 -4.43888 1.4727 3
-5.77671 -5.38501 1.24247 9
-5.7758 -5.38603 0.687877 9
-2.3361 -2.17882 0.0551496 35
-1.64804 -2.18702 0.1417 3
-1.19282 -1.57958 -0.0339449 14
-1.26115 -1.17466 -0.327602 9
-1.16418 -1.54364 -0.301077 14
-2.26498 -2.10521 -0.818629 8
-1.65982 -2.20901 -0.628911 44
-5.87456 -5.45708 1.84013 8
-3.28681 -4.3886 1.45784 12
-5.882 -5.46398 1.26316 11
-5.88008 -5.46408 0.699207 11
-2.34906 -2.18325 0.0553678 35
-1.66237 -2.19809 0.142615 2
-0.714479 -0.665128 -0.0494909 30
-1.19858 -1.58148 -0.0340322 14
-1.2668 -1.1758 -0.328554 9
-1.16688 -1.54161 -0.301077 15
-2.27042 -2.10289 -0.819275 8
-1.66807 -2.21195 -0.630595 44
-5.92553 -5.445 1.84686 9
-3.29518 -4.35206 1.45138 14
-5.92326 -5.4448 1.26589 9
-5.91594 -5.43996 0.700079 11
-2.3715 -2.18106 0.0556295 35
-1.67537 -2.19135 0.142746 2
-0.718067 -0.661253 -0.0494909 30
-1.20685 -1.57519 -0.0340322 14
-1.15726 -1.51012 -0.163091 3
-1.26932 -1.16583 -0.327602 9
-1.17493 -1.53548 -0.301077 15
-2.28318 -2.0926 -0.819922 8
-5.93682 -5.43629 1.84742 9
-3.28964 -4.32899 1.44556 14
-5.92729 -5.42945 1.26472 9
-5.91992 -5.42458 0.699425 11
-2.38122 -2.18157 0.0557604 35
-0.717378 -0.658313 -0.0493596 30
-1.21263 -1.57705 -0.0341195 14
-1.14324 -1.48634 -0.160699 3
-1.2786 -1.17023 -0.329507 11
-1.18061 -1.53735 -0.30186 14
-2.28541 -2.08659 -0.819275 4
-5.96434 -5.40246 1.84686 9
-5.94743 -5.38901 1.26277 9
-5.93811 -5.38244 0.698118 9
-2.40743 -2.1825 0.0561095 35
-0.717114 -0.651197 -0.0490971 30
-1.22421 -1.57442 -0.0342067 14
-2.40631 -2.17844 -0.393687 36
-1.14034 -1.46654 -0.159177 3
-1.28309 -1.16165 -0.329031 11
-1.18864 -1.53115 -0.30186 14
-2.29272 -2.07136 -0.817982 8
-5.97282 -5.39308 1.84686 9
-5.95039 -5.3747 1.26159 9
-5.9401 -5.36539 0.697246 9
-2.41495 -2.18164 0.0561967 35
-0.716396 -0.648272 -0.0489658 30
-1.23002 -1.57623 -0.034294 14
-2.41526 -2.17964 -0.3946 36
-1.13832 -1.45865 -0.158524 3
-1.29241 -1.16598 -0.330935 11
-1.19282 -1.53102 -0.302251 14
-2.30351 -2.07381 -0.820569 4
-5.9895 -5.35334 1.26394 4
-2.43714 -2.17938 0.0564585 35
-0.723392 -0.647963 -0.0492284 32
-1.24261 -1.57588 -0.0344249 14
-2.4396 -2.17853 -0.396729 36
-1.14261 -1.44895 -0.15809 3
-1.30013 -1.16106 -0.331411 11
-1.20692 -1.53253 -0.303817 14
-2.31578 -2.06373 -0.821215 8
-2.44654 -2.18011 0.0565894 35
-0.724522 -0.6467 -0.0492284 32
-1.25 -1.5796 -0.0345558 14
-2.44711 -2.17756 -0.397338 36
-1.29848 -1.15553 -0.330459 9
-1.20501 -1.5246 -0.302643 14
-2.31216 -2.05328 -0.818629 8
-6.29353 -5.54646 1.32013 1
-6.56668 -5.78911 0.762831 3
-2.46543 -2.17388 0.0567639 35
-0.720403 -0.636297 -0.0487033 32
-1.26136 -1.57695 -0.034643 14
-2.47152 -2.17619 -0.399467 36
-1.31373 -1.15682 -0.33284 9
-1.21605 -1.52213 -0.303426 14
-2.32469 -2.04274 -0.819275 8
-6.44022 -5.65577 1.96759 3
-6.3162 -5.54687 1.32286 2
-6.58051 -5.78093 0.763266 3
-2.48237 -2.18112 0.0570694 35
-0.721513 -0.635039 -0.0487033 32
-1.27036 -1.58255 -0.0348176 14
-2.48277 -2.17842 -0.400684 35
-1.31575 -1.15452 -0.33284 9
-1.2264 -1.52966 -0.305383 14
-2.33007 -2.04027 -0.819922 8
-6.48642 -5.63248 1.97208 3
-6.36476 -5.5288 1.32676 2
-6.61733 -5.75014 0.76392 3
-2.49979 -2.17257 0.0572003 33
-0.721168 -0.627853 -0.0484407 32
-1.28361 -1.58149 -0.0349484 14
-2.50577 -2.17471 -0.40251 36
-1.32569 -1.1506 -0.333792 9
-1.23466 -1.523 -0.305383 14
-2.3429 -2.02921 -0.820569 8
-6.475 -5.60475 1.96591 3
-6.38747 -5.529 1.32949 2
-6.62548 -5.73696 0.763702 3
-2.51303 -2.17639 0.0574184 33
-0.720374 -0.62496 -0.0483094 32
-1.29267 -1.58701 -0.035123 14
-2.51708 -2.17682 -0.403727 35
-1.32584 -1.14668 -0.333316 9
-1.24198 -1.5266 -0.306558 14
-2.34644 -2.02512 -0.820569 8
-6.45896 -5.53004 1.95187 2
-6.44447 -5.51957 1.33535 2
-6.60814 -5.66168 0.758255 3
-2.53237 -2.16926 0.0575929 33
-0.723745 -0.621053 -0.0483094 32
-1.30757 -1.58773 -0.0352975 14
-2.53975 -2.17329 -0.405552 35
-1.33762 -1.14427 -0.334745 9
-1.25777 -1.52963 -0.308515 12
-2.3592 -2.01396 -0.821215 9
-6.50197 -5.54721 1.96198 3
-6.4776 -5.52641 1.34003 1
-6.5811 -5.61666 0.753897 2
-2.54185 -2.1697 0.0577238 33
-0.715436 -0.611566 -0.047653 32
-1.31193 -1.58738 -0.0353411 14
-2.55148 -2.17484 -0.406769 35
-1.34896 -1.14989 -0.337125 9
-1.26697 -1.53485 -0.310082 12
-2.35938 -2.0063 -0.819922 9
-6.5692 -5.5395 1.97265 8
-6.53857 -5.51562 1.34627 1
-6.58953 -5.56054 0.751283 2
-2.57113 -2.16997 0.0581165 35
-0.718734 -0.607686 -0.047653 32
-1.32717 -1.58771 -0.0355156 14
-2.57308 -2.16855 -0.40829 35
-1.35536 -1.14234 -0.337125 11
-1.28315 -1.53747 -0.312039 12
-2.3665 -1.9904 -0.818629 9
-6.62825 -5.57149 1.98781 12
-6.56802 -5.52282 1.35057 1
-6.55728 -5.51378 0.746489 2
-4.55339 -5.45958 0.867389 11
-2.58831 -2.17674 0.0584219 35
-0.717882 -0.604825 -0.0475218 32
-1.33314 -1.58923 -0.0356029 14
-2.58408 -2.17089 -0.409507 35
-1.35547 -1.13839 -0.336649 11
-1.29057 -1.54092 -0.313214 12
-2.37738 -1.99247 -0.821215 9
-1.16772 -1.39643 -0.4116 4
-6.68543 -5.56007 1.99623 14
-6.66709 -5.54678 1.365 11
-4.57959 -5.44828 1.37545 11
-6.66934 -5.5506 0.756076 12
-4.64743 -5.5135 0.879863 11
-2.60698 -2.17 0.0585965 35
-1.84267 -2.17849 0.147718 9
-0.719014 -0.599587 -0.0473905 32
-1.34762 -1.5901 -0.0357774 14
-2.60305 -2.16367 -0.410724 35
-1.36877 -1.13779 -0.338554 11
-1.3018 -1.53791 -0.313997 14
-2.38743 -1.98041 -0.821215 9
-1.17502 -1.39029 -0.4116 8
-6.70728 -5.56044 2.00016 15
-6.68817 -5.54459 1.36735 14
-4.66656 -5.53225 1.3988 11
-6.68477 -5.54372 0.75673 14
-4.66986 -5.52054 0.882297 12
-2.61846 -2.17183 0.058771 35
-1.85292 -2.1829 0.148242 4
-0.714292 -0.593553 -0.0469967 33
-1.36008 -1.5992 -0.0360392 14
-2.62211 -2.17178 -0.413158 35
-1.36697 -1.13227 -0.337602 11
-1.31405 -1.54695 -0.316346 14
-2.39647 -1.98085 -0.823155 8
-1.16959 -1.37893 -0.408792 8
-6.66002 -5.46076 1.97714 12
-6.69992 -5.4954 1.36383 14
-4.70501 -5.51895 1.40166 12
-6.68867 -5.48811 0.753897 14
-4.69708 -5.49413 0.881993 14
-2.63946 -2.16602 0.0589891 33
-1.8627 -2.17127 0.148111 4
-0.713528 -0.58664 -0.0467341 32
-1.37331 -1.59775 -0.0361701 14
-2.63921 -2.16274 -0.414071 35
-1.31634 -1.53169 -0.173311 12
-1.37288 -1.1251 -0.337602 11
-1.32828 -1.54779 -0.317912 14
-2.41055 -1.97133 -0.824448 8
-1.17363 -1.36908 -0.407669 9
-6.61577 -5.40713 1.96141 11
-6.64163 -5.43017 1.35018 12
-4.71463 -5.51073 1.40166 11
-6.67703 -5.45909 0.7515 12
-4.7041 -5.48486 0.881688 12
-2.65098 -2.16773 0.0591637 33
-1.87586 -2.17971 0.148896 4
-0.712618 -0.583815 -0.0466028 33
-1.37935 -1.59914 -0.0362574 14
-2.66183 -2.17428 -0.417113 35
-1.3255 -1.53695 -0.174181 12
-1.38055 -1.12735 -0.33903 12
-1.33419 -1.54922 -0.318695 14
-2.41211 -1.9656 -0.823802 8
-1.16153 -1.35057 -0.402615 9
-6.63073 -5.3617 1.95748 11
-6.63541 -5.36738 1.34315 12
-4.74086 -5.48494 1.40119 11
-6.66972 -5.39704 0.747578 12
-4.73275 -5.46015 0.881688 11
-2.67358 -2.16372 0.0594254 33
-0.709739 -0.575492 -0.046209 33
-1.39562 -1.60158 -0.0364755 14
-2.67897 -2.16499 -0.418026 35
-1.34794 -1.54715 -0.176138 14
-1.39197 -1.12497 -0.340459 12
-1.3501 -1.55178 -0.320653 14
-2.42015 -1.95185 -0.823155 8
-1.1654 -1.34079 -0.401492 9
-6.62586 -5.34058 1.95355 9
-6.62652 -5.343 1.33964 12
-4.74239 -5.46738 1.3988 8
-6.65005 -5.36194 0.74431 12
-4.73319 -5.44335 0.880167 11
-2.68709 -2.16689 0.0596436 33
-0.706853 -0.57112 -0.0459465 33
-1.39677 -1.59726 -0.0364319 14
-2.6959 -2.17167 -0.420156 35
-1.35064 -1.5448 -0.176138 14
-1.38819 -1.11793 -0.33903 12
-1.35604 -1.55315 -0.321436 14
-2.43109 -1.95367 -0.825742 8
-1.15793 -1.32791 -0.398123 9
-6.68802 -5.33314 1.96366 9
-6.65827 -5.31131 1.34042 12
-4.77162 -5.44515 1.39928 8
-6.65763 -5.31268 0.742131 12
-4.77308 -5.43154 0.882297 9
-2.70779 -2.16105 0.0598617 33
-0.71364 -0.570648 -0.046209 33
-1.40814 -1.59392 -0.0365192 14
-2.71694 -2.16525 -0.421677 35
-1.39767 -1.11394 -0.339982 12
-1.37067 -1.55345 -0.323002 14
-2.43527 -1.93683 -0.823802 8
-1.15523 -1.31084 -0.394754 4
-6.71165 -5.33475 1.96815 11
-3.31712 -3.78302 1.337 2
-6.7004 -5.3258 1.34705 12
-4.78598 -5.44235 1.40071 8
-6.67274 -5.30571 0.742785 12
-4.81371 -5.45859 0.888077 4
-2.72721 -2.16876 0.0602108 35
-0.714634 -0.569401 -0.046209 33
-1.41753 -1.59896 -0.0366937 14
-2.73237 -2.16976 -0.423502 35
-1.37828 -1.55661 -0.324176 14
-2.44812 -1.94007 -0.827035 4
-1.14143 -1.29053 -0.389138 3
-6.77681 -5.32696 1.97882 8
-3.31928 -3.7457 1.32989 1
-6.75149 -5.30895 1.35174 12
-4.83559 -5.44108 1.40691 4
-6.77482 -5.32919 0.751065 11
-4.89007 -5.48706 0.8969 4
-2.74246 -2.15754 0.0602981 35
-0.711717 -0.561024 -0.0458152 33
-1.42755 -1.59338 -0.0367373 14
-2.76127 -2.16921 -0.426241 32
-1.13684 -1.27179 -0.385208 4
-6.96929 -5.46052 2.03273 9
-3.27452 -3.6821 1.30921 1
-6.92698 -5.42932 1.3853 11
-4.93485 -5.53342 1.43312 8
-4.94826 -5.5349 0.906027 9
-2.76197 -2.16508 0.0606471 33
-0.714661 -0.56132 -0.0459465 33
-1.43866 -1.6002 -0.0369555 14
-2.77249 -2.17099 -0.427458 15
-1.13397 -1.26454 -0.383523 3
-3.29956 -3.67268 1.3118 4
-4.99234 -5.54121 1.4417 11
-5.00377 -5.53839 0.910895 9
-2.78474 -2.16027 0.0609089 33
-0.709695 -0.551455 -0.0454214 33
-1.44842 -1.59475 -0.0369991 14
-1.14384 -1.26221 -0.384646 4
-3.2882 -3.64716 1.30469 4
-5.01284 -5.54255 1.44456 11
-5.02176 -5.53885 0.912417 9
-2.79878 -2.16255 0.061127 33
-0.710657 -0.550216 -0.0454214 33
-1.45624 -1.59777 -0.03713 14
-1.14277 -1.2566 -0.383523 3
-3.19575 -3.50605 1.2601 2
-2.87449 -2.19708 0.566215 3
-5.05999 -5.53616 1.4498 11
-2.85691 -2.18444 0.311582 9
-5.06673 -5.52807 0.915155 9
-2.83192 -2.16456 0.061607 44
-0.709559 -0.543457 -0.0451588 33
-1.47162 -1.59724 -0.0373045 14
-1.15613 -1.25759 -0.385769 3
-2.84575 -2.1673 0.816461 9
-3.28328 -3.58965 1.29241 8
-2.84846 -2.17013 0.560362 9
-5.08622 -5.54542 1.45457 11
-2.84487 -2.16738 0.309839 11
-5.09219 -5.53838 0.918197 9
-2.83171 -2.15658 0.0615197 38
-0.704545 -0.537684 -0.044765 33
-1.4761 -1.59651 -0.0373481 14
-1.14658 -1.2432 -0.381839 4
-2.86484 -2.15823 0.818707 9
-2.85584 -2.15222 0.559582 11
-5.13089 -5.53762 1.45933 8
-2.84983 -2.14846 0.309185 14
-5.13631 -5.52802 0.920935 9
-2.84858 -2.14673 0.0616506 26
-0.711341 -0.536989 -0.0450275 33
-1.48587 -1.59085 -0.0373918 14
-1.15804 -1.24254 -0.383523 12
-2.87055 -2.15468 0.819268 8
-2.86552 -2.15167 0.560752 15
-5.15321 -5.54034 1.46267 9
-2.85756 -2.14647 0.309621 20
-5.15779 -5.53175 0.923065 9
-2.8607 -2.14726 0.0618251 11
-0.714274 -0.537245 -0.0451588 35
-1.49376 -1.59373 -0.0375227 14
-1.15025 -1.22981 -0.380154 14
-2.88021 -2.13767 0.818707 2
-2.87117 -2.13173 0.559582 15
-5.19726 -5.52939 1.46696 8
-2.87513 -2.13543 0.310274 20
-5.22847 -5.54713 0.930367 1
-2.88796 -2.14417 0.0621742 2
-0.709056 -0.527549 -0.0446337 36
-1.50579 -1.58927 -0.0376099 14
-1.15522 -1.2218 -0.379592 14
-2.87181 -2.12446 0.815338 2
-2.86495 -2.11937 0.55763 15
-5.22878 -5.54353 1.47315 1
-2.86083 -2.11708 0.308313 2
-5.19383 -5.4911 0.922457 11
-2.8535 -2.11089 0.0613452 2
-0.707968 -0.524827 -0.0445024 36
-1.51028 -1.58845 -0.0376536 14
-0.863443 -0.637646 -0.278049 45
-1.15067 -1.21269 -0.377346 14
-2.8872 -2.11176 0.816461 2
-2.86206 -2.09414 0.554899 2
-5.23066 -5.48764 1.46553 8
-5.21052 -5.45126 0.920327 8
-2.94322 -2.15346 0.0630468 1
-0.706675 -0.518167 -0.0442399 36
-1.52203 -1.58413 -0.0377408 14
-0.865163 -0.633305 -0.127172 41
-0.864132 -0.632097 -0.200942 41
-0.866769 -0.633116 -0.278049 41
-1.157 -1.20665 -0.377346 14
-2.94495 -2.14685 0.0630032 18
-0.709597 -0.518402 -0.0443712 36
-1.52652 -1.58328 -0.0377845 14
-0.868164 -0.633405 -0.127477 41
-0.865233 -0.630588 -0.200942 41
-0.867873 -0.631602 -0.278049 42
-1.15384 -1.19955 -0.375662 14
-2.97606 -2.14653 0.0634395 21
-0.710275 -0.513221 -0.0442399 36
-1.54148 -1.58271 -0.037959 14
-0.865426 -0.624503 -0.126564 41
-0.864429 -0.623334 -0.19999 41
-0.869097 -0.625793 -0.277403 42
-1.15672 -1.18999 -0.374539 14
-3.00048 -2.15539 0.0638758 20
-0.709141 -0.510525 -0.0441086 38
-1.54772 -1.5836 -0.0380462 14
-0.866515 -0.622991 -0.126564 42
-0.859531 -0.617537 -0.198561 41
-0.874226 -0.626933 -0.278696 42
-1.1554 -1.18447 -0.373416 14
-3.20188 -3.25481 0.555543 3
-3.02599 -2.14977 0.0641812 18
-0.713841 -0.50825 -0.0442399 38
-1.55802 -1.57698 -0.0380899 14
-0.867848 -0.616859 -0.12626 42
-1.5225 -1.5414 -0.186141 15
-0.860856 -0.611459 -0.198085 41
-0.871581 -0.618163 -0.276756 42
-1.15327 -1.1695 -0.370608 14
-3.0907 -2.18764 0.864752 2
-3.18693 -3.24853 1.2084 2
-3.08978 -2.18778 0.592751 3
-3.21114 -3.26191 0.882176 1
-3.07329 -2.1761 0.326398 9
-3.21917 -3.26216 0.557672 9
-3.04402 -2.15459 0.0644866 27
-0.71065 -0.50412 -0.0439773 39
-1.56253 -1.57604 -0.0381335 14
-0.864763 -0.612631 -0.125651 42
-1.52519 -1.53874 -0.186141 15
-0.861922 -0.609955 -0.198085 42
-1.53209 -1.54785 -0.339837 14
-0.866737 -0.612468 -0.274816 42
-1.15511 -1.16769 -0.370608 14
-3.10211 -2.17142 0.864752 4
-3.22371 -3.25296 1.21616 1
-3.08905 -2.16308 0.590409 9
-3.20168 -3.21949 0.875027 1
-3.07814 -2.15623 0.325745 11
-3.24146 -3.25053 0.558585 8
-3.05694 -2.14059 0.0645303 29
-0.707141 -0.496101 -0.0435835 38
-1.57578 -1.57342 -0.0382644 14
-0.865924 -0.606674 -0.125347 41
-1.53498 -1.53249 -0.186359 15
-0.858961 -0.60137 -0.196656 42
-1.53843 -1.53806 -0.339445 14
-0.865863 -0.605312 -0.273523 42
-1.16464 -1.16508 -0.371731 14
-3.08391 -2.15069 0.858575 9
-3.23108 -3.24904 1.2168 1
-3.09079 -2.15627 0.590019 9
-3.08395 -2.15228 0.325962 12
-3.06924 -2.14044 0.0647048 12
-0.710055 -0.496293 -0.0437148 39
-1.57852 -1.57067 -0.0382644 14
-0.860872 -0.600909 -0.124434 42
-1.54118 -1.53333 -0.186794 15
-0.86001 -0.59987 -0.196656 42
-1.54809 -1.54236 -0.341011 14
-0.863057 -0.600894 -0.27223 42
-1.15979 -1.15615 -0.369485 14
-3.09951 -2.13673 0.859698 8
-3.10038 -2.13811 0.589629 8
-3.08939 -2.13132 0.325309 12
-3.08658 -2.12859 0.0648357 11
-0.7147 -0.493985 -0.0438461 41
-0.862066 -0.594836 -0.12413 42
-1.55627 -1.53225 -0.187663 15
-0.859198 -0.592427 -0.195704 41
-1.5579 -1.53597 -0.341403 14
-0.868182 -0.597733 -0.272876 42
-1.16603 -1.14985 -0.369485 14
-3.11693 -2.14151 0.863629 2
-3.10577 -2.13464 0.590019 2
-3.10132 -2.13157 0.32618 12
-5.48379 -5.40856 0.940102 12
-3.1006 -2.13027 0.0650538 1
-0.711444 -0.489911 -0.0435835 41
-0.860953 -0.592078 -0.123826 42
-1.56072 -1.53128 -0.187881 15
-0.858206 -0.58954 -0.195228 42
-1.57113 -1.54365 -0.343752 14
-0.859257 -0.589401 -0.269643 42
-1.16783 -1.14802 -0.369485 14
-3.13213 -2.1279 0.864752 2
-3.11282 -2.11557 0.589239 2
-3.12237 -2.12284 0.32727 2
-5.54043 -5.40752 0.94497 12
-3.12168 -2.12157 0.065272 2
-0.711849 -0.484902 -0.0434522 41
-0.861988 -0.586169 -0.123522 42
-1.56666 -1.52162 -0.187663 15
-0.857115 -0.582435 -0.194276 42
-1.57212 -1.5285 -0.342186 12
-0.86423 -0.586397 -0.27029 42
-1.17209 -1.14019 -0.368923 14
-3.14757 -2.13117 0.868121 2
-5.53401 -5.41624 2.06269 11
-3.13492 -2.12259 0.592751 2
-3.12813 -2.11878 0.327488 4
-5.63874 -5.4844 0.960182 12
-3.13366 -2.12173 0.0654465 11
-0.712694 -0.483659 -0.0434522 41
-0.854785 -0.579108 -0.122305 41
-1.57468 -1.52409 -0.188316 15
-0.856096 -0.579565 -0.193799 41
-1.56771 -1.51887 -0.34062 11
-0.863249 -0.583538 -0.269643 41
-1.17233 -1.13644 -0.368362 15
-3.16311 -2.11681 0.869244 3
-5.67325 -5.49479 2.10404 8
-3.1542 -2.11164 0.594311 4
-5.67025 -5.4728 1.52367 12
-3.14953 -2.1093 0.328577 9
-5.67989 -5.46685 0.962312 14
-3.15719 -2.11363 0.0657083 15
-0.713141 -0.478533 -0.043321 41
-0.857805 -0.574624 -0.122305 41
-1.58981 -1.52273 -0.189186 15
-0.855036 -0.57235 -0.192847 42
-1.57208 -1.50722 -0.339837 11
-0.866293 -0.57901 -0.269643 42
-1.18002 -1.13198 -0.368923 15
-3.17656 -2.1186 0.872052 3
-5.70194 -5.50334 2.11115 11
-3.17637 -2.11845 0.597824 3
-5.69217 -5.47481 1.52701 12
-3.15321 -2.1038 0.328577 3
-5.68763 -5.45521 0.962008 12
-3.17544 -2.11782 0.0660137 2
-0.707742 -0.473135 -0.0429271 42
-0.854675 -0.570377 -0.121696 41
-1.59606 -1.5234 -0.18962 15
-0.85399 -0.569498 -0.192371 41
-1.56402 -1.49421 -0.337488 11
-0.859254 -0.572155 -0.267057 42
-1.17848 -1.12654 -0.3678 15
-3.19815 -2.10808 0.87486 3
-5.73766 -5.48009 2.11374 11
-3.19567 -2.10723 0.599384 3
-5.72609 -5.45001 1.52844 12
-3.18082 -2.09823 0.33032 4
-5.72151 -5.43049 0.96292 14
-3.16978 -2.09016 0.0656647 9
-0.712377 -0.470672 -0.0430584 42
-2.30651 -2.18069 -0.0548006 36
-0.855577 -0.56453 -0.121392 41
-1.6079 -1.51817 -0.190055 15
-0.85491 -0.563671 -0.191895 42
-1.56287 -1.4775 -0.33553 11
-0.862238 -0.567648 -0.267057 42
-1.18966 -1.12539 -0.369485 15
-5.75246 -5.47506 2.11567 11
-5.7312 -5.43394 1.52701 12
-3.16157 -2.07763 0.327923 3
-5.72197 -5.41196 0.961399 12
-3.15707 -2.0731 0.0653156 3
-0.706935 -0.46532 -0.0426646 41
-2.32122 -2.18696 -0.0550623 36
-0.856561 -0.563036 -0.121392 41
-1.61779 -1.5222 -0.190925 15
-0.853839 -0.560833 -0.191419 42
-1.56366 -1.47307 -0.335139 11
-0.861305 -0.56467 -0.26641 42
-1.18985 -1.12164 -0.368923 15
-5.7943 -5.45546 2.1202 9
-5.75779 -5.40218 1.52653 11
-3.19157 -2.0727 0.329884 3
-5.75479 -5.38432 0.962008 9
-3.16159 -2.05246 0.0651847 2
-0.711456 -0.46297 -0.0427959 42
-2.34032 -2.1812 -0.0552369 36
-0.853346 -0.554346 -0.120479 41
-1.62937 -1.51711 -0.19136 14
-0.854801 -0.554872 -0.190942 42
-1.56594 -1.4598 -0.333964 11
-0.860193 -0.557531 -0.265117 42
-1.19768 -1.11685 -0.369485 15
-5.79149 -5.43376 2.11567 9
-5.77617 -5.4005 1.52891 9
-3.17845 -2.05631 0.328141 2
-5.82309 -5.43116 0.972048 8
-3.16727 -2.0483 0.0652284 1
-0.710166 -0.460373 -0.0426646 42
-2.35327 -2.18563 -0.055455 36
-0.852131 -0.55166 -0.120175 41
-1.64295 -1.52446 -0.192665 14
-0.85783 -0.554709 -0.191419 42
-1.57029 -1.45875 -0.334356 11
-0.855073 -0.552108 -0.263177 42
-1.20121 -1.11663 -0.370046 15
-5.87021 -5.45207 2.13441 9
-5.90063 -5.46128 1.55465 11
-3.19092 -2.04154 0.328359 2
-5.90066 -5.44606 0.980262 11
-3.16917 -2.02685 0.0650538 2
-0.710462 -0.455305 -0.0425333 42
-2.37165 -2.18047 -0.0556295 36
-0.850824 -0.544521 -0.119566 41
-1.65091 -1.51583 -0.192665 14
-0.852349 -0.545082 -0.189514 41
-1.57609 -1.44883 -0.333964 11
-0.861931 -0.550366 -0.26447 44
-1.20883 -1.11198 -0.370608 15
-5.96474 -5.52061 2.16543 11
-5.91832 -5.4566 1.55656 9
-3.15666 -2.01188 0.324437 9
-5.91563 -5.4408 0.981175 11
-3.16462 -2.0154 0.0648793 12
-0.707043 -0.451384 -0.0422708 42
-2.38466 -2.18478 -0.0558477 35
-0.851773 -0.543035 -0.119566 41
-1.65905 -1.518 -0.193317 4
-0.849156 -0.540962 -0.188562 42
-1.58044 -1.44775 -0.334356 11
-0.854828 -0.543539 -0.261884 42
-1.20719 -1.10657 -0.369485 14
-6.01054 -5.50294 2.17125 11
-5.94318 -5.42222 1.5556 9
-5.92847 -5.39368 0.978437 8
-3.1709 -1.99614 0.0647921 21
-0.709397 -0.447676 -0.0422708 42
-2.40014 -2.17521 -0.055935 36
-0.8568 -0.539738 -0.119871 42
-0.849992 -0.535056 -0.188085 41
-1.58069 -1.43281 -0.33279 11
-0.851523 -0.535209 -0.259944 42
-1.21495 -1.10166 -0.370046 14
-6.03619 -5.5071 2.17706 11
-5.95082 -5.41019 1.55513 9
-5.94245 -5.38936 0.979349 8
-3.1659 -1.98529 0.0646175 24
-0.708061 -0.445112 -0.0421395 42
-2.4169 -2.18276 -0.0562404 35
-0.85344 -0.535759 -0.119262 41
-0.850924 -0.533571 -0.188085 42
-1.58136 -1.42839 -0.332398 11
-0.852455 -0.533722 -0.259944 42
-1.21849 -1.10139 -0.370608 14
-6.08548 -5.49592 2.18482 11
-7.3151 -4.53366 1.35447 41
-5.97266 -5.37507 1.5537 9
-7.41687 -4.59849 0.760434 36
-3.17166 -1.96661 0.0645303 24
-0.70606 -0.438894 -0.0418769 42
-2.43536 -2.17718 -0.0564149 35
-0.852013 -0.528672 -0.118654 41
-0.851526 -0.527967 -0.187609 42
-1.58698 -1.41844 -0.332007 11
-0.853091 -0.528132 -0.259297 42
-1.22786 -1.09825 -0.371731 14
-7.31604 -4.51661 1.97377 35
-6.12018 -5.50792 2.19386 9
-7.31039 -4.51311 1.35213 41
-7.4037 -4.57246 0.758255 33
-3.16658 -1.95582 0.0643557 26
-0.70895 -0.438972 -0.0420082 42
-2.44848 -2.18125 -0.0566331 35
-0.850822 -0.525883 -0.118349 41
-0.848267 -0.523907 -0.186657 41
-1.59498 -1.42061 -0.333181 11
-0.851954 -0.525378 -0.25865 42
-1.23703 -1.10261 -0.373977 14
-7.31619 -4.46046 1.96703 35
