# .PCD v0.7 - Point Cloud Data file format
VERSION 0.7
FIELDS x y z intensity
SIZE 4 4 4 4
TYPE F F F F
COUNT 1 1 1 1
WIDTH 1559
HEIGHT 1
VIEWPOINT 0 0 0 1 0 0 0
POINTS 1559
DATA ascii
-5.013 -5.52676 0.649746 11
-3.44143 -5.48346 0.789503 12
-1.47232 -1.6241 0.0376536 12
-1.39994 -2.22184 0.135812 38
-1.42719 -1.57382 -0.109878 14
-1.40107 -2.22191 -0.0452454 41
-1.4078 -1.55085 -0.252519 14
-1.40097 -2.2226 -0.22637 42
-1.39812 -2.22144 -0.410701 42
-1.96419 -2.15845 -0.772072 8
-1.39075 -2.21391 -0.594657 44
-5.04401 -5.53956 1.71883 12
-3.31956 -5.30524 1.66527 11
-5.04006 -5.53715 1.1777 9
-3.51009 -5.58862 1.27489 11
-5.04276 -5.5401 0.652361 11
-3.51212 -5.57678 0.803803 12
-1.4802 -1.62707 0.0377845 12
-1.40476 -2.22175 0.135943 36
-1.42657 -1.56764 -0.109615 14
-1.40494 -2.21946 -0.0452454 41
-1.41016 -2.22858 -0.22724 42
-1.40725 -2.22736 -0.412268 42
-1.97121 -2.15858 -0.773365 3
-1.39682 -2.21585 -0.59578 44
-5.08945 -5.531 1.72445 9
-3.33089 -5.26387 1.65751 11
-5.08905 -5.53249 1.18238 11
-3.54359 -5.57907 1.2768 12
-5.08254 -5.52733 0.653886 11
-3.53861 -5.55413 0.803194 9
-1.4935 -1.62507 0.0379153 12
-1.42308 -2.22489 0.136597 33
-1.44632 -1.57326 -0.110534 14
-1.42422 -2.22497 -0.0455071 41
-1.42276 -2.22351 -0.227458 42
-1.42155 -2.22412 -0.413051 42
-1.9903 -2.15744 -0.776598 2
-1.41101 -2.21262 -0.596904 42
-5.1097 -5.53553 1.72838 9
-3.3155 -5.21929 1.64524 11
-5.12048 -5.54718 1.18745 9
-3.54673 -5.56253 1.27441 9
-5.11245 -5.54041 0.656501 11
-3.54162 -5.53748 0.801673 9
-1.50481 -1.63165 0.0381335 12
-1.42427 -2.2182 0.136335 30
-1.44737 -1.5689 -0.110403 14
-1.4281 -2.22248 -0.0455071 42
-1.42932 -2.22522 -0.227892 42
-1.42543 -2.22164 -0.413051 42
-1.99899 -2.15928 -0.778538 2
-1.4188 -2.21632 -0.598588 44
-5.15786 -5.52739 1.73456 9
-3.32714 -5.17747 1.63748 11
-5.15956 -5.53113 1.18979 11
-3.57448 -5.54182 1.27394 11
-5.15328 -5.52632 0.658026 12
-3.56922 -5.51678 0.801369 9
-1.51504 -1.62557 0.0381771 12
-1.43994 -2.217 0.136728 29
-1.46068 -1.56677 -0.110797 14
-1.44244 -2.21917 -0.0455944 41
-1.44501 -2.22398 -0.228545 42
-1.44106 -2.22037 -0.414225 42
-2.02347 -2.16289 -0.783711 2
-1.43303 -2.21295 -0.599711 42
-5.18652 -5.54062 1.7413 9
-3.31786 -5.14323 1.62844 11
-5.18608 -5.54014 1.1937 11
-3.57215 -5.51702 1.26965 8
-5.17994 -5.5355 0.660205 4
-3.57074 -5.49805 0.799543 9
-1.52471 -1.63022 0.0383517 12
-1.44788 -2.22076 0.13712 26
-1.45658 -1.55693 -0.110272 14
-1.45039 -2.22294 -0.0457253 41
-1.44889 -2.22145 -0.228545 42
-1.44762 -2.22199 -0.415008 42
-2.0322 -2.16463 -0.785651 2
-1.44218 -2.21863 -0.601957 44
-5.21809 -5.51425 1.74186 1
-3.31838 -5.08531 1.61551 11
-5.22011 -5.51829 1.19487 1
-3.59562 -5.49003 1.26774 4
-5.20372 -5.50287 0.659551 9
-3.59716 -5.47783 0.799239 8
-1.46086 -2.21524 0.137251 23
-1.46128 -1.54566 -0.110009 12
-1.46888 -2.22575 -0.0459435 42
-1.46324 -2.218 -0.22898 42
-1.4602 -2.2167 -0.4154 42
-2.05016 -2.16097 -0.788237 2
-1.4534 -2.2113 -0.601957 44
-5.22843 -5.50781 1.74242 8
-3.31139 -5.05526 1.60776 11
-5.21177 -5.49217 1.19096 9
-3.60654 -5.4858 1.26822 4
-5.19007 -5.47121 0.656718 9
-3.67629 -5.57726 0.814755 8
-1.46709 -2.21711 0.137513 20
-1.47375 -2.22553 -0.0459871 42
-1.47221 -2.22402 -0.22985 42
-1.17841 -1.24078 -0.325221 14
-1.46679 -2.21827 -0.416183 42
-1.46394 -2.21894 -0.604765 44
-5.23263 -5.45666 1.73456 9
-3.31742 -5.01081 1.59871 11
-5.22412 -5.44968 1.18745 9
-3.70657 -5.57854 1.29395 4
-3.7141 -5.57304 0.816885 9
-1.48106 -2.21381 0.137774 18
-1.48777 -2.2222 -0.0460743 41
-1.48482 -2.21861 -0.230067 42
-1.18468 -1.2348 -0.325221 14
-1.48073 -2.21493 -0.416966 42
-1.4792 -2.21759 -0.606449 44
-3.3088 -4.97885 1.59031 12
-3.72038 -5.57819 1.29538 4
-3.71417 -5.5521 0.814755 9
-1.48631 -2.2133 0.137905 15
-1.49025 -2.21753 -0.0460307 42
-1.49423 -2.22429 -0.230937 42
-1.18342 -1.2292 -0.324269 14
-1.48734 -2.21645 -0.417749 42
-1.48442 -2.21703 -0.607011 44
-3.31195 -4.92736 1.57932 11
-3.74131 -5.54642 1.29252 8
-3.73902 -5.52641 0.813843 8
-1.50207 -2.21169 0.138298 15
-1.50605 -2.2159 -0.0461616 41
-1.50625 -2.21618 -0.230937 42
-1.17957 -1.21244 -0.321412 12
-1.50446 -2.21681 -0.419315 42
-1.49601 -2.20923 -0.607011 41
-3.30301 -4.89553 1.57092 12
-3.7492 -5.53516 1.29157 4
-3.75563 -5.53015 0.815364 8
-1.50453 -2.207 0.138167 14
-1.51272 -2.2174 -0.0462489 41
-1.51291 -2.21766 -0.231372 41
-1.1834 -1.21213 -0.321888 12
-1.5111 -2.21827 -0.420098 41
-1.50259 -2.21065 -0.608134 39
-3.21481 -3.25975 1.04725 2
-3.31585 -4.85763 1.56446 12
-3.77952 -5.51748 1.29205 4
-3.22368 -3.27098 0.398738 4
-3.76303 -5.47701 0.810496 8
-2.13709 -2.16836 0.0525317 36
-1.51928 -2.20294 0.138429 14
-1.52611 -2.21125 -0.0462925 41
-1.52733 -2.21382 -0.231807 41
-1.18821 -1.20397 -0.321412 9
-1.52587 -2.21413 -0.420881 41
-1.52004 -2.21052 -0.61038 42
-3.2165 -3.25123 1.04613 3
-3.30387 -4.82194 1.55477 12
-3.22533 -3.26013 0.719183 8
-3.77803 -5.49469 1.28823 4
-3.21012 -3.24588 0.396341 12
-3.80214 -5.51335 0.816885 8
-2.16549 -2.1895 0.0531426 36
-1.53162 -2.21262 0.139214 14
-1.53543 -2.2173 -0.232459 41
-1.1955 -1.20712 -0.32284 9
-1.53394 -2.21757 -0.422055 41
-1.52941 -2.2159 -0.612626 44
-3.25472 -3.25445 1.05286 3
-3.30847 -4.77478 1.54508 12
-3.23886 -3.23971 0.718403 8
-3.83614 -5.51717 1.29824 4
-3.23763 -3.23959 0.397648 9
-3.86924 -5.54835 0.8251 9
-2.18753 -2.18873 0.0534044 33
-1.54176 -2.20252 0.139083 12
-1.54987 -2.21331 -0.232894 41
-1.19485 -1.19391 -0.320936 8
-1.54835 -2.21356 -0.422839 41
-1.54656 -2.21586 -0.614872 44
-3.29614 -4.73924 1.53538 12
-3.88364 -5.56483 1.31111 8
-3.88176 -5.54565 0.825708 9
-2.19489 -2.18844 0.0534916 30
-1.55133 -2.20801 0.139606 12
-1.55659 -2.21468 -0.233329 41
-1.19693 -1.19182 -0.320936 8
-1.55646 -2.21692 -0.424013 41
-1.55182 -2.21515 -0.615434 44
-3.30842 -4.70413 1.52957 12
-3.91131 -5.54241 1.31063 8
-3.90645 -5.51917 0.824795 9
-2.217 -2.18744 0.0537534 27
-1.56431 -2.20189 0.139737 11
-1.55533 -1.53304 -0.263472 15
-1.57248 -2.2126 -0.233981 41
-1.2119 -1.19414 -0.323317 8
-1.56901 -2.21496 -0.61768 44
-5.49647 -5.40146 1.76825 12
-3.29436 -4.66676 1.51923 12
-3.91531 -5.52756 1.30873 8
-5.49331 -5.40021 0.670881 14
-3.90746 -5.5002 0.82297 8
-2.22617 -2.18883 0.0538843 21
-1.5696 -2.20119 0.139868 11
-1.56686 -1.53901 -0.264993 15
-1.21223 -1.19031 -0.32284 4
-1.57428 -2.21421 -0.618242 44
-5.59725 -5.44125 1.79127 11
-3.30054 -4.62388 1.51083 12
-3.93706 -5.497 1.30634 4
-5.61436 -5.46166 0.682212 12
-3.92174 -5.45951 0.819928 8
-2.25014 -2.18934 0.0541897 15
-1.58547 -2.19903 0.14026 9
-1.16795 -1.61659 -0.0342067 11
-1.57489 -1.53079 -0.264993 15
-1.22549 -1.19078 -0.324745 8
-1.59153 -2.21386 -0.620488 44
-5.64874 -5.47215 1.80475 12
-3.29315 -4.5965 1.50372 11
-5.65712 -5.48216 1.23935 12
-3.93759 -5.47548 1.30301 3
-5.53982 -5.37039 0.671971 1
-2.25434 -2.18501 0.0541897 14
-1.59076 -2.19828 0.140391 9
-1.16346 -1.60441 -0.0339886 12
-1.58113 -1.53148 -0.265602 14
-1.22404 -1.18523 -0.323793 4
-1.60108 -2.21899 -0.622734 44
-5.70113 -5.46341 1.81205 12
-3.29957 -4.55318 1.49532 11
-5.68848 -5.45318 1.23974 12
-5.67667 -5.44375 0.685044 14
-2.27478 -2.18183 0.0544079 12
-1.60999 -2.19973 0.141045 8
-1.17507 -1.60213 -0.0340758 12
-1.59119 -1.52462 -0.265906 15
-1.23221 -1.18028 -0.324269 4
-1.61449 -2.21226 -0.623295 44
-5.7009 -5.44604 1.80924 12
-3.299 -4.53569 1.49144 8
-5.69442 -5.43983 1.23896 12
-5.69336 -5.44071 0.685916 14
-2.28581 -2.18476 0.0545824 11
-1.61235 -2.1949 0.140915 4
-1.17491 -1.59605 -0.0339886 12
-1.59744 -1.52527 -0.266514 14
-1.23605 -1.17982 -0.324745 4
-1.62122 -2.21338 -0.624418 44
-5.73205 -5.41679 1.8098 12
-3.30984 -4.50083 1.48562 8
-5.72641 -5.41333 1.23974 12
-5.72901 -5.41767 0.686787 12
-3.29514 -4.45155 0.674805 1
-1.63273 -2.19847 0.1417 3
-1.18474 -1.59188 -0.0340322 14
-1.16691 -1.56836 -0.167658 12
-1.24221 -1.17334 -0.324745 4
-1.16072 -1.56166 -0.303034 12
-1.63568 -2.20878 -0.625541 44
-5.73878 -5.40611 1.80924 11
-3.3048 -4.47755 1.47981 1
-5.73046 -5.39825 1.23857 12
-5.72939 -5.39912 0.685698 12
-3.30143 -4.4438 0.674501 1
-1.63954 -2.19962 0.141961 2
-1.18602 -1.58781 -0.0339886 14
-1.16519 -1.56033 -0.167005 12
-1.24604 -1.17285 -0.325221 4
-1.15608 -1.54972 -0.301077 14
-2.27329 -2.13521 -0.825742 11
-1.64389 -2.21179 -0.627226 44
-5.77329 -5.37996 1.81093 9
-5.7749 -5.38333 1.24208 9
-5.77945 -5.38943 0.688312 8
-1.65254 -2.19301 0.142092 2
-1.19432 -1.58157 -0.0339886 14
-1.26475 -1.17801 -0.328554 8
-1.16715 -1.54759 -0.30186 14
-2.26852 -2.10849 -0.819922 8
-1.65836 -2.20706 -0.628349 42
-5.87635 -5.45874 1.84069 8
-5.88019 -5.4623 1.26277 8
-5.88008 -5.46408 0.699207 11
-1.65787 -2.19211 0.142223 2
-0.718138 -0.668525 -0.0497535 30
-1.19858 -1.58148 -0.0340322 14
-1.265 -1.17413 -0.328078 8
-1.16985 -1.54555 -0.30186 15
-2.2651 -2.09797 -0.817335 8
-1.6666 -2.21 -0.630034 42
-5.91656 -5.43676 1.84406 9
-3.29518 -4.35206 1.45138 14
-5.91417 -5.43644 1.26394 9
-5.90861 -5.43322 0.699207 11
-1.67991 -2.1973 0.143139 3
-0.716228 -0.659564 -0.0493596 30
-1.20685 -1.57519 -0.0340322 14
-1.15726 -1.51012 -0.163091 3
-1.27113 -1.16749 -0.328078 8
-1.17493 -1.53548 -0.301077 15
-2.27962 -2.08934 -0.818629 8
-5.93143 -5.43136 1.84574 9
-3.29256 -4.33284 1.44685 12
-5.92729 -5.42945 1.26472 9
-5.91624 -5.42122 0.698989 11
-0.717378 -0.658313 -0.0493596 30
-1.21111 -1.57506 -0.0340758 14
-1.13416 -1.47447 -0.159394 3
-1.27498 -1.16692 -0.328554 9
-1.18061 -1.53735 -0.30186 14
-2.28184 -2.08333 -0.817982 8
-5.96615 -5.40409 1.84742 9
-5.95292 -5.39399 1.26394 9
-5.95472 -5.39749 0.700079 11
-0.718964 -0.652872 -0.0492284 30
-1.22268 -1.57244 -0.0341631 14
-2.40263 -2.17511 -0.393078 36
-1.13882 -1.46457 -0.158959 3
-1.28309 -1.16165 -0.329031 9
-1.19042 -1.53289 -0.302251 14
-2.28913 -2.06812 -0.816689 8
-5.96016 -5.38165 1.84293 8
-5.95866 -5.38028 1.26316 9
-5.95119 -5.37541 0.698553 9
-0.718249 -0.649944 -0.0490971 30
-1.23308 -1.58018 -0.0343812 14
-2.41748 -2.18088 -0.394904 36
-1.14596 -1.46848 -0.159612 3
-1.28877 -1.1627 -0.329983 11
-1.19612 -1.53471 -0.303034 14
-2.30172 -2.0722 -0.819922 8
-5.99283 -5.35257 1.84406 8
-0.710469 -0.636198 -0.0483094 32
-1.24443 -1.57763 -0.0344685 14
-2.43813 -2.17645 -0.396425 36
-1.14287 -1.44875 -0.15809 3
-1.2985 -1.1592 -0.330935 11
-1.20692 -1.53253 -0.303817 14
-2.30893 -2.05691 -0.818629 8
-0.715309 -0.638276 -0.048572 30
-1.25182 -1.58135 -0.0345994 14
-2.44525 -2.17591 -0.397034 36
-1.30419 -1.16019 -0.331888 12
-1.20806 -1.52848 -0.303426 14
-2.31251 -2.05287 -0.818629 8
-6.42401 -5.65943 1.96535 2
-6.5592 -5.78253 0.761959 3
-0.71853 -0.634647 -0.048572 32
-1.26292 -1.5789 -0.0346867 14
-2.46965 -2.17455 -0.399163 36
-1.31189 -1.1552 -0.332364 9
-1.21758 -1.52407 -0.303817 14
-2.3265 -2.04433 -0.819922 8
-6.4567 -5.67023 1.97265 3
-6.3329 -5.56153 1.32637 2
-6.59735 -5.79572 0.765227 3
-0.579495 -0.510584 0.0128711 17
-0.71776 -0.631745 -0.0484407 32
-1.27348 -1.58646 -0.0349048 14
-2.48277 -2.17842 -0.400684 35
-1.3176 -1.15614 -0.333316 9
-1.22486 -1.52773 -0.304992 14
-2.32825 -2.03868 -0.819275 8
-6.47257 -5.62244 1.96815 3
-6.36193 -5.5283 1.32637 2
-6.61257 -5.74803 0.763484 3
-0.584048 -0.509183 0.0129148 18
-0.717288 -0.624705 -0.0481782 32
-1.28334 -1.58171 -0.0349484 14
-2.50164 -2.17189 -0.401901 36
-1.32549 -1.15083 -0.333792 11
-1.23439 -1.52322 -0.305383 12
-2.33707 -2.02488 -0.818629 8
-6.4556 -5.58994 1.96029 3
-6.3697 -5.51557 1.32598 2
-6.6 -5.71692 0.76087 3
-0.586826 -0.509798 0.0129584 18
-0.716489 -0.621818 -0.0480469 32
-1.28924 -1.58336 -0.0350357 14
-2.51857 -2.17888 -0.404031 36
-1.33492 -1.15493 -0.335697 9
-1.24637 -1.53258 -0.307732 12
-2.34608 -2.02553 -0.820569 8
-6.4728 -5.54384 1.95636 2
-6.44163 -5.51908 1.33496 2
-6.662 -5.70983 0.764574 3
-0.585778 -0.503364 0.0128711 20
-0.719843 -0.617933 -0.0480469 32
-1.30571 -1.58602 -0.0352539 14
-2.53749 -2.17212 -0.405248 35
-1.34488 -1.15088 -0.336649 9
-1.2575 -1.52985 -0.308515 12
-2.35517 -2.01124 -0.819922 9
-6.49914 -5.54676 1.96141 2
-6.47476 -5.52594 1.33964 1
-6.57065 -5.60972 0.752808 2
-0.586743 -0.502239 0.0128711 18
-0.719128 -0.61493 -0.0479156 32
-1.31352 -1.58931 -0.0353848 14
-2.5511 -2.17529 -0.406769 35
-1.34335 -1.14512 -0.335697 9
-1.27141 -1.54079 -0.311256 12
-2.36823 -2.01453 -0.823155 8
-6.56733 -5.53793 1.97208 8
-6.54612 -5.52199 1.34783 1
-6.58762 -5.55894 0.751065 1
-0.581895 -0.492508 0.0126966 18
-0.718734 -0.607686 -0.047653 32
-1.32717 -1.58771 -0.0355156 14
-2.57308 -2.16855 -0.40829 35
-1.35536 -1.14234 -0.337125 11
-1.28342 -1.53724 -0.312039 12
-2.3739 -1.99661 -0.821215 9
-6.63944 -5.58089 1.99118 12
-6.56331 -5.51691 1.3494 1
-6.63354 -5.57788 0.755204 2
-4.54957 -5.45307 0.866476 11
-0.586581 -0.494708 0.0127839 20
-0.712147 -0.600007 -0.0471279 32
-1.33474 -1.59115 -0.0356465 14
-2.58446 -2.17044 -0.409507 35
-1.35735 -1.13997 -0.337125 11
-1.29084 -1.54069 -0.313214 14
-2.37738 -1.99247 -0.821215 8
-1.16952 -1.3981 -0.412161 8
-6.6864 -5.5589 1.99623 14
-6.66426 -5.54246 1.36422 11
-4.59 -5.45876 1.37831 11
-6.68371 -5.56059 0.757601 11
-4.65319 -5.51838 0.880776 12
-0.58532 -0.488434 0.0126966 21
-1.83983 -2.17435 0.147457 9
-0.717199 -0.597866 -0.0472592 32
-1.35112 -1.59369 -0.0358647 14
-2.60915 -2.16797 -0.411637 35
-1.36519 -1.13441 -0.337602 11
-1.30976 -1.54736 -0.315954 12
-2.3915 -1.98307 -0.822508 8
-1.17212 -1.38636 -0.410476 8
-6.70638 -5.55772 1.9996 15
-6.68246 -5.53986 1.36617 14
-4.65804 -5.52017 1.39594 11
-6.69341 -5.54891 0.757601 12
-4.66665 -5.51675 0.881688 14
-0.588096 -0.489006 0.0127403 20
-1.85453 -2.1848 0.148372 4
-0.708627 -0.588652 -0.0466028 33
-1.35713 -1.59514 -0.035952 14
-2.62211 -2.17178 -0.413158 35
-1.37284 -1.13672 -0.33903 11
-1.31724 -1.55072 -0.317129 14
-2.40054 -1.98351 -0.824448 8
-1.16645 -1.37521 -0.407669 8
-6.66191 -5.4623 1.9777 12
-6.70183 -5.49697 1.36422 14
-4.70342 -5.51708 1.40119 12
-6.70408 -5.50075 0.75564 12
-4.6987 -5.49602 0.882297 14
-0.586698 -0.482854 0.012653 18
-1.86594 -2.17506 0.148372 4
-0.715459 -0.588223 -0.0468654 33
-1.37331 -1.59775 -0.0361701 14
-2.64305 -2.16588 -0.414679 35
-1.37098 -1.12354 -0.337125 11
-1.32667 -1.54591 -0.31752 14
-2.40681 -1.96827 -0.823155 8
-1.17521 -1.37093 -0.40823 9
-6.62331 -5.4133 1.96366 11
-6.64163 -5.43017 1.35018 12
-4.70985 -5.50513 1.40023 11
-6.66932 -5.45279 0.750629 11
-4.70087 -5.48109 0.88108 12
-0.589475 -0.483411 0.0126966 20
-1.87423 -2.17781 0.148765 3
-0.70875 -0.580656 -0.0463403 33
-1.38098 -1.60104 -0.036301 14
-2.65798 -2.17114 -0.416505 35
-1.32874 -1.54073 -0.174616 12
-1.37865 -1.1258 -0.338554 12
-1.3358 -1.5511 -0.319086 14
-2.41211 -1.9656 -0.823802 8
-1.16469 -1.35428 -0.403738 9
-6.63073 -5.3617 1.95748 11
-6.64693 -5.37669 1.34549 12
-4.73766 -5.48122 1.40023 9
-6.67166 -5.3986 0.747796 11
-4.7295 -5.4564 0.88108 11
-0.591914 -0.480421 0.0126966 21
-0.705856 -0.572353 -0.0459465 33
-1.38907 -1.59403 -0.036301 14
-2.6809 -2.16655 -0.41833 35
-1.34468 -1.54339 -0.175703 14
-1.38624 -1.12035 -0.33903 12
-1.35171 -1.55365 -0.321044 14
-2.41827 -1.95033 -0.822508 8
-1.16699 -1.34263 -0.402054 9
-6.62966 -5.34363 1.95468 9
-6.63806 -5.3523 1.34198 14
-4.73757 -5.46182 1.39737 8
-6.64423 -5.35725 0.743656 11
-4.74295 -5.45459 0.881993 11
-0.588859 -0.47625 0.0126094 20
-0.706853 -0.57112 -0.0459465 33
-1.39513 -1.59537 -0.0363883 14
-2.69396 -2.17011 -0.419852 35
-1.35064 -1.5448 -0.176138 14
-1.38628 -1.11639 -0.338554 12
-1.35766 -1.55501 -0.321827 14
-2.41979 -1.9446 -0.821862 8
-1.16112 -1.33159 -0.399246 9
-6.68231 -5.32859 1.96198 9
-6.66213 -5.31439 1.3412 12
-4.7797 -5.45439 1.40166 8
-6.66152 -5.31579 0.742567 11
-4.77308 -5.43154 0.882297 9
-0.591262 -0.473264 0.0126094 21
-0.71364 -0.570648 -0.046209 33
-1.41144 -1.59768 -0.0366064 14
-2.715 -2.16371 -0.421373 35
-1.40343 -1.11853 -0.341411 12
-1.36877 -1.55183 -0.32261 14
-1.16005 -1.31633 -0.396438 4
-6.71165 -5.33475 1.96815 9
-6.69754 -5.32543 1.34666 12
-4.78922 -5.44604 1.40166 8
-6.67859 -5.31036 0.743438 11
-4.79964 -5.44453 0.885643 4
-0.584259 -0.466011 0.0124348 20
-0.706815 -0.56319 -0.0456839 32
-1.41919 -1.60083 -0.0367373 14
-2.73005 -2.16869 -0.423198 35
-1.37148 -1.54944 -0.32261 14
-1.14764 -1.29804 -0.391385 3
-3.30903 -3.73543 1.32601 2
-6.74862 -5.30861 1.35135 14
-4.82975 -5.43641 1.40548 4
-6.76998 -5.3273 0.750629 11
-4.87757 -5.47494 0.894771 4
-0.584645 -0.461503 0.0123912 20
-0.71368 -0.562566 -0.0459465 33
-1.4306 -1.59736 -0.0368246 14
-2.75698 -2.16663 -0.425632 32
-1.14147 -1.27745 -0.386892 4
-6.96929 -5.46052 2.03273 9
-3.28509 -3.69532 1.31373 3
-6.92504 -5.4278 1.38491 11
-4.92995 -5.52793 1.43169 8
-4.95487 -5.54231 0.907244 11
-0.58553 -0.46038 0.0123912 21
-0.712695 -0.559781 -0.0458152 35
-1.43672 -1.59859 -0.0369118 14
-2.77444 -2.17252 -0.427762 15
-1.14208 -1.27363 -0.386331 3
-3.29859 -3.6703 1.31115 4
-4.99823 -5.54582 1.44313 12
-5.00806 -5.54121 0.911504 11
-0.583981 -0.454245 0.0123039 20
-0.71759 -0.55757 -0.0459465 33
-1.4487 -1.5945 -0.0369991 14
-1.14569 -1.26382 -0.385208 4
-3.2856 -3.643 1.30339 4
-5.02106 -5.55165 1.44694 12
-5.02342 -5.54069 0.912721 11
-0.586752 -0.454753 0.0123476 20
-0.710657 -0.550216 -0.0454214 35
-1.45652 -1.59752 -0.03713 14
-1.14277 -1.2566 -0.383523 4
-3.19677 -3.50839 1.26075 2
-2.87606 -2.19909 0.566606 2
-5.05572 -5.53342 1.44885 11
-5.06409 -5.52713 0.91485 9
-0.587059 -0.45026 0.0123039 21
-0.711543 -0.544972 -0.0452901 33
-1.46966 -1.59566 -0.0372609 14
-1.15262 -1.25419 -0.384646 3
-2.83993 -2.16287 0.814776 9
-3.28265 -3.59022 1.29241 8
-2.8465 -2.16864 0.559972 9
-5.08622 -5.54542 1.45457 11
-0.516369 -0.394967 0.0538187 21
-5.09555 -5.54204 0.918806 9
-0.591901 -0.452159 0.0123912 21
-0.712493 -0.54373 -0.0452901 35
-1.47413 -1.59493 -0.0373045 14
-1.14658 -1.2432 -0.381839 4
-2.85938 -2.15333 0.817022 9
-2.85424 -2.15023 0.559191 11
-5.13353 -5.53852 1.45981 9
-0.516509 -0.390669 0.0536008 24
-5.12884 -5.51803 0.919414 9
-0.588269 -0.444544 0.0122603 20
-0.713336 -0.53849 -0.0451588 36
-1.48955 -1.59425 -0.037479 14
-1.15826 -1.24234 -0.383523 12
-2.87055 -2.15468 0.819268 8
-2.86157 -2.14871 0.559972 15
-5.15655 -5.54394 1.46362 9
-5.16625 -5.54083 0.924586 9
-0.589044 -0.443517 0.0122603 21
-0.708282 -0.532752 -0.044765 36
-1.49233 -1.59165 -0.037479 14
-1.15025 -1.22981 -0.380154 14
-2.89745 -2.15124 0.823761 2
-2.87278 -2.1337 0.559972 15
-5.20301 -5.53745 1.46886 8
-5.20369 -5.52274 0.926107 1
-0.595296 -0.443509 0.0123476 23
-0.710969 -0.52916 -0.044765 36
-1.50551 -1.58953 -0.0376099 14
-1.15334 -1.22022 -0.379031 14
-2.87536 -2.12785 0.816461 2
-2.87253 -2.12574 0.559191 2
-5.21099 -5.52658 1.46839 1
-5.18947 -5.4884 0.921848 12
-0.59004 -0.438011 0.0122167 23
-0.711892 -0.527919 -0.044765 38
-1.51172 -1.59053 -0.0376972 14
-1.14878 -1.21112 -0.376785 14
-2.88523 -2.11032 0.815899 2
-2.89595 -2.11892 0.561533 2
-5.2222 -5.47875 1.46314 8
-5.21052 -5.45126 0.920327 8
-0.588365 -0.431862 0.0121294 20
-0.710706 -0.521113 -0.0445024 38
-1.52376 -1.58594 -0.0377845 14
-0.865163 -0.633305 -0.127172 41
-0.860166 -0.629204 -0.19999 41
-0.872625 -0.637382 -0.279989 42
-1.157 -1.20665 -0.377346 14
-0.585077 -0.427891 0.0120422 21
-0.713633 -0.521341 -0.0446337 38
-1.52999 -1.58688 -0.0378717 14
-0.866157 -0.631945 -0.127172 41
-0.863248 -0.629145 -0.200466 41
-0.86201 -0.627347 -0.276109 41
-1.15384 -1.19955 -0.375662 14
-0.589263 -0.426385 0.0120858 21
-0.708249 -0.511762 -0.0441086 38
-1.538 -1.57912 -0.0378717 14
-0.863412 -0.623053 -0.12626 41
-0.858451 -0.619036 -0.198561 41
-0.863212 -0.621567 -0.275463 41
-1.14995 -1.18298 -0.372293 14
-0.58805 -0.423796 0.0120422 23
-0.715227 -0.514891 -0.0445024 39
-1.54598 -1.58181 -0.0380026 14
-0.866515 -0.622991 -0.126564 42
-0.859531 -0.617537 -0.198561 41
-0.864404 -0.619909 -0.275463 42
-1.15371 -1.18272 -0.372854 14
-0.592299 -0.422158 0.0120858 21
-0.709769 -0.50536 -0.0439773 39
-1.55802 -1.57698 -0.0380899 14
-0.867848 -0.616859 -0.12626 42
-1.52076 -1.53962 -0.185924 15
-0.854848 -0.607203 -0.196656 41
-0.865667 -0.61398 -0.274816 42
-1.15327 -1.1695 -0.370608 14
-3.0907 -2.18764 0.864752 2
-3.21396 -3.27614 1.21874 2
-3.07768 -2.17922 0.590409 3
-3.2335 -3.28467 0.888371 1
-3.08142 -2.18185 0.32727 9
-3.21743 -3.26039 0.557368 9
-0.588954 -0.418237 0.0119985 21
-0.71065 -0.50412 -0.0439773 41
-1.56429 -1.57782 -0.0381771 14
-0.862736 -0.6112 -0.125347 42
-1.52519 -1.53874 -0.186141 15
-0.861922 -0.609955 -0.198085 42
-1.53209 -1.54785 -0.339837 14
-0.862789 -0.609686 -0.273523 41
-1.16023 -1.1729 -0.372293 14
-3.09413 -2.16584 0.862506 4
-3.22371 -3.25296 1.21616 1
-3.0931 -2.16591 0.59119 9
-3.19822 -3.21601 0.874074 1
-3.07814 -2.15623 0.325745 11
-3.24321 -3.25229 0.558889 8
-0.589015 -0.413817 0.0119549 21
-0.711234 -0.498962 -0.0438461 39
-1.57755 -1.57519 -0.038308 14
-0.86389 -0.605253 -0.125043 42
-1.53674 -1.53426 -0.186576 15
-0.858961 -0.60137 -0.196656 41
-1.54366 -1.54331 -0.34062 14
-0.865863 -0.605312 -0.273523 42
-1.1612 -1.16162 -0.370608 14
-3.08591 -2.15208 0.859137 9
-3.24809 -3.26619 1.22327 3
-3.08877 -2.15486 0.589629 9
-3.07577 -2.14658 0.325091 12
-0.587757 -0.411257 0.0119113 21
-0.705958 -0.493439 -0.0434522 41
-1.58029 -1.57244 -0.038308 14
-0.864945 -0.603744 -0.125043 42
-1.54294 -1.53509 -0.187011 15
-0.862024 -0.601272 -0.197133 42
-1.54809 -1.54236 -0.341011 14
-0.86504 -0.602271 -0.272876 42
-1.16495 -1.16132 -0.37117 14
-3.0955 -2.13397 0.858575 8
-3.09022 -2.13111 0.587678 8
-3.08939 -2.13132 0.325309 12
-0.591961 -0.409592 0.0119549 21
-0.712644 -0.492568 -0.0437148 42
-0.857978 -0.592023 -0.123522 42
-1.5545 -1.5305 -0.187446 15
-0.855153 -0.589646 -0.194752 41
-1.56317 -1.54118 -0.342577 14
-0.8642 -0.595 -0.271583 42
-1.16603 -1.14985 -0.369485 14
-3.10889 -2.136 0.861383 2
-3.11391 -2.14023 0.59158 2
-3.09927 -2.13016 0.325962 2
-5.48908 -5.41379 0.941015 12
-0.586493 -0.404314 0.011824 23
-0.709385 -0.488499 -0.0434522 41
-0.854814 -0.587868 -0.122913 41
-1.55894 -1.52953 -0.187663 15
-0.854156 -0.586766 -0.194276 42
-1.56937 -1.54192 -0.343361 14
-0.863244 -0.592127 -0.270936 42
-1.16437 -1.1446 -0.368362 14
-3.10592 -2.11011 0.857452 2
-5.50044 -5.40218 2.05364 11
-3.12712 -2.12528 0.59197 2
-5.35847 -5.24429 1.44932 1
-3.11619 -2.11864 0.326616 3
-5.53688 -5.40405 0.944362 12
-0.586464 -0.399936 0.0117804 23
-0.707718 -0.482097 -0.0431897 42
-0.85788 -0.583384 -0.122913 42
-1.57023 -1.5251 -0.188098 15
-0.857115 -0.582435 -0.194276 42
-1.57212 -1.5285 -0.342186 12
-0.87023 -0.590457 -0.27223 42
-1.17557 -1.14359 -0.370046 14
-3.13143 -2.12025 0.863629 2
-5.52711 -5.40948 2.0601 11
-3.1431 -2.12812 0.594311 2
-3.13432 -2.12297 0.328141 3
-5.63519 -5.48094 0.959574 12
-0.587161 -0.398912 0.0117804 23
-0.700286 -0.475267 -0.0426646 41
-0.854785 -0.579108 -0.122305 41
-1.57825 -1.52756 -0.188751 15
-0.856096 -0.579565 -0.193799 42
-1.57302 -1.52404 -0.341794 12
-0.861247 -0.582189 -0.268996 42
-1.17233 -1.13644 -0.368362 15
-3.15298 -2.11004 0.866437 3
-5.66285 -5.4847 2.10017 8
-3.16241 -2.11713 0.595872 4
-5.66849 -5.47109 1.52319 12
-3.15367 -2.11207 0.329013 9
-5.67632 -5.46341 0.961703 14
-0.585086 -0.393052 0.0116931 23
-0.706915 -0.474369 -0.0429271 41
-0.853678 -0.571867 -0.121696 41
-1.58802 -1.521 -0.188968 15
-0.859119 -0.575075 -0.193799 41
-1.57564 -1.51064 -0.34062 11
-0.860264 -0.574993 -0.267703 42
-1.17651 -1.12859 -0.3678 15
-3.16643 -2.11184 0.869244 3
-5.70194 -5.50334 2.11115 9
-3.17843 -2.11982 0.598214 3
-5.69217 -5.47481 1.52701 12
-3.16979 -2.11485 0.33032 3
-5.69837 -5.46553 0.963833 14
-0.589932 -0.394803 0.0117804 23
-0.705664 -0.471751 -0.0427959 41
-0.852609 -0.569002 -0.121392 41
-1.59966 -1.52685 -0.190055 15
-0.858078 -0.572216 -0.193323 42
-1.56937 -1.49934 -0.338662 11
-0.86529 -0.576162 -0.268996 42
-1.18024 -1.12823 -0.368362 15
-3.19408 -2.1054 0.873736 4
-5.7394 -5.48176 2.11438 11
-3.18742 -2.10179 0.597824 3
-5.72254 -5.44662 1.52748 12
-3.16002 -2.08452 0.328141 3
-5.71612 -5.42536 0.962008 12
-0.587816 -0.388958 0.0116931 23
-0.708207 -0.467926 -0.0427959 41
-2.30651 -2.18069 -0.0548006 32
-0.849358 -0.560439 -0.120479 41
-1.61151 -1.5216 -0.19049 15
-0.85491 -0.563671 -0.191895 42
-1.57361 -1.4877 -0.337879 11
-0.858201 -0.564998 -0.265763 42
-1.19142 -1.12707 -0.370046 15
-5.75071 -5.4734 2.11503 11
-5.73654 -5.43901 1.52844 12
-3.16574 -2.08037 0.328359 3
-5.75981 -5.44779 0.967788 12
-0.590652 -0.3892 0.0117367 23
-0.71111 -0.468058 -0.0429271 41
-2.32303 -2.18868 -0.055106 30
-0.850334 -0.558955 -0.120479 41
-1.61779 -1.5222 -0.190925 15
-0.851786 -0.559489 -0.190942 42
-1.56545 -1.47477 -0.33553 11
-0.855241 -0.560706 -0.26447 42
-1.19162 -1.12331 -0.369485 14
-5.7943 -5.45546 2.1202 9
-5.75958 -5.40386 1.52701 11
-3.17695 -2.06321 0.328359 2
-5.75842 -5.38771 0.962616 9
-0.592681 -0.386102 0.0117367 23
-0.713551 -0.464329 -0.0429271 41
-2.34032 -2.1812 -0.0552369 29
-0.853346 -0.554346 -0.120479 41
-1.62937 -1.51711 -0.19136 14
-0.85068 -0.552205 -0.18999 42
-1.56954 -1.46318 -0.334747 11
-0.858165 -0.556221 -0.26447 42
-1.19768 -1.11685 -0.369485 15
-5.79149 -5.43376 2.11567 9
-5.77796 -5.40218 1.52939 9
-3.18473 -2.06037 0.328795 2
-5.82309 -5.43116 0.972048 8
-0.591255 -0.383711 0.0116931 23
-0.705972 -0.457664 -0.042402 41
-2.34961 -2.18222 -0.0553678 27
-0.852131 -0.55166 -0.120175 42
-1.64477 -1.52615 -0.192882 14
-0.84958 -0.54939 -0.189514 42
-1.56849 -1.45707 -0.333964 11
-0.853043 -0.550801 -0.26253 42
-1.19765 -1.1133 -0.368923 15
-5.87197 -5.45372 2.13506 8
-5.89883 -5.45961 1.55417 11
-3.17623 -2.03215 0.326834 2
-5.89701 -5.4427 0.979654 11
-0.588977 -0.378021 0.0116058 23
-0.710462 -0.455305 -0.0425333 41
-2.36798 -2.17708 -0.0555423 24
-0.855008 -0.54719 -0.120175 41
-1.65091 -1.51583 -0.192665 14
-0.852349 -0.545082 -0.189514 42
-1.57609 -1.44883 -0.333964 11
-0.851745 -0.543882 -0.261237 42
-1.20883 -1.11198 -0.370608 15
-5.94348 -5.50091 2.15768 12
-5.91111 -5.44994 1.55465 9
-3.16297 -2.0159 0.325091 9
-5.91563 -5.4408 0.981175 11
-0.59181 -0.378232 0.0116495 23
-0.711256 -0.454064 -0.0425333 41
-2.38282 -2.18309 -0.0558041 21
-0.847585 -0.540373 -0.118958 41
-1.66089 -1.51969 -0.193535 4
-0.853299 -0.543594 -0.189514 42
-1.58225 -1.44943 -0.334747 11
-0.854828 -0.543539 -0.261884 42
-1.21435 -1.11317 -0.371731 14
-6.01945 -5.5111 2.17448 11
-5.93956 -5.41891 1.55465 9
-5.93031 -5.39535 0.978741 8
-0.595899 -0.376459 0.0116931 23
-0.713624 -0.450334 -0.0425333 41
-2.40014 -2.17521 -0.055935 20
-0.850496 -0.535779 -0.118958 41
-0.845834 -0.532447 -0.187133 41
-1.58799 -1.43946 -0.334356 11
-0.859708 -0.540338 -0.26253 42
-1.21495 -1.10166 -0.370046 14
-6.04154 -5.51199 2.179 11
-5.94538 -5.40523 1.5537 9
-5.93142 -5.37935 0.977524 8
-0.594437 -0.374091 0.0116495 23
-0.705945 -0.443787 -0.0420082 41
-2.4169 -2.18276 -0.0562404 17
-0.85344 -0.535759 -0.119262 42
-0.848843 -0.53227 -0.187609 41
-1.58685 -1.43337 -0.333573 11
-0.856553 -0.536279 -0.261237 42
-1.21849 -1.10139 -0.370608 14
-6.09086 -5.50078 2.18676 11
-7.3151 -4.53366 1.35447 41
-5.97448 -5.37672 1.55417 9
-7.41687 -4.59849 0.760434 36
-0.594197 -0.369761 0.0116058 23
-0.708183 -0.440208 -0.0420082 41
-2.43536 -2.17718 -0.0564149 15
-0.845682 -0.524756 -0.117741 41
-0.853614 -0.529258 -0.188085 42
-1.59249 -1.42339 -0.333181 11
-0.861311 -0.533205 -0.261884 42
-1.22424 -1.09499 -0.370608 14
-7.3036 -4.50893 1.9704 41
-6.11659 -5.50469 2.19257 9
-7.30619 -4.51052 1.35135 41
-7.39946 -4.56984 0.757819 32
-0.590588 -0.366098 0.0115186 23
-0.70895 -0.438972 -0.0420082 41
-2.45034 -2.18291 -0.0566767 15
-0.846597 -0.523279 -0.117741 41
-0.850357 -0.525193 -0.187133 41
-1.59498 -1.42061 -0.333181 11
-0.856069 -0.527907 -0.259944 42
-1.23521 -1.10099 -0.373416 14
-7.31619 -4.46046 1.96703 39
-6.17694 -5.49883 2.20356 11
-7.31995 -4.46449 1.3494 41
-7.40707 -4.51937 0.756076 32
-0.707051 -0.432531 -0.0417456 42
-2.47523 -2.18121 -0.0569821 14
-0.853655 -0.521272 -0.118349 42
-0.848992 -0.518034 -0.186181 41
-1.59685 -1.40733 -0.332007 12
-0.858912 -0.523268 -0.259944 42
-1.2448 -1.09752 -0.374539 14
-7.30236 -4.43632 1.96141 36
-6.20639 -5.50568 2.21067 11
-7.31218 -4.44401 1.34666 38
-7.39791 -4.49609 0.754333 32
-6.58261 -5.80512 1.07184 3
-0.707805 -0.431296 -0.0417456 42
-2.49967 -2.19506 -0.057462 14
-0.848107 -0.516069 -0.117437 41
-0.843598 -0.512736 -0.184752 41
-1.603 -1.4078 -0.33279 12
-0.853625 -0.518018 -0.258004 42
-1.2447 -1.09395 -0.373977 14
-7.30252 -4.38424 1.95524 33
-6.25231 -5.49014 2.21713 9
-7.30994 -4.39041 1.34198 35
-6.51416 -5.7003 1.67428 3
-7.4099 -4.45217 0.753244 32
-6.59797 -5.75752 1.0694 3
-0.588587 -0.354995 0.0113877 23
-0.707838 -0.426423 -0.0416144 44
-0.852926 -0.512897 -0.117741 41
-0.852498 -0.512243 -0.186181 42
-1.59919 -1.38965 -0.33044 12
-0.852091 -0.511212 -0.256711 41
-1.25591 -1.09223 -0.375662 14
-7.28639 -4.35901 1.94906 30
-6.28732 -5.5015 2.22618 9
-7.30064 -4.36751 1.33886 33
-6.56292 -5.72282 1.68428 3
-7.39415 -4.42517 0.750847 30
-6.60614 -5.74436 1.0691 3
-0.591351 -0.35525 0.0114313 23
-0.708581 -0.425187 -0.0416144 44
-0.845298 -0.50632 -0.116524 41
-2.48258 -2.15096 -0.283778 24
-0.844961 -0.505725 -0.184276 41
-1.59789 -1.38361 -0.329657 12
-0.857132 -0.512196 -0.258004 42
-1.26516 -1.09644 -0.377908 14
-7.29519 -4.31085 1.94513 32
-6.33976 -5.48907 2.23458 9
-7.30215 -4.31666 1.33496 33
-6.57608 -5.67394 1.67999 4
-7.40436 -4.37879 0.749539 32
-6.60416 -5.68216 1.06393 3
-0.591051 -0.350877 0.0113877 23
-0.704422 -0.417539 -0.0412205 44
-0.854349 -0.505669 -0.117437 41
-2.52818 -2.16672 -0.287693 30
-0.851825 -0.503787 -0.185228 41
-1.60137 -1.37201 -0.328874 12
-0.855639 -0.505251 -0.256711 42
-1.27457 -1.09298 -0.379031 14
-7.2817 -4.28575 1.93952 30
-6.37674 -5.50168 2.24427 9
-7.2969 -4.29639 1.33262 33
-6.62603 -5.69491 1.69 4
-7.39053 -4.35322 0.74736 32
-6.60842 -5.66578 1.06302 3
-0.702998 -0.415044 -0.0410893 44
-0.853091 -0.50292 -0.117132 41
-2.54898 -2.17689 -0.28965 32
-0.844238 -0.497328 -0.183324 41
-1.60376 -1.36921 -0.328874 12
-0.848273 -0.498723 -0.254124 42
-1.28017 -1.09393 -0.380154 14
-7.29004 -4.23773 1.93558 29
-6.43396 -5.49063 2.25396 9
-7.29229 -4.24072 1.32754 33
-6.63894 -5.64582 1.68571 3
-7.39675 -4.30316 0.745617 33
-6.56142 -5.5641 1.05054 2
-0.537983 -0.44981 0.0349342 15
-0.705161 -0.411357 -0.0410893 44
-0.643655 -0.539019 -0.0140492 14
-0.847215 -0.493315 -0.115916 41
-2.57174 -2.17317 -0.290954 29
-0.853286 -0.496447 -0.184752 41
-1.60149 -1.35281 -0.326917 12
-0.855053 -0.496695 -0.255417 42
-1.28978 -1.09015 -0.381277 14
-7.28826 -4.22139 1.93334 30
-6.46008 -5.49348 2.25978 9
-7.28825 -4.22307 1.32559 32
-6.55708 -5.55643 1.66236 2
-7.39563 -4.28525 0.744746 33
-6.58909 -5.56982 1.05358 2
-0.538689 -0.448965 0.0349342 15
-0.703717 -0.408875 -0.040958 44
-0.644595 -0.537894 -0.0140492 14
-0.843692 -0.489499 -0.115307 41
-2.58504 -2.17672 -0.292042 24
-0.84565 -0.490047 -0.182848 41
-1.60385 -1.35001 -0.326917 12
-0.849643 -0.491583 -0.253477 42
-1.29521 -1.09127 -0.3824 14
-7.28911 -4.17107 1.92772 27
-6.51735 -5.48561 2.27012 9
-7.29098 -4.17381 1.32208 32
-6.57197 -5.51213 1.65902 2
-7.39561 -4.23539 0.742567 33
-6.63529 -5.54957 1.05632 1
-0.542948 -0.44774 0.0350651 17
-0.705848 -0.405185 -0.040958 44
-0.643473 -0.531419 -0.0139619 14
-0.83978 -0.481382 -0.114394 41
-2.60596 -2.17113 -0.293129 27
-0.845988 -0.484544 -0.182372 41
-1.60143 -1.33367 -0.324959 12
-0.854218 -0.488472 -0.254124 42
-1.30464 -1.0876 -0.383523 14
-7.27733 -4.14749 1.92267 27
-6.54726 -5.49131 2.27723 8
-7.28752 -4.15497 1.32013 32
-6.65784 -5.56248 1.67809 8
-7.39217 -4.21631 0.741477 32
-6.67735 -5.56501 1.06149 14
-0.541811 -0.445193 0.0349342 18
-0.708724 -0.405188 -0.0410893 44
-0.644399 -0.530296 -0.0139619 14
-0.844932 -0.48237 -0.115003 41
-2.6174 -2.17296 -0.293999 27
-0.838298 -0.478215 -0.180467 41
-1.60186 -1.32929 -0.324568 12
-0.848853 -0.483256 -0.252184 42
-1.31401 -1.09157 -0.385769 14
-7.27843 -4.09611 1.91705 24
-6.60846 -5.48204 2.28821 9
-7.29053 -4.10458 1.31662 33
-6.70956 -5.54632 1.68381 14
-7.39318 -4.16403 0.739299 32
-6.69588 -5.51933 1.05967 14
-0.540358 -0.43908 0.0346726 18
-0.704308 -0.397799 -0.0406954 44
-0.647259 -0.526801 -0.0139619 14
-0.845367 -0.476576 -0.114699 41
-2.63836 -2.16714 -0.295086 33
-0.843013 -0.474873 -0.180943 41
-1.59737 -1.31146 -0.322219 12
-0.851372 -0.478805 -0.252184 44
-1.3199 -1.08445 -0.385769 12
-7.26786 -4.07515 1.91256 23
-6.63848 -5.48743 2.29532 9
-7.28835 -4.08829 1.31506 33
-6.68325 -5.50494 1.67475 14
-7.38957 -4.14503 0.738209 33
-6.68538 -5.49304 1.05663 14
-3.19587 -1.79283 0.0633522 26
-0.537189 -0.435061 0.0344109 18
-0.700645 -0.394129 -0.0404329 44
-0.646245 -0.524085 -0.0139183 14
-0.85261 -0.478884 -0.115611 42
-2.65561 -2.17359 -0.296608 33
-0.841699 -0.472204 -0.180467 41
-1.59775 -1.3071 -0.321827 12
-0.854315 -0.478495 -0.252831 44
-1.32912 -1.08857 -0.388015 12
-7.26352 -4.02288 1.90582 20
-6.69607 -5.47825 2.30566 8
-7.29238 -4.0405 1.31193 33
-6.68441 -5.44931 1.66808 11
-7.38867 -4.0955 0.73603 33
-6.66594 -5.4188 1.04902 12
-3.18523 -1.76573 0.0629596 30
-0.541397 -0.433817 0.0345417 18
-0.702699 -0.390455 -0.0404329 45
-0.646949 -0.519232 -0.0138747 14
-0.852934 -0.473212 -0.115307 44
-2.67662 -2.16751 -0.297695 33
-0.844078 -0.467937 -0.180467 42
-1.60074 -1.2956 -0.321044 12
-0.854611 -0.472999 -0.252184 44
-1.34047 -1.08621 -0.3897 12
-7.25133 -3.99961 1.90077 17
-6.73555 -5.49098 2.316 9
-7.28861 -4.0218 1.30998 33
-6.63392 -5.38693 1.65283 12
-7.37836 -4.07298 0.734287 33
-6.64262 -5.38059 1.04385 12
-3.17548 -1.75237 0.0626978 33
-0.542153 -0.432871 0.0345417 18
-0.70338 -0.389228 -0.0404329 45
-0.649797 -0.519674 -0.0139183 14
-0.851585 -0.470526 -0.115003 44
-2.69589 -2.17537 -0.299435 33
-0.842743 -0.46528 -0.179991 41
-1.59341 -1.28503 -0.319086 12
-0.853401 -0.470195 -0.251538 44
-1.34804 -1.08848 -0.391385 12
-7.24291 -3.94401 1.89291 15
-6.78583 -5.47115 2.32311 8
-7.29508 -3.97404 1.30725 33
-6.65822 -5.34905 1.65188 12
-7.38717 -4.02585 0.73298 32
-6.65034 -5.32749 1.0405 14
-3.16705 -1.72616 0.0623487 33
-0.542538 -0.428371 0.0344109 18
-0.696637 -0.380766 -0.0399078 45
-0.845398 -0.461171 -0.113786 44
-2.71696 -2.169 -0.300522 32
-0.847405 -0.461885 -0.180467 42
-0.847359 -0.461115 -0.248951 44
-7.21911 -3.91637 1.88505 14
-6.83489 -5.49108 2.33668 9
-7.27961 -3.9508 1.30335 33
-6.6752 -5.34356 1.65378 11
-7.38762 -4.00939 0.732326 32
-6.66645 -5.32324 1.04172 12
-3.16126 -1.71586 0.0621742 33
-0.54126 -0.425961 0.0342801 17
-0.6973 -0.379549 -0.0399078 45
-0.850485 -0.462206 -0.114394 42
-2.72853 -2.17047 -0.301392 21
-0.852527 -0.462741 -0.181419 42
-0.854537 -0.463078 -0.250891 44
-7.22019 -3.86817 1.87999 14
-6.86827 -5.46093 2.33861 8
-7.28713 -3.90564 1.30101 33
-6.72908 -5.33105 1.66045 9
-7.39026 -3.96253 0.730583 32
-6.71759 -5.30673 1.04537 12
-3.1633 -1.6963 0.0620433 35
-0.543482 -0.423121 0.0342801 18
-0.70368 -0.378249 -0.0401703 45
-0.648249 -0.505503 -0.0137438 14
-0.846329 -0.454236 -0.113482 44
-2.74963 -2.16387 -0.302479 14
-0.844036 -0.452637 -0.179038 42
-0.85687 -0.458747 -0.250891 44
-7.19469 -3.83836 1.87157 14
-6.91374 -5.47745 2.35089 8
-7.27215 -3.88129 1.29711 33
-6.77782 -5.34855 1.66999 11
-7.38178 -3.94142 0.729058 32
-6.74828 -5.31189 1.04872 11
-3.15993 -1.68669 0.0619124 35
-0.542258 -0.420628 0.0341492 18
-0.702136 -0.375846 -0.0400391 45
-0.651095 -0.505916 -0.0137874 14
-0.842741 -0.450425 -0.112873 42
-2.74753 -2.15445 -0.301827 11
-0.846991 -0.452316 -0.179515 42
-0.851351 -0.453703 -0.248951 44
-7.1787 -3.78009 1.86202 14
-6.96417 -5.45635 2.358 8
-7.27557 -3.83268 1.29398 33
-7.38537 -3.89214 0.727315 32
-3.15766 -1.6643 0.0616943 35
-0.544526 -0.417688 0.0341492 18
-0.701885 -0.371002 -0.0399078 45
-0.64593 -0.496248 -0.0136129 14
-0.851755 -0.449322 -0.113786 44
-0.851599 -0.448868 -0.179991 44
-0.853715 -0.449239 -0.248951 44
-7.15874 -3.75524 1.85529 15
-7.27502 -3.81781 1.29281 33
-7.37671 -3.87114 0.725789 32
-3.15392 -1.6553 0.0615634 35
-0.541236 -0.413772 0.0338875 18
-0.700321 -0.368617 -0.0397765 45
-0.646795 -0.49512 -0.0136129 14
-0.843666 -0.443379 -0.112569 42
-0.848031 -0.445106 -0.179038 44
-0.850216 -0.445513 -0.247658 44
-7.16965 -3.71322 1.85304 18
-7.27737 -3.77058 1.28969 33
-7.38737 -3.82917 0.724918 33
-2.86176 -2.19302 0.437802 3
-3.16004 -1.63817 0.0615197 36
-0.545376 -0.412452 0.0340184 18
-0.702241 -0.364945 -0.0397765 45
-0.645326 -0.488798 -0.0135256 14
-0.841568 -0.436676 -0.11196 44
-0.866427 -0.658317 -0.0919833 35
-0.850273 -0.440808 -0.179038 42
-0.862729 -0.656397 -0.166395 26
-0.850314 -0.440097 -0.247011 44
-7.15014 -3.68731 1.8463 20
-7.27077 -3.75108 1.28735 33
-2.86295 -2.19151 0.693444 4
-7.37412 -3.806 0.722957 33
-2.84588 -2.17294 0.434759 9
-3.15651 -1.62866 0.0613888 36
-0.548078 -0.413016 0.0341492 18
-0.696219 -0.360289 -0.0393827 47
-0.642205 -0.484636 -0.0134384 14
-0.846741 -0.437479 -0.112569 44
-0.867575 -0.656804 -0.0919833 47
-0.844494 -0.435955 -0.17761 44
-0.859951 -0.651889 -0.165612 33
-0.849009 -0.437361 -0.246365 44
-7.15261 -3.63973 1.84181 21
-2.87529 -2.18502 0.957029 8
-7.28215 -3.70721 1.28579 33
-2.87634 -2.17797 0.693921 4
-7.37907 -3.75813 0.721432 33
-2.85759 -2.15751 0.434759 14
-3.16054 -1.60985 0.0613016 36
-0.546322 -0.407033 0.0338875 20
-0.698096 -0.356638 -0.0393827 47
-0.646812 -0.482661 -0.013482 14
-0.840246 -0.428395 -0.111352 44
-0.838086 -0.426937 -0.175705 44
-0.851287 -0.43291 -0.246365 44
-7.14963 -3.62409 1.83956 23
-2.86178 -2.16686 0.951213 9
-7.27319 -3.68668 1.28306 33
-2.86252 -2.15962 0.689632 9
-7.38117 -3.743 0.720996 33
-2.86135 -2.15252 0.434759 27
-3.15666 -1.60094 0.0611707 36
-0.543043 -0.403075 0.0336258 18
-0.694263 -0.353164 -0.0391201 47
-0.645657 -0.480028 -0.0134384 14
-0.843207 -0.428048 -0.111656 44
-0.83883 -0.425473 -0.175705 44
-0.849885 -0.430336 -0.245718 44
-7.1489 -3.5768 1.83451 23
-2.87658 -2.15525 0.952506 4
-7.27851 -3.64319 1.28072 33
-2.8852 -2.15393 0.692491 8
-7.38443 -3.69779 0.719471 32
-2.86824 -2.13504 0.434151 1
-3.16025 -1.5827 0.0610834 36
-0.547078 -0.401813 0.0337567 18
-0.691637 -0.347291 -0.0388576 47
-0.644069 -0.473767 -0.0133511 14
-0.847583 -0.424884 -0.11196 44
-0.877532 -0.647643 -0.0922008 47
-0.845365 -0.423414 -0.176658 44
-0.857955 -0.633953 -0.163654 45
-0.849891 -0.424952 -0.245071 44
-0.861862 -0.638216 -0.239211 41
-7.14859 -3.56106 1.83283 26
-2.88033 -2.15022 0.952506 3
-7.27381 -3.62498 1.27876 35
-2.87162 -2.13519 0.688202 2
-7.37527 -3.67712 0.717945 32
-2.8839 -2.13892 0.435976 1
-3.15209 -1.57106 0.0608653 36
-0.545774 -0.399369 0.0336258 18
-0.692242 -0.346083 -0.0388576 47
-0.642887 -0.471153 -0.0133075 14
-0.839436 -0.418984 -0.110743 44
-0.870661 -0.640174 -0.091331 47
-0.832915 -0.415386 -0.173801 42
-0.855097 -0.629509 -0.162871 45
-0.844214 -0.420101 -0.243131 44
-0.861021 -0.635255 -0.238649 41
-7.15244 -3.51481 1.82889 26
-2.8861 -2.1303 0.950567 2
-7.27115 -3.57468 1.27486 35
-2.89066 -2.12595 0.690108 2
-7.37495 -3.62727 0.715984 33
-2.89543 -2.12328 0.435976 2
-0.543902 -0.393455 0.0333642 20
-0.696285 -0.343555 -0.0389889 47
-0.651473 -0.472104 -0.0134384 14
-0.848374 -0.417715 -0.111656 44
-0.871993 -0.634133 -0.0911135 49
-0.839558 -0.413033 -0.174753 44
-0.858381 -0.625023 -0.162871 47
-0.846403 -0.415675 -0.243131 44
-0.854638 -0.623364 -0.235841 41
-7.14701 -3.49822 1.82609 26
-2.87427 -2.11379 0.945397 2
-7.26345 -3.55674 1.27252 35
-7.36784 -3.60782 0.714677 33
-0.542505 -0.391126 0.0332333 20
-0.68567 -0.336855 -0.0383325 47
-0.64826 -0.468016 -0.0133511 14
-0.849029 -0.416382 -0.111656 45
-0.873098 -0.63261 -0.0911135 49
-0.840278 -0.411568 -0.174753 44
-0.857479 -0.622065 -0.16248 45
-0.842785 -0.412082 -0.241838 42
-0.85758 -0.623463 -0.236403 39
-7.14329 -3.45016 1.82047 26
-7.27085 -3.51329 1.27057 35
-7.37928 -3.56723 0.714023 35
-0.544545 -0.38828 0.0332333 20
-0.691863 -0.335551 -0.038595 47
-0.650621 -0.464728 -0.0133511 15
-0.848962 -0.410853 -0.111352 44
-0.872254 -0.625262 -0.0906786 49
-0.837928 -0.405179 -0.173801 42
-0.856725 -0.61467 -0.161697 47
-0.84486 -0.407811 -0.241838 45
-0.85689 -0.616101 -0.23528 41
-7.13773 -3.43365 1.81766 26
-7.26807 -3.49631 1.26901 35
-7.3653 -3.54463 0.712062 33
-0.545222 -0.387329 0.0332333 20
-0.685697 -0.331099 -0.0382012 47
-0.64332 -0.457746 -0.0131766 14
-0.847441 -0.408297 -0.111048 44
-0.869303 -0.620826 -0.0902437 49
-0.84306 -0.405838 -0.174753 42
-0.855794 -0.611728 -0.161305 47
-0.841214 -0.404251 -0.240545 44
-0.857964 -0.614605 -0.23528 39
-7.14299 -3.38872 1.81429 26
-7.27512 -3.45292 1.26706 33
-7.37701 -3.50282 0.711409 35
-0.543178 -0.381569 0.0329717 20
-0.682909 -0.325365 -0.0379387 49
-0.647743 -0.455823 -0.0132202 14
-0.842839 -0.400668 -0.110135 44
-0.872542 -0.616266 -0.0902437 49
-0.842954 -0.400369 -0.174277 44
-0.856976 -0.605804 -0.160914 47
-0.836768 -0.396747 -0.238605 42
-0.851263 -0.603017 -0.232472 41
-7.1439 -3.37542 1.81317 26
-7.25881 -3.42967 1.26316 33
-7.37185 -3.48462 0.710319 35
-3.07969 -2.18597 0.458794 8
-0.545878 -0.382067 0.0331025 20
-0.685734 -0.325238 -0.0380699 47
-0.644462 -0.451797 -0.0131329 14
-0.843537 -0.399196 -0.110135 44
-0.869556 -0.611857 -0.0898088 50
-0.839211 -0.396806 -0.173324 44
-0.858032 -0.604308 -0.160914 49
-0.835273 -0.394258 -0.237958 42
-0.850331 -0.600116 -0.231911 41
-7.1466 -3.32952 1.80924 26
-3.08933 -2.18299 1.00291 2
-7.26548 -3.3864 1.2612 33
-3.09258 -2.17727 0.727759 3
-7.37419 -3.4386 0.708794 35
-3.08906 -2.16838 0.45849 9
-0.549914 -0.380639 0.0332333 20
-0.687427 -0.321643 -0.0380699 47
-0.646818 -0.448416 -0.0131329 14
-0.845616 -0.394774 -0.110135 44
-0.870709 -0.605864 -0.0895913 50
-0.843503 -0.39344 -0.173801 44
-0.857145 -0.596966 -0.160131 47
-0.837326 -0.38988 -0.237958 42
-0.847488 -0.591445 -0.230226 42
-7.12751 -3.30701 1.80306 24
-3.103 -2.18456 1.00614 3
-7.2557 -3.36644 1.25847 33
-3.09236 -2.16905 0.726806 9
-7.35759 -3.41525 0.706615 32
-3.07862 -2.15302 0.45636 11
-0.548532 -0.378247 0.0331025 20
-0.687988 -0.320443 -0.0380699 47
-0.651696 -0.450153 -0.0132202 15
-0.846303 -0.393298 -0.110135 44
-0.869725 -0.602916 -0.0893739 50
-0.835278 -0.387847 -0.171896 44
-0.856163 -0.594052 -0.159739 47
-0.835813 -0.387405 -0.237312 42
-0.848519 -0.589965 -0.230226 41
-7.15195 -3.27144 1.80475 23
-3.08668 -2.14893 0.997094 9
-7.26424 -3.3243 1.25691 33
-3.09763 -2.14862 0.725376 9
-7.36858 -3.37357 0.705961 32
-3.09597 -2.14111 0.457273 9
-0.548452 -0.373948 0.0329717 18
-0.687441 -0.315678 -0.0379387 47
-0.647878 -0.442467 -0.0130893 15
-0.846094 -0.38783 -0.109831 44
-0.870926 -0.596784 -0.0891564 49
-0.837298 -0.383468 -0.171896 44
-0.861291 -0.590967 -0.160131 47
-0.83783 -0.383024 -0.237312 44
-0.847594 -0.582735 -0.229103 42
-7.21751 -3.2862 1.81991 18
-3.10827 -2.15595 1.00291 8
-7.25655 -3.30548 1.25457 35
-3.11587 -2.15245 0.728712 8
-7.36312 -3.35554 0.704872 32
-3.10991 -2.14275 0.458794 2
-0.683446 -0.31241 -0.0376761 47
-0.652765 -0.444173 -0.0131766 15
-0.84451 -0.385327 -0.109526 44
-0.871967 -0.595263 -0.0891564 50
-0.837966 -0.382006 -0.171896 44
-0.856226 -0.585255 -0.158956 47
-0.831964 -0.378425 -0.235372 42
-0.846607 -0.579868 -0.228542 42
-7.2463 -3.25208 1.82272 14
-3.10993 -2.13226 0.999679 4
-7.26306 -3.26111 1.25262 35
-3.12507 -2.13472 0.728236 2
-7.36754 -3.30953 0.703565 32
-3.12351 -2.1273 0.459099 2
-0.685072 -0.308827 -0.0376761 47
-0.646896 -0.435005 -0.013002 15
-0.848847 -0.381766 -0.109831 44
-0.877129 -0.592092 -0.0893739 50
-0.8333 -0.374459 -0.170467 44
-0.8552 -0.577979 -0.158173 49
-0.836139 -0.375049 -0.236019 42
-0.849732 -0.575279 -0.228542 44
-7.30701 -3.26554 1.83676 12
-3.09771 -2.11591 0.994509 2
-7.25465 -3.24365 1.25028 35
-3.12474 -2.1265 0.727283 2
-7.35739 -3.28955 0.702039 32
-3.1289 -2.12378 0.459403 3
-0.68789 -0.308649 -0.0378074 47
-0.647654 -0.433875 -0.013002 15
-0.849446 -0.380432 -0.109831 45
-0.86786 -0.583565 -0.0882866 52
-0.838436 -0.375001 -0.17142 44
-0.858249 -0.577874 -0.158564 47
-0.834586 -0.372608 -0.235372 42
-0.844595 -0.569828 -0.226857 42
-7.26158 -3.19974 1.82103 30
-3.12238 -2.10969 0.999032 2
-7.26249 -3.20164 1.24872 35
-3.1436 -2.11615 0.729189 3
-7.36027 -3.24625 0.700732 35
-3.15027 -2.1143 0.460924 4
-2.11068 -0.931553 0.0396606 4
-0.682641 -0.302025 -0.0374136 47
-0.846883 -0.373981 -0.109222 45
-0.870903 -0.579012 -0.0882866 50
-0.838076 -0.369765 -0.170944 44
-0.859214 -0.571995 -0.158173 49
-0.83425 -0.367409 -0.234725 42
-0.849588 -0.566759 -0.227419 44
-7.25377 -3.18119 1.81766 32
-3.14207 -2.11504 1.0042 2
-7.25676 -3.184 1.24677 35
-3.16191 -2.11969 0.732525 3
-7.3568 -3.22939 0.699861 35
-3.1622 -2.11432 0.462141 4
-2.12162 -0.931513 0.0398351 4
-0.685454 -0.301835 -0.0375448 47
-0.845262 -0.371508 -0.108918 45
-0.865702 -0.573337 -0.0876342 52
-0.838721 -0.368302 -0.170944 44
-0.852006 -0.564997 -0.156607 50
-0.83274 -0.364841 -0.234079 42
-0.848553 -0.563917 -0.226857 44
-7.25522 -3.13514 1.81373 33
-3.1836 -2.11812 1.0139 3
-7.25802 -3.13784 1.24403 33
-3.17297 -2.10311 0.732525 3
-7.35817 -3.18262 0.698335 35
-3.18186 -2.10267 0.463358 3
-2.12417 -0.9194 0.0397915 4
-0.682441 -0.296263 -0.0372823 49
-0.835867 -0.362015 -0.107397 44
-0.872847 -0.571544 -0.0880691 52
-0.838447 -0.362788 -0.170467 44
-0.859069 -0.563256 -0.15739 49
-0.834639 -0.360476 -0.234079 42
-0.849562 -0.557971 -0.226295 44
-7.25566 -3.12181 1.81261 33
-3.19735 -2.11924 1.01713 2
-7.25386 -3.12253 1.24247 35
-3.18073 -2.10027 0.733478 3
-7.35456 -3.16584 0.697464 33
-3.15824 -2.07989 0.459403 3
-3.15795 -2.07656 0.19626 2
-0.680664 -0.294085 -0.037151 49
-0.653649 -0.42479 -0.013002 15
-0.840994 -0.36266 -0.108005 45
-0.867604 -0.565909 -0.0874168 52
-0.841334 -0.362291 -0.170944 44
-0.855929 -0.559035 -0.156607 49
-0.835267 -0.359019 -0.234079 44
-0.850437 -0.556636 -0.226295 44
-7.25396 -3.07617 1.80812 35
-7.25193 -3.07679 1.23935 33
-7.36132 -3.12468 0.696592 35
-3.16251 -2.0559 0.195867 2
-0.679896 -0.289543 -0.0370197 49
-0.659979 -0.424205 -0.0130893 15
-0.838311 -0.356318 -0.107397 45
-0.868469 -0.559999 -0.0871993 53
-0.834116 -0.354205 -0.169039 44
-0.858845 -0.554546 -0.156607 47
-0.830398 -0.351969 -0.232139 42
-0.855379 -0.553509 -0.226857 44
-7.25258 -3.06067 1.80643 33
-7.24591 -3.05933 1.2374 33
-7.35529 -3.10699 0.695503 35
-3.16609 -2.05038 0.195867 1
-0.678099 -0.287386 -0.0368885 49
-0.656525 -0.420331 -0.013002 15
-0.843506 -0.35678 -0.108005 45
-0.861088 -0.55306 -0.0863295 53
-0.836995 -0.3537 -0.169515 44
-0.85153 -0.547664 -0.155041 47
-0.835526 -0.352244 -0.233432 44
-0.848179 -0.546696 -0.224611 45
-7.25779 -3.01671 1.80363 33
-7.24639 -3.01345 1.23467 35
-7.35819 -3.06141 0.694195 35
-3.16663 -2.02648 0.195213 3
-0.679595 -0.283832 -0.0368885 49
-0.65879 -0.416773 -0.013002 15
-0.845424 -0.352211 -0.108005 45
-0.870261 -0.552578 -0.0869819 52
-0.836629 -0.348227 -0.169039 45
-0.856463 -0.544533 -0.155432 47
-0.828433 -0.344172 -0.230846 42
-0.851124 -0.542099 -0.224611 44
-7.25126 -3.00065 1.80082 33
-7.24427 -2.99923 1.2335 35
-7.34511 -3.04094 0.692452 33
-3.1656 -2.01881 0.194951 9
-0.684704 -0.284553 -0.037151 49
-0.653197 -0.411586 -0.0128711 15
-0.845976 -0.350883 -0.108005 45
-0.860731 -0.544353 -0.0858946 52
-0.839504 -0.347702 -0.169515 45
-0.853253 -0.540375 -0.154649 47
-0.831265 -0.343645 -0.231492 42
-0.843773 -0.5355 -0.222365 44
-7.26011 -2.95988 1.79913 33
-7.25073 -2.95753 1.23194 35
-7.34658 -2.99808 0.691145 33
-0.681511 -0.279199 -0.0368885 50
-0.655271 -0.408274 -0.0128711 15
-0.847802 -0.346449 -0.108005 45
-0.861369 -0.538659 -0.0856771 52
-0.841253 -0.343448 -0.169515 44
-0.851897 -0.53326 -0.153866 45
-0.83747 -0.341249 -0.232785 42
-0.84245 -0.528466 -0.221242 44
-7.26023 -2.94664 1.79801 33
-7.24444 -2.94023 1.22999 35
-7.34257 -2.98151 0.690273 33
-0.681997 -0.27801 -0.0368885 49
-0.651752 -0.404467 -0.0127839 15
-0.848405 -0.344968 -0.108005 47
-0.862308 -0.537155 -0.0856771 52
-0.837301 -0.340139 -0.168563 45
-0.854915 -0.533089 -0.154258 47
-0.833585 -0.337979 -0.231492 42
-0.843372 -0.526994 -0.221242 42
-7.26023 -2.90099 1.79408 33
