# .PCD v0.7 - Point Cloud Data file format
VERSION 0.7
FIELDS x y z intensity
SIZE 4 4 4 4
TYPE F F F F
COUNT 1 1 1 1
WIDTH 1576
HEIGHT 1
VIEWPOINT 0 0 0 1 0 0 0
POINTS 1576
DATA ascii
1.7494 -4.38236 -0.742708 8
1.23219 -3.0813 -0.756939 8
1.96648 -4.95226 1.41648 3
2.62124 -6.63025 1.37783 30
0.454456 -2.2509 0.197844 9
1.13564 -2.89164 0.376649 4
0.453234 -2.24685 0.0393988 8
1.14782 -2.92847 0.163026 24
0.454263 -2.254 -0.119067 8
1.10794 -2.83005 -0.0524445 12
0.455267 -2.26511 -0.278988 4
1.72643 -4.39146 -0.742708 8
1.20923 -3.07206 -0.753008 11
1.95694 -4.95344 1.41583 2
2.60786 -6.63025 1.37688 33
0.449065 -2.24436 0.19719 9
1.13653 -2.90728 0.378475 8
0.447358 -2.23783 0.0392243 9
1.14504 -2.93492 0.163288 24
0.449841 -2.25235 -0.118936 8
1.10209 -2.82965 -0.0524008 8
0.449774 -2.25609 -0.277771 4
0.449499 -2.26087 -0.440453 3
1.71516 -4.38527 -0.741142 8
1.20083 -3.06489 -0.750762 9
1.93009 -4.95878 1.41454 2
0.438851 -2.25457 0.357445 4
2.56805 -6.62735 1.37354 32
0.438175 -2.24905 0.197408 8
1.13114 -2.93865 0.381822 8
0.437454 -2.24743 0.0393552 4
1.12966 -2.94088 0.163288 18
0.436143 -2.24487 -0.118411 4
1.08596 -2.83053 -0.0523136 8
0.438897 -2.26329 -0.27838 4
0.43805 -2.26311 -0.440453 4
1.6895 -4.38728 -0.739967 8
1.18301 -3.06659 -0.749639 11
1.91794 -4.95314 1.41196 2
0.434915 -2.25533 0.357445 4
2.5509 -6.62082 1.37116 32
0.433778 -2.24736 0.19719 8
0.432667 -2.24581 0.0393115 8
1.129 -2.9545 0.163942 15
0.432695 -2.24808 -0.118542 8
1.07922 -2.82775 -0.0522263 11
0.434946 -2.26405 -0.27838 4
0.434099 -2.26388 -0.440453 4
1.67742 -4.3787 -0.73801 9
1.17327 -3.05729 -0.746831 9
1.88939 -4.95893 1.41066 2
0.420895 -2.24794 0.355884 4
2.51272 -6.62491 1.36925 32
0.421155 -2.24723 0.196972 8
0.419526 -2.24067 0.0391806 9
0.419088 -2.24049 -0.118017 4
1.06391 -2.83355 -0.0522263 12
0.421783 -2.26149 -0.277771 8
0.420949 -2.26136 -0.439501 4
1.65894 -4.40157 -0.740359 9
1.15758 -3.06587 -0.747393 3
1.87472 -4.94642 1.40614 2
0.417868 -2.25353 0.356665 3
2.49855 -6.6224 1.36783 33
0.417232 -2.24796 0.196972 8
2.48805 -6.62248 0.86313 32
0.416978 -2.24878 0.0393115 12
0.415177 -2.24122 -0.118017 4
1.05896 -2.8354 -0.0522263 12
0.416488 -2.2549 -0.276859 8
1.86717 -4.98641 -0.461874 52
0.417889 -2.26692 -0.440453 4
1.62431 -4.33281 -0.728222 3
0.416299 -2.26708 -0.607829 3
1.16598 -3.10435 -0.756377 4
1.84795 -4.9539 1.4055 2
0.403883 -2.24353 0.354714 3
2.46127 -6.62849 1.3664 32
0.403255 -2.23786 0.195883 11
2.44645 -6.6168 0.860696 32
0.404315 -2.24601 0.0392243 14
0.403436 -2.24337 -0.118017 8
1.0493 -2.85498 -0.0524881 9
0.405985 -2.26438 -0.277771 8
1.83672 -4.98444 -0.460786 45
0.405152 -2.26425 -0.439501 4
1.60579 -4.35024 -0.729788 9
0.404423 -2.26923 -0.607829 3
1.14802 -3.10585 -0.755254 4
1.83762 -4.95259 1.4042 2
0.401223 -2.24903 0.355494 4
2.44629 -6.62357 1.36449 32
0.39717 -2.2263 0.194793 11
2.43433 -6.61598 0.860087 35
0.399957 -2.24425 0.0391806 12
0.400392 -2.24898 -0.118279 11
1.04259 -2.85211 -0.0524008 2
0.399832 -2.25036 -0.275946 9
1.82458 -4.97828 -0.459917 45
0.402906 -2.27462 -0.441406 4
1.60075 -4.35999 -0.730963 11
0.401298 -2.27469 -0.609122 4
1.14651 -3.11679 -0.7575 4
1.8117 -4.95956 1.40356 3
0.389441 -2.2511 0.355494 8
2.41021 -6.62895 1.36306 32
0.385896 -2.22828 0.194793 11
2.39543 -6.61697 0.858566 35
0.389866 -2.25364 0.0393115 11
0.387765 -2.24613 -0.118017 11
1.03494 -2.87616 -0.0527499 2
0.386364 -2.24264 -0.274729 9
0.391802 -2.27905 -0.441882 8
1.59978 -4.42867 -0.741142 12
0.392216 -2.29097 -0.613002 4
1.13101 -3.12504 -0.758062 8
1.80056 -4.95591 1.40162 3
0.386342 -2.25664 0.356275 9
2.39414 -6.62434 1.36115 33
0.383264 -2.23632 0.195447 11
2.38051 -6.61181 0.857349 35
0.384279 -2.24699 0.0391806 12
0.386357 -2.26157 -0.118804 11
1.03415 -2.88972 -0.052968 2
0.386605 -2.26777 -0.277771 9
0.387824 -2.27973 -0.441882 8
1.59037 -4.42681 -0.740359 12
0.388219 -2.2941 -0.613648 4
1.12556 -3.12701 -0.758062 8
1.76964 -4.95421 1.39839 3
0.375333 -2.26601 0.357445 4
2.3553 -6.62522 1.35877 32
0.371971 -2.24327 0.195883 4
2.34304 -6.61991 0.856741 35
0.374544 -2.2613 0.0393988 3
1.75627 -4.97665 0.274764 3
0.373699 -2.25863 -0.118542 11
1.02016 -2.89999 -0.0530553 2
0.374732 -2.27228 -0.278076 4
1.69386 -4.80297 -0.44165 12
0.376675 -2.28906 -0.44331 4
1.57295 -4.45136 -0.7431 12
0.375813 -2.29372 -0.613002 4
1.11025 -3.13764 -0.759185 4
1.76262 -4.96184 1.39968 3
0.370977 -2.26172 0.356665 4
2.33964 -6.61776 1.35639 33
0.36926 -2.25129 0.196536 4
2.32521 -6.60252 0.854002 33
0.369791 -2.25702 0.0393115 11
1.74928 -4.98176 0.274895 4
0.371765 -2.2716 -0.119198 9
1.03002 -2.94421 -0.0538407 3
0.372357 -2.28021 -0.278988 4
1.7458 -4.97743 -0.457525 45
0.37425 -2.2994 -0.445215 4
1.57256 -4.47506 -0.746623 9
0.371809 -2.29437 -0.613002 4
1.10695 -3.14397 -0.760308 4
1.73508 -4.96386 1.39774 3
0.359129 -2.26363 0.356665 4
2.30288 -6.62024 1.35448 33
0.359806 -2.26543 0.197626 9
2.28898 -6.60992 0.853394 33
0.359533 -2.26627 0.0394424 9
1.71991 -4.98141 0.274371 9
0.359484 -2.26852 -0.118936 8
1.02655 -2.98246 -0.0544515 3
0.360799 -2.28458 -0.279293 3
1.71814 -4.97914 -0.456872 45
0.360704 -2.28915 -0.442834 4
1.54911 -4.48323 -0.746623 8
0.360191 -2.29622 -0.613002 4
1.08967 -3.14743 -0.759746 4
1.72324 -4.95776 1.39516 3
0.357084 -2.27646 0.358616 4
2.28811 -6.61498 1.35257 33
0.355082 -2.26113 0.19719 9
2.27501 -6.60687 0.852481 33
0.35442 -2.25948 0.0393115 8
1.71284 -4.98913 0.274633 8
0.357064 -2.27901 -0.119461 4
0.358336 -2.29501 -0.28051 3
1.70783 -4.97742 -0.456437 45
0.357085 -2.2922 -0.44331 4
1.54128 -4.48593 -0.746623 8
0.355077 -2.28969 -0.611062 4
1.08577 -3.15393 -0.760869 4
1.69639 -4.96701 1.39516 4
0.344394 -2.27591 0.358226 4
2.24912 -6.61797 1.35067 33
0.343958 -2.27041 0.197844 8
2.23604 -6.60968 0.851264 33
0.34219 -2.26137 0.0393115 8
1.67942 -4.9794 0.273586 8
0.344728 -2.28091 -0.119461 8
0.34481 -2.28956 -0.279597 3
1.67848 -4.97951 -0.455785 45
0.342862 -2.28196 -0.44093 8
1.5146 -4.48458 -0.745057 8
0.343751 -2.29874 -0.613002 8
1.06947 -3.16206 -0.761431 4
1.68382 -4.95854 1.39192 4
0.34009 -2.27157 0.357445 3
2.23363 -6.61026 1.34828 33
0.338893 -2.26362 0.19719 8
2.22328 -6.60613 0.850352 33
0.338242 -2.26196 0.0393115 9
1.67239 -4.9844 0.273717 8
0.339277 -2.27163 -0.118936 8
1.66385 -4.96762 -0.0908398 50
0.341941 -2.29501 -0.280205 3
1.66582 -4.97063 -0.454698 45
0.339237 -2.28498 -0.441406 8
1.50677 -4.48722 -0.745057 9
0.338684 -2.29217 -0.611062 8
1.06216 -3.15682 -0.759746 4
1.6564 -4.96013 1.38999 4
0.327841 -2.27087 0.357055 4
2.19859 -6.61683 1.34733 35
0.328141 -2.27023 0.197626 4
2.18709 -6.61297 0.849743 33
0.327856 -2.27107 0.0394424 9
1.64157 -4.97887 0.272932 9
0.328441 -2.28079 -0.11933 9
1.63555 -4.96649 -0.0906652 45
0.329217 -2.29185 -0.279597 4
1.63743 -4.97219 -0.454045 45
0.326974 -2.28181 -0.440453 8
1.48481 -4.49974 -0.74584 8
0.328435 -2.30342 -0.613648 4
1.04869 -3.17158 -0.761993 8
1.6485 -4.9653 1.39063 4
2.18434 -6.61637 1.34638 35
0.323477 -2.26587 0.19719 4
2.17244 -6.60735 0.848526 33
0.322443 -2.26427 0.0393115 9
1.63443 -4.98647 0.273194 9
0.32306 -2.27147 -0.118804 9
1.62532 -4.96458 -0.090578 45
0.324175 -2.28505 -0.278684 4
1.62564 -4.96558 -0.453176 45
0.323334 -2.28481 -0.44093 8
1.47541 -4.49763 -0.745057 8
0.323678 -2.30166 -0.613002 4
1.04315 -3.17341 -0.761993 8
1.63888 -5.02694 1.4055 8
2.14739 -6.62072 1.34495 35
0.311213 -2.26759 0.19719 8
2.13437 -6.61192 0.847613 33
0.311934 -2.27583 0.0394861 8
1.60513 -4.98811 0.272801 9
0.311836 -2.27808 -0.119067 8
1.5946 -4.96141 -0.0903598 44
0.310472 -2.27694 -0.277467 4
1.59732 -4.96691 -0.452523 45
0.310967 -2.28652 -0.44093 4
1.45564 -4.51704 -0.747015 8
0.310332 -2.29375 -0.610415 4
1.02522 -3.17669 -0.761431 4
2.13131 -6.61045 1.34209 35
0.307587 -2.27059 0.197408 8
2.11942 -6.6011 0.845788 33
0.306961 -2.26894 0.0393552 8
1.59576 -4.98587 0.272539 9
0.306862 -2.2712 -0.118673 8
1.58518 -4.9618 -0.0903162 45
0.308545 -2.28972 -0.278988 4
1.58637 -4.96257 -0.451871 45
0.306651 -2.28463 -0.440453 9
1.44322 -4.50547 -0.744666 8
0.307283 -2.30146 -0.612355 8
1.01873 -3.17366 -0.760308 4
2.09485 -6.61179 1.34018 35
0.29513 -2.26471 0.196754 9
2.08408 -6.60974 0.845484 35
0.296115 -2.27542 0.0394424 9
1.56738 -4.98702 0.272147 8
0.295605 -2.27773 -0.118936 11
1.55929 -4.96738 -0.0902726 44
0.295601 -2.28392 -0.278076 3
1.56036 -4.97081 -0.451871 45
0.296022 -2.29346 -0.441882 3
1.4211 -4.51767 -0.745449 4
0.295324 -2.3006 -0.611708 8
1.00504 -3.18824 -0.762554 4
2.09074 -6.59905 1.84298 1
2.07994 -6.60878 1.33875 35
0.290861 -2.26275 0.196536 11
2.06808 -6.59916 0.843658 35
0.290481 -2.26607 0.0392679 9
1.55942 -4.99213 0.272278 9
0.290998 -2.27329 -0.118673 11
1.54763 -4.96055 -0.090098 44
0.292552 -2.29182 -0.278988 3
1.54945 -4.9664 -0.451218 45
0.291093 -2.28667 -0.440453 12
1.41469 -4.52486 -0.746232 4
0.291811 -2.30835 -0.613648 73
0.99655 -3.18069 -0.760308 4
2.03417 -6.5434 1.82424 1
2.04458 -6.61724 1.33828 35
0.279522 -2.27171 0.19719 8
2.02942 -6.60077 0.842441 35
0.279522 -2.275 0.0393988 9
1.52726 -4.98379 0.271362 9
0.279394 -2.27726 -0.118804 3
1.51564 -4.95213 -0.0897926 44
0.27925 -2.28598 -0.278076 50
1.52196 -4.96968 -0.450784 45
0.279307 -2.29308 -0.441406 59
1.39098 -4.5322 -0.746232 4
0.279143 -2.30505 -0.612355 58
0.980045 -3.18836 -0.760869 4
2.01775 -6.53079 1.81971 1
2.02869 -6.60672 1.33542 33
0.27496 -2.26725 0.196754 8
2.01687 -6.59683 0.841529 36
0.274953 -2.27052 0.0393115 45
1.51797 -4.98141 0.2711 9
0.276612 -2.28766 -0.11933 55
1.50626 -4.95237 -0.089749 45
0.276841 -2.29627 -0.279293 50
1.51183 -4.96757 -0.450349 45
0.275887 -2.29844 -0.442358 50
1.38957 -4.55587 -0.749755 8
0.27512 -2.30553 -0.612355 59
0.97432 -3.18757 -0.760308 4
1.98045 -6.52706 1.81583 1
1.99168 -6.60516 1.33303 35
0.263481 -2.26861 0.196754 8
1.97873 -6.59542 0.840007 35
0.264316 -2.27933 0.0394424 53
1.49115 -4.98689 0.270969 9
0.264458 -2.28407 -0.119067 53
1.47759 -4.94796 -0.0895308 45
0.264249 -2.29275 -0.278684 52
1.48453 -4.968 -0.449696 47
0.263414 -2.29249 -0.44093 52
1.36427 -4.55836 -0.748972 8
0.262902 -2.3021 -0.611062 59
0.957617 -3.19263 -0.760308 8
1.96626 -6.52126 1.81325 1
1.97803 -6.60157 1.3316 35
0.258677 -2.26165 0.1961 8
1.9665 -6.59648 0.839703 36
0.261466 -2.28973 0.039617 55
1.47745 -4.97274 0.270054 9
0.261315 -2.29197 -0.119461 52
1.47109 -4.95772 -0.0896617 42
0.260525 -2.29568 -0.278988 53
1.47372 -4.96342 -0.449044 47
0.259138 -2.29051 -0.440453 52
1.35985 -4.57256 -0.75093 8
0.258883 -2.30255 -0.611062 59
0.950645 -3.18963 -0.759185 4
1.93758 -6.54999 1.81842 1
1.93997 -6.60007 1.32922 33
0.246831 -2.26297 0.1961 9
1.92844 -6.59478 0.838182 35
0.248666 -2.28361 0.0394861 53
1.44999 -4.97562 0.269792 8
0.249447 -2.29831 -0.119723 55
1.4353 -4.93176 -0.0890509 4
0.248501 -2.29701 -0.278988 52
1.44614 -4.96893 -0.448826 47
0.247664 -2.29671 -0.441406 52
1.33728 -4.58436 -0.751713 4
0.24708 -2.30628 -0.611708 58
0.938053 -3.20858 -0.762554 4
1.93161 -6.57189 1.82359 1
1.9266 -6.60143 1.32874 35
0.242881 -2.2634 0.1961 9
1.91693 -6.59814 0.838182 35
0.244546 -2.28657 0.0395297 55
1.43573 -4.95896 0.268745 8
0.245171 -2.29626 -0.119592 55
1.43018 -4.94626 -0.089269 23
0.24397 -2.29251 -0.27838 53
1.43469 -4.96188 -0.447957 47
0.243398 -2.2947 -0.44093 52
1.33548 -4.60802 -0.755237 4
0.2424 -2.30434 -0.611062 59
0.930403 -3.2032 -0.760869 4
0.570913 -5.64578 1.29994 12
1.89736 -6.58689 1.82488 1
0.570684 -5.63379 0.889321 12
1.88795 -6.59727 1.32588 35
0.229628 -2.25477 0.195229 9
1.8778 -6.59648 0.836661 36
0.23257 -2.28782 0.0395297 53
1.40751 -4.96185 0.268483 8
0.233145 -2.29751 -0.119592 55
1.39998 -4.94191 -0.0890509 45
0.231315 -2.29132 -0.278076 52
1.40733 -4.96453 -0.447522 47
0.230979 -2.29598 -0.44093 52
1.30727 -4.60071 -0.752887 4
0.230093 -2.30318 -0.610415 59
0.912388 -3.20585 -0.760308 4
0.563006 -5.65637 1.30218 11
1.87654 -6.55769 1.81583 1
0.5655 -5.67154 0.895174 12
1.87576 -6.5982 1.32541 35
0.225693 -2.25516 0.195229 9
1.86608 -6.59465 0.836052 36
0.228577 -2.28822 0.0395297 55
1.39768 -4.95685 0.268091 8
0.228888 -2.29543 -0.119461 56
1.39203 -4.94675 -0.0890945 45
0.227959 -2.29415 -0.27838 53
1.39866 -4.96698 -0.447522 47
0.226012 -2.28661 -0.439025 52
1.30126 -4.61011 -0.754062 4
0.225135 -2.29396 -0.607829 61
0.908018 -3.20962 -0.760869 4
0.534978 -5.67622 1.30611 11
1.84725 -6.58105 1.81971 1
1.84102 -6.60288 1.32446 35
0.213574 -2.24884 0.194575 9
1.8302 -6.59955 0.835444 35
0.216992 -2.28935 0.0395297 56
1.37104 -4.9617 0.26796 9
0.216633 -2.29411 -0.11933 56
1.3643 -4.94409 -0.08892 45
0.216175 -2.29779 -0.278684 53
1.36998 -4.96464 -0.446652 47
0.214891 -2.29262 -0.439977 52
1.2771 -4.61686 -0.754062 4
0.213966 -2.29988 -0.609122 59
0.888583 -3.20494 -0.758623 4
1.82275 -6.53775 1.80679 1
1.82571 -6.59694 1.32255 35
0.209648 -2.24921 0.194575 11
1.81735 -6.59795 0.834835 35
0.213056 -2.29474 0.039617 58
1.36171 -4.96167 0.267829 8
0.213316 -2.30194 -0.119723 56
1.35766 -4.9537 -0.0890509 45
0.211938 -2.29569 -0.27838 55
1.35999 -4.96222 -0.446217 47
0.210889 -2.29299 -0.439977 52
1.26773 -4.61432 -0.753279 8
0.209332 -2.29788 -0.608475 59
0.885588 -3.21588 -0.760869 4
1.79501 -6.57547 1.81454 1
1.78793 -6.59457 1.32017 36
0.197476 -2.25031 0.194575 11
1.77709 -6.59092 0.832706 33
0.200605 -2.29084 0.0395297 58
1.3329 -4.96174 0.267437 8
0.200828 -2.29806 -0.119461 56
1.32954 -4.95614 -0.0889636 45
0.199087 -2.29186 -0.277771 53
1.33205 -4.96206 -0.445565 47
0.19848 -2.2941 -0.439977 52
1.24226 -4.61613 -0.752496 4
0.197503 -2.30135 -0.609122 58
0.866901 -3.21592 -0.759746 4
1.77592 -6.55063 1.80679 1
1.77514 -6.59294 1.31921 36
0.193548 -2.25065 0.194575 11
1.76481 -6.58651 0.831793 30
0.197031 -2.29617 0.039617 58
1.33092 -4.98553 0.268614 9
0.196817 -2.2984 -0.119461 58
1.32024 -4.95604 -0.08892 45
0.195277 -2.28969 -0.277467 55
1.31888 -4.94753 -0.444042 45
0.194269 -2.29199 -0.439501 52
1.23612 -4.62544 -0.75367 4
0.193084 -2.29688 -0.607829 59
0.862482 -3.21963 -0.760308 4
1.75456 -6.60387 1.81907 12
1.74049 -6.5971 1.31826 35
0.182154 -2.2516 0.194575 11
1.7284 -6.58846 0.83088 30
0.185406 -2.29714 0.039617 59
1.30163 -4.98035 0.26796 9
0.185181 -2.29937 -0.119461 58
1.29261 -4.95299 -0.0887455 45
0.183679 -2.29563 -0.278076 55
1.29571 -4.96137 -0.444695 42
0.18286 -2.29539 -0.439977 52
1.20561 -4.60797 -0.749755 4
0.181268 -2.29542 -0.607182 59
0.366444 -4.65894 1.06915 1
1.7418 -6.60225 1.81777 14
1.72648 -6.59063 1.31635 35
0.178809 -2.25936 0.195229 11
0.181006 -2.29247 0.0395297 61
1.28412 -4.9488 0.266128 9
0.181168 -2.29969 -0.119461 59
1.28018 -4.94072 -0.0884837 11
0.179672 -2.29595 -0.278076 55
1.27262 -4.90819 -0.439693 2
0.178853 -2.29571 -0.439977 52
1.19508 -4.60051 -0.748189 4
0.177261 -2.29574 -0.607182 61
0.339106 -4.6317 1.06241 1
0.166431 -2.25282 0.194575 11
0.169365 -2.29838 0.039617 67
1.24709 -4.9119 0.263773 2
0.168761 -2.29563 -0.119198 61
1.24505 -4.91102 -0.0878292 2
0.16729 -2.29191 -0.277467 56
1.24752 -4.9172 -0.439911 2
0.166478 -2.29172 -0.439025 52
1.16914 -4.59953 -0.747015 4
0.165067 -2.29422 -0.606535 59
0.162498 -2.25311 0.194575 11
0.164997 -2.29368 0.0395297 68
1.23974 -4.91892 0.264035 2
0.1644 -2.29094 -0.118936 62
0.163464 -2.29467 -0.277771 56
1.23772 -4.91454 -0.439476 2
0.16265 -2.29445 -0.439501 52
1.15929 -4.59438 -0.74584 4
0.16123 -2.29692 -0.607182 61
1.24329 -4.96251 1.35961 1
1.22251 -4.91593 0.977018 2
0.151357 -2.26387 0.195447 11
0.152821 -2.29202 0.0394861 70
0.15233 -2.29678 -0.119198 62
0.151285 -2.29302 -0.277467 56
0.150475 -2.29282 -0.439025 52
1.13463 -4.59799 -0.745449 3
0.148736 -2.2905 -0.605242 61
0.36713 -5.70174 1.30892 1
1.21942 -4.90375 1.34281 1
1.21307 -4.91826 0.977018 2
0.146765 -2.25418 0.194575 11
0.14858 -2.2948 0.0395297 76
0.148002 -2.29205 -0.118936 65
0.147598 -2.29823 -0.278076 56
0.146008 -2.28574 -0.437596 52
0.14494 -2.30042 -0.607829 59
0.335276 -5.68662 1.30499 1
1.19802 -4.93139 1.34863 2
0.134713 -2.25743 0.194793 12
0.136416 -2.29305 0.0394861 79
0.135999 -2.2928 -0.118936 64
0.134873 -2.29404 -0.277467 58
0.13378 -2.28894 -0.438073 52
0.132617 -2.29633 -0.606535 61
0.327038 -5.6993 1.3078 1
0.130773 -2.25766 0.194793 12
0.132128 -2.2883 0.0393988 79
0.131713 -2.28805 -0.118673 62
0.131129 -2.29178 -0.277163 58
0.129648 -2.28672 -0.437596 52
0.128342 -2.29173 -0.605242 59
0.298581 -5.7277 1.31397 1
0.119344 -2.2583 0.194793 12
0.120674 -2.29143 0.0394424 80
0.119602 -2.28621 -0.118542 64
0.119255 -2.29491 -0.277467 58
0.118197 -2.2898 -0.438073 52
0.116741 -2.29235 -0.605242 59
0.289437 -5.74524 1.3179 3
0.290501 -5.74665 0.903759 12
0.114775 -2.24606 0.193704 12
0.11615 -2.28916 0.0393988 83
0.115612 -2.28642 -0.118542 64
0.114758 -2.2852 -0.27625 53
0.11408 -2.28755 -0.437596 52
0.11234 -2.29257 -0.605242 59
0.262505 -5.81721 0.914686 20
0.102621 -2.24665 0.193704 12
0.104162 -2.28974 0.0393988 85
0.103639 -2.28699 -0.118542 68
0.10272 -2.29323 -0.277163 58
0.101701 -2.28813 -0.437596 52
0.100022 -2.28589 -0.603302 61
0.243643 -5.59311 0.879175 27
0.0991307 -2.25678 0.194575 12
0.100489 -2.29741 0.0395297 90
0.0999685 -2.29465 -0.118936 74
0.0990124 -2.2909 -0.276859 58
0.49975 -2.26141 -0.199188 8
0.0976044 -2.28586 -0.43712 52
0.500258 -2.25642 -0.360979 4
0.0962323 -2.29089 -0.604595 62
0.212492 -5.57064 1.27691 26
0.213322 -5.56717 0.874883 27
0.0877069 -2.25725 0.194575 14
0.488478 -2.25534 0.278684 9
0.0886691 -2.29289 0.0394424 88
0.486156 -2.25217 0.118933 9
0.0878583 -2.29265 -0.118804 77
0.485965 -2.25504 -0.0396606 9
0.0868307 -2.28643 -0.27625 58
0.487373 -2.26157 -0.198971 8
0.0861242 -2.28877 -0.437596 52
0.487909 -2.2566 -0.360587 8
0.0845483 -2.28893 -0.603949 61
0.202857 -5.57344 1.27747 20
0.204501 -5.59221 0.878785 18
0.0841305 -2.26736 0.195447 14
0.482963 -2.24891 0.277771 8
0.0841766 -2.29056 0.0393988 90
0.480114 -2.24325 0.11841 9
0.0839465 -2.29529 -0.118936 80
0.479919 -2.24611 -0.0394861 9
0.083105 -2.29402 -0.277163 58
0.480272 -2.24781 -0.197666 11
0.0823024 -2.29383 -0.438549 52
0.48188 -2.24779 -0.359021 9
0.0800706 -2.28668 -0.603302 62
0.176682 -5.67221 0.891272 26
0.071707 -2.2628 0.195011 14
0.470275 -2.24907 0.277467 9
0.072105 -2.28847 0.0393552 90
0.467456 -2.24337 0.118279 11
0.0718506 -2.29321 -0.118804 85
0.467759 -2.24868 -0.0394861 9
0.070617 -2.29196 -0.276859 58
0.470034 -2.2576 -0.198319 8
0.069744 -2.28933 -0.437596 52
0.469594 -2.24787 -0.35863 3
0.0679558 -2.28224 -0.602009 59
0.168496 -5.69717 0.895174 35
0.0675385 -2.25546 0.194357 14
0.46776 -2.25466 0.278076 9
0.0681835 -2.29109 0.0393988 90
0.464952 -2.24899 0.118541 8
0.0679204 -2.29582 -0.118936 85
0.461794 -2.2397 -0.0393115 9
0.0669457 -2.28958 -0.276554 58
0.463042 -2.24379 -0.197014 9
0.0656104 -2.28454 -0.436644 53
0.465164 -2.24627 -0.358238 3
0.0641048 -2.28718 -0.603302 62
0.131082 -5.42207 1.2421 1
0.138485 -5.69057 0.894004 33
0.0561218 -2.25577 0.194357 14
0.454459 -2.24978 0.277163 9
0.0566467 -2.29391 0.0394424 90
0.452673 -2.24895 0.11841 8
0.0558393 -2.29365 -0.118804 90
0.44896 -2.23466 -0.0391806 9
0.0549567 -2.2899 -0.276554 58
0.451783 -2.24863 -0.197231 9
0.0540465 -2.28485 -0.436644 53
0.453396 -2.24867 -0.358238 3
0.0524197 -2.28265 -0.602009 64
0.45502 -2.24484 -0.519974 3
0.127126 -5.67071 1.29937 15
0.128222 -5.67599 0.891662 24
0.0523528 -2.26333 0.195011 15
0.450532 -2.25057 0.277163 8
0.0522426 -2.29401 0.0394424 90
0.447266 -2.2424 0.118018 8
0.0517812 -2.29125 -0.118673 90
0.444566 -2.23299 -0.039137 8
0.0510673 -2.29496 -0.277163 61
0.448349 -2.25185 -0.197449 8
0.0500063 -2.28248 -0.436168 53
0.448004 -2.2422 -0.357064 3
0.0480865 -2.28516 -0.602656 64
0.451102 -2.24563 -0.519974 3
0.0929327 -5.46184 1.25108 1
0.0968413 -5.63709 0.885419 17
0.0400211 -2.2586 0.194575 15
0.436911 -2.24567 0.27625 4
0.0401458 -2.28926 0.0393552 90
0.434647 -2.24233 0.117887 8
0.0397836 -2.29149 -0.118673 90
0.432957 -2.23782 -0.0391806 9
0.0385289 -2.28776 -0.27625 59
0.434638 -2.24439 -0.196579 8
0.0376952 -2.28517 -0.436644 53
0.43721 -2.24936 -0.357847 3
0.0360475 -2.28055 -0.601362 61
0.439417 -2.25043 -0.520536 3
0.0861286 -5.5789 1.27804 14
0.0875693 -5.61008 0.881126 30
0.0360791 -2.25867 0.194575 17
0.432908 -2.24392 0.275946 4
0.0361503 -2.28932 0.0393552 90
0.429695 -2.23566 0.117494 9
0.0357841 -2.29156 -0.118673 90
0.429527 -2.24102 -0.0392243 9
0.0349353 -2.28781 -0.27625 59
0.431669 -2.25004 -0.197014 9
0.0336721 -2.28278 -0.436168 53
0.43234 -2.24527 -0.357064 4
0.0321321 -2.28544 -0.602656 62
0.435413 -2.24873 -0.519974 4
0.0570862 -5.59633 1.28197 21
0.0582689 -5.61787 0.882297 30
0.0246209 -2.25633 0.194357 20
0.420691 -2.24372 0.275642 4
0.0246132 -2.29448 0.0394424 91
0.417983 -2.23788 0.117494 11
0.0237363 -2.28672 -0.118411 90
0.417252 -2.23826 -0.039137 9
0.0229793 -2.29045 -0.276554 59
0.418959 -2.24737 -0.196579 8
0.0221398 -2.28538 -0.436644 53
0.420578 -2.24751 -0.357064 4
0.0205641 -2.28557 -0.602656 62
0.423633 -2.25098 -0.519974 4
0.0473187 -5.59642 1.28197 18
0.0485672 -5.63031 0.884248 30
0.0206402 -2.25139 0.193922 21
0.416774 -2.24445 0.275642 4
0.020167 -2.28952 0.0393552 95
0.414536 -2.24106 0.117625 15
0.0197653 -2.28925 -0.118542 90
0.411509 -2.22915 -0.0389625 9
0.0190007 -2.29296 -0.276859 62
0.415036 -2.2481 -0.196579 9
0.018133 -2.28296 -0.436168 53
0.415744 -2.24338 -0.356281 4
0.0161761 -2.28561 -0.602656 64
0.418801 -2.24693 -0.518851 4
0.0170862 -5.61364 1.2859 15
0.0181404 -5.64283 0.886199 32
0.00845092 -2.24898 0.193704 21
0.403289 -2.23935 0.274729 4
0.0081789 -2.28959 0.0393552 95
0.403297 -2.24818 0.117887 17
0.00778551 -2.29182 -0.118673 90
0.402562 -2.24856 -0.0392679 11
0.00659435 -2.29303 -0.276859 62
0.401481 -2.24044 -0.195709 9
0.00578552 -2.28548 -0.436644 53
0.403992 -2.24553 -0.356281 8
0.00420552 -2.28325 -0.602009 64
0.408392 -2.25874 -0.521097 4
0.00828318 -5.62584 1.28871 15
0.00452917 -2.25148 0.193922 23
0.39933 -2.23754 0.274425 8
0.00417669 -2.28461 0.0392679 90
0.399765 -2.24881 0.117887 15
0.0037829 -2.28934 -0.118542 90
0.39643 -2.23696 -0.0390498 11
0.00299246 -2.29304 -0.276859 62
0.398451 -2.24604 -0.196144 11
0.0017966 -2.28548 -0.436644 53
0.400949 -2.25109 -0.357064 8
0.00021924 -2.28566 -0.602656 64
0.405713 -2.26418 -0.52222 4
-0.0213497 -5.66966 1.29881 15
-0.00686661 -2.25148 0.193922 23
0.388466 -2.24449 0.275033 9
-0.00740595 -2.2896 0.0393552 96
0.388843 -2.25579 0.118148 14
-0.00819357 -2.28683 -0.118411 90
0.387676 -2.25371 -0.0393115 12
-0.00899135 -2.28806 -0.27625 65
0.387112 -2.25055 -0.196362 11
-0.00974726 -2.28056 -0.435692 53
0.391283 -2.26532 -0.359021 8
-0.011336 -2.28322 -0.602009 64
0.39343 -2.26387 -0.521659 4
-0.0314275 -5.70128 1.30611 23
-0.030504 -5.71192 0.897125 36
-0.0108231 -2.25644 0.194357 24
0.3837 -2.24027 0.274425 9
-0.011816 -2.29208 0.0393988 97
0.385755 -2.26139 0.11841 12
-0.0121848 -2.28681 -0.118411 90
0.383742 -2.25439 -0.0393115 9
-0.0129848 -2.28804 -0.27625 65
0.385299 -2.26349 -0.197449 11
-0.0137438 -2.28299 -0.436168 52
0.386908 -2.26357 -0.35863 8
-0.0157013 -2.28078 -0.601362 64
0.39115 -2.27415 -0.523905 3
-0.0622466 -5.69859 1.30555 21
-0.0611907 -5.69192 0.894004 29
-0.0230853 -2.26133 0.194793 27
0.374449 -2.25945 0.276554 3
-0.0237896 -2.28949 0.0393552 97
0.374338 -2.26837 0.118672 2
-0.0241862 -2.28921 -0.118542 90
0.373595 -2.26876 -0.0395297 4
-0.0254801 -2.29787 -0.277467 64
0.373032 -2.26302 -0.197231 8
-0.0260957 -2.28288 -0.436168 53
0.376287 -2.27537 -0.360196 8
-0.0276124 -2.27825 -0.600716 65
0.37803 -2.27143 -0.522782 3
-0.0706391 -5.65464 1.29544 15
-0.0708732 -5.67205 0.890882 24
-0.0269695 -2.25631 0.194357 26
0.370505 -2.2601 0.276554 3
-0.0278173 -2.29194 0.0393988 98
0.369971 -2.26656 0.118541 9
-0.0281171 -2.28417 -0.118279 90
0.369635 -2.26941 -0.0395297 9
-0.0294239 -2.29285 -0.276859 65
0.371517 -2.27841 -0.198536 9
-0.0300124 -2.27792 -0.435216 53
0.371508 -2.27115 -0.359413 4
-0.0316587 -2.28303 -0.602009 62
0.374867 -2.27689 -0.523905 4
-0.0965234 -5.44716 1.24771 1
-0.0988337 -5.62965 0.884248 20
-0.0383015 -2.25116 0.193922 26
0.359849 -2.26684 0.277163 9
-0.0394175 -2.29177 0.0393988 98
0.358099 -2.26593 0.11841 8
-0.0401672 -2.28899 -0.118542 90
0.357355 -2.26631 -0.0394424 9
-0.0409827 -2.2902 -0.276554 67
0.358796 -2.27541 -0.198101 8
-0.0417266 -2.28756 -0.43712 52
0.361573 -2.28275 -0.360979 4
-0.0432137 -2.28284 -0.602009 64
0.363337 -2.27876 -0.523905 4
-0.10531 -5.41045 1.23929 1
-0.108273 -5.60972 0.881126 18
-0.0423269 -2.25607 0.194357 27
0.356672 -2.27237 0.277771 8
-0.043768 -2.28919 0.0393552 98
0.355315 -2.27395 0.118803 8
-0.0441622 -2.28891 -0.118542 90
0.352618 -2.26199 -0.0393552 9
-0.0448291 -2.28268 -0.275642 59
0.354436 -2.27357 -0.197884 8
-0.0455675 -2.28012 -0.435692 53
0.355653 -2.27119 -0.359021 4
-0.0475445 -2.28034 -0.601362 64
0.358975 -2.27699 -0.523343 8
-0.138561 -5.5681 1.27579 15
-0.138376 -5.59917 0.879565 24
-0.0545327 -2.25581 0.194357 27
0.342866 -2.26445 0.276554 4
-0.0559407 -2.29643 0.0394861 100
0.34263 -2.27337 0.118672 8
-0.0561462 -2.28865 -0.118542 90
0.339998 -2.2614 -0.0393115 9
-0.0573062 -2.28736 -0.27625 65
0.343654 -2.28278 -0.198536 8
-0.0579034 -2.27984 -0.435692 53
0.344131 -2.27546 -0.359413 4
-0.0594836 -2.28006 -0.601362 59
0.345165 -2.26927 -0.521097 4
-0.147567 -5.57761 1.27804 15
-0.148023 -5.63104 0.884638 23
-0.0584698 -2.25571 0.194357 27
0.339681 -2.26744 0.276859 3
-0.0598819 -2.29383 0.0394424 100
0.339432 -2.27638 0.118803 8
-0.0602077 -2.29104 -0.118673 90
0.335678 -2.25952 -0.0392679 9
-0.0608991 -2.28727 -0.27625 65
0.338183 -2.27353 -0.197666 9
-0.0619505 -2.28219 -0.436168 52
0.339419 -2.27117 -0.35863 8
-0.0633256 -2.27512 -0.600069 61
0.341232 -2.2674 -0.520536 4
-0.178169 -5.62059 1.28814 15
-0.178838 -5.67215 0.891272 26
-0.0697288 -2.25041 0.193922 29
0.328164 -2.27165 0.277163 4
-0.0714911 -2.29349 0.0394424 100
0.326067 -2.26824 0.118279 8
-0.0716434 -2.28572 -0.118411 90
0.324597 -2.26366 -0.0393115 11
-0.0728743 -2.28692 -0.27625 65
0.326312 -2.27275 -0.197449 9
-0.0734203 -2.27939 -0.435692 53
0.327879 -2.27536 -0.359021 9
-0.0747592 -2.27236 -0.599422 61
0.32829 -2.26192 -0.518851 4
-0.188957 -5.67874 1.30162 20
-0.189896 -5.70638 0.896735 35
-0.0735734 -2.24779 0.193704 29
0.323487 -2.2673 0.276554 4
-0.0755777 -2.29586 0.0394861 99
0.321039 -2.26139 0.117887 8
-0.0758008 -2.29058 -0.118673 91
0.321357 -2.26917 -0.0393988 11
-0.0767808 -2.28431 -0.275946 64
0.321281 -2.26592 -0.196796 9
-0.0773985 -2.27926 -0.435692 53
0.322496 -2.26616 -0.357455 9
-0.0787251 -2.27223 -0.599422 61
0.32364 -2.25767 -0.517728 4
-0.219868 -5.6825 1.30274 18
-0.219867 -5.70777 0.897125 15
-0.0856299 -2.25484 0.194357 29
0.311269 -2.26651 0.27625 4
-0.0875977 -2.29544 0.0394861 100
0.309194 -2.26304 0.117887 8
-0.0875017 -2.28267 -0.118279 90
0.308444 -2.26339 -0.0392679 9
-0.088936 -2.28884 -0.276554 64
0.309412 -2.26757 -0.196796 9
-0.0894292 -2.28128 -0.436168 53
0.311646 -2.27515 -0.35863 8
-0.0910124 -2.28143 -0.602009 62
0.311815 -2.25933 -0.517728 3
-0.21913 -5.4436 1.24771 1
-0.22613 -5.61609 0.882687 20
-0.0894648 -2.2522 0.194139 29
0.306974 -2.26459 0.275946 8
-0.0915027 -2.29278 0.0394424 99
0.304566 -2.25863 0.117625 8
-0.0916886 -2.2875 -0.118542 90
0.306185 -2.27631 -0.0394861 9
-0.0928284 -2.2862 -0.27625 62
0.306804 -2.27798 -0.197666 9
-0.0934107 -2.28112 -0.436168 53
0.307003 -2.2708 -0.357847 8
-0.0945862 -2.27162 -0.599422 61
0.309207 -2.26953 -0.519974 4
-0.254392 -5.56888 1.27691 15
-0.255645 -5.61729 0.883077 26
-0.101143 -2.24921 0.193922 27
-0.103506 -2.29227 0.0394424 100
0.292736 -2.2602 0.117625 9
-0.104179 -2.28947 -0.118673 90
0.293936 -2.27541 -0.0394424 9
-0.104798 -2.28568 -0.27625 67
0.293827 -2.27466 -0.197231 8
-0.105124 -2.2757 -0.435216 53
0.295755 -2.27727 -0.35863 2
-0.106823 -2.27833 -0.601362 59
0.297641 -2.27353 -0.520536 3
-0.265272 -5.59277 1.28253 15
-0.265332 -5.61437 0.882687 27
-0.105068 -2.24903 0.193922 26
-0.108026 -2.29457 0.0394861 100
0.289434 -2.26566 0.117887 8
-0.107936 -2.28429 -0.118411 90
0.290607 -2.28087 -0.0395297 2
-0.108787 -2.28549 -0.27625 65
0.291775 -2.28999 -0.198536 11
-0.109214 -2.27796 -0.435692 53
0.293056 -2.28758 -0.360196 14
-0.11072 -2.26847 -0.598776 61
0.294624 -2.28129 -0.52222 20
-0.294623 -5.57422 1.2786 18
-0.294269 -5.58573 0.878395 29
0.283227 -2.27738 0.438943 3
-0.117366 -2.25092 0.194139 27
-0.119907 -2.29147 0.0394424 99
0.278712 -2.27958 0.118541 12
-0.119762 -2.2812 -0.118279 90
0.278569 -2.28489 -0.0395733 29
-0.121284 -2.28735 -0.276554 64
0.279167 -2.28654 -0.198101 44
-0.121538 -2.27734 -0.435692 53
0.282298 -2.29888 -0.361762 45
-0.122992 -2.2751 -0.600716 61
0.283189 -2.2901 -0.523905 45
-0.302713 -5.56159 1.27579 18
-0.303446 -5.59266 0.879565 20
0.279859 -2.28274 0.439896 3
-0.121295 -2.25071 0.194139 23
-0.123633 -2.28627 0.0393552 99
0.275739 -2.28497 0.118803 47
-0.12388 -2.28348 -0.118411 90
0.276098 -2.29778 -0.0397915 50
-0.124876 -2.28716 -0.276554 64
0.276387 -2.29692 -0.198971 49
-0.125512 -2.27712 -0.435692 53
0.278286 -2.29937 -0.361762 45
-0.126962 -2.27488 -0.600716 61
0.279591 -2.29055 -0.523905 45
-0.339992 -5.6961 1.30724 21
-0.339648 -5.70684 0.897906 33
0.26801 -2.28169 0.43942 8
-0.132685 -2.25007 0.194139 21
-0.135501 -2.2906 0.0394424 98
0.264937 -2.2963 0.119326 47
-0.135436 -2.28283 -0.118411 90
0.264173 -2.29667 -0.0397479 50
-0.1367 -2.28399 -0.27625 62
0.264467 -2.29581 -0.198754 49
-0.136887 -2.27401 -0.435216 53
0.265953 -2.29834 -0.36137 45
-0.138475 -2.27421 -0.600716 61
0.267594 -2.29198 -0.523905 45
-0.348041 -5.68097 1.30387 20
-0.348547 -5.68899 0.895174 32
0.264889 -2.28947 0.44085 8
-0.136917 -2.2548 0.194575 18
-0.139346 -2.28787 0.0393988 98
0.260928 -2.29676 0.119326 49
-0.139728 -2.28757 -0.118673 90
0.259878 -2.29464 -0.0397042 52
-0.140687 -2.28375 -0.27625 67
0.261032 -2.30122 -0.199188 49
-0.141162 -2.27866 -0.436168 52
0.261657 -2.29635 -0.360979 47
-0.142749 -2.27878 -0.602009 64
0.263593 -2.29244 -0.523905 45
-0.376983 -5.65227 1.29769 15
-0.376026 -5.65259 0.889711 24
0.253447 -2.2957 0.441803 4
-0.148721 -2.25406 0.194575 15
-0.151323 -2.28711 0.0393988 98
0.248625 -2.29561 0.119195 49
-0.151936 -2.28429 -0.118542 90
0.247586 -2.29349 -0.0396606 50
-0.152809 -2.28546 -0.276554 64
0.248305 -2.30012 -0.198971 49
-0.152759 -2.27299 -0.435216 53
0.249358 -2.29524 -0.360587 45
-0.154183 -2.27078 -0.600069 59
0.251587 -2.29379 -0.523905 45
-0.384844 -5.62244 1.29095 14
-0.382177 -5.59773 0.881126 17
0.24796 -2.28642 0.439896 2
-0.153334 -2.26373 0.195447 15
-0.155542 -2.28432 0.0393552 97
0.244888 -2.29852 0.119326 50
-0.155579 -2.27904 -0.118279 90
0.243583 -2.29391 -0.0396606 53
-0.156284 -2.27776 -0.275642 62
0.244022 -2.29808 -0.198754 49
-0.157067 -2.27762 -0.436168 52
0.245619 -2.29812 -0.360979 45
-0.158882 -2.27529 -0.601362 61
0.24705 -2.28938 -0.522782 45
-0.411476 -5.56926 1.27916 15
0.236756 -2.29501 0.441326 8
-0.165213 -2.2579 0.195011 15
0.584082 -5.66972 0.694581 11
-0.167685 -2.28597 0.0393988 97
0.232192 -2.29733 0.119195 50
-0.167695 -2.28068 -0.118411 90
0.231168 -2.2952 -0.0396606 53
-0.16916 -2.28431 -0.276554 62
0.231986 -2.29932 -0.198754 50
-0.169388 -2.27674 -0.436168 53
0.233328 -2.29692 -0.360587 45
-0.170428 -2.26961 -0.600069 59
0.23466 -2.29069 -0.522782 45
-0.421327 -5.58318 1.28253 18
0.590452 -5.65509 1.51212 11
0.232497 -2.29298 0.44085 9
-0.169154 -2.25761 0.195011 15
0.57467 -5.6657 0.693972 12
-0.171675 -2.28567 0.0393988 97
0.228331 -2.29521 0.119064 50
-0.171864 -2.28288 -0.118542 90
0.227162 -2.2956 -0.0396606 55
-0.172748 -2.28404 -0.276554 62
0.228223 -2.3022 -0.198971 50
-0.173361 -2.27644 -0.436168 52
0.229319 -2.29732 -0.360587 45
-0.174203 -2.26691 -0.599422 61
0.230562 -2.28621 -0.521659 45
-0.451341 -5.59061 1.28477 15
0.563025 -5.67002 1.51535 9
0.220648 -2.29169 0.440373 9
-0.180578 -2.25673 0.195011 15
-0.183241 -2.28477 0.0393988 96
0.21631 -2.29637 0.119064 52
-0.183815 -2.28195 -0.118542 90
0.215302 -2.29423 -0.039617 55
-0.184301 -2.27816 -0.275946 61
0.215928 -2.30089 -0.198754 50
-0.185081 -2.27798 -0.436644 52
0.216812 -2.29358 -0.359804 47
-0.186072 -2.27081 -0.600716 59
0.218825 -2.28981 -0.52222 45
-0.465116 -5.63837 1.29601 15
0.554311 -5.68301 1.51858 11
0.216012 -2.28966 0.439896 4
-0.184312 -2.25392 0.194793 15
-0.187215 -2.27943 0.0393115 95
0.212302 -2.29675 0.119064 53
-0.187797 -2.28162 -0.118542 90
0.211297 -2.2946 -0.039617 58
-0.188071 -2.27536 -0.275642 59
0.211445 -2.2963 -0.198319 50
-0.188852 -2.27521 -0.436168 53
0.212809 -2.29395 -0.359804 47
-0.190431 -2.27045 -0.600716 61
0.214596 -2.28776 -0.521659 45
-0.498612 -5.66974 1.30387 17
0.204244 -2.29321 0.440373 2
-0.196504 -2.25289 0.194793 15
-0.199147 -2.27842 0.0393115 95
0.19965 -2.29538 0.118933 53
-0.19996 -2.2831 -0.118673 90
0.198658 -2.29322 -0.0395733 58
-0.201037 -2.28172 -0.276554 61
0.199198 -2.29489 -0.198101 50
-0.201377 -2.2766 -0.436644 52
0.200795 -2.29504 -0.359804 47
-0.201884 -2.26461 -0.599422 59
0.202654 -2.29374 -0.522782 47
-0.510349 -5.7005 1.31117 27
0.20046 -2.296 0.44085 2
-0.200214 -2.25007 0.194575 15
-0.203571 -2.28305 0.0393988 94
0.196262 -2.29817 0.119064 55
-0.203721 -2.28026 -0.118542 90
0.194439 -2.29108 -0.0395297 59
-0.205067 -2.28635 -0.277163 61
0.195192 -2.29524 -0.198101 52
-0.205128 -2.2738 -0.436168 52
0.196357 -2.29046 -0.359021 47
-0.206717 -2.27387 -0.602009 59
0.198403 -2.28678 -0.521097 45
-0.538806 -5.68319 1.3078 18
-0.535575 -5.65956 0.892833 24
-0.211835 -2.2515 0.194793 15
-0.215124 -2.28199 0.0393988 90
0.184022 -2.29668 0.118933 55
-0.215496 -2.28168 -0.118673 90
0.183044 -2.29452 -0.0395733 59
-0.216564 -2.2803 -0.276554 58
0.183573 -2.2962 -0.198101 52
-0.216634 -2.27273 -0.436168 52
0.184361 -2.29146 -0.359021 47
-0.217991 -2.27039 -0.601362 59
0.186224 -2.28536 -0.520536 47
-0.543749 -5.64112 1.29825 14
-0.544027 -5.64387 0.890492 15
-0.216003 -2.25361 0.195011 15
-0.218625 -2.27664 0.0393115 90
0.179813 -2.29451 0.118803 56
-0.219478 -2.2813 -0.118673 90
0.17884 -2.29235 -0.0395297 62
-0.220303 -2.27745 -0.27625 61
0.179365 -2.29403 -0.197884 52
-0.220839 -2.27479 -0.436644 52
0.180362 -2.29178 -0.359021 47
-0.2229 -2.27962 -0.603949 61
0.182235 -2.28568 -0.520536 47
-0.570041 -5.5871 1.28646 14
-0.567532 -5.57206 0.879565 23
-0.228446 -2.25489 0.195229 15
-0.231194 -2.27791 0.0393552 90
0.167396 -2.29545 0.118803 56
-0.231564 -2.2776 -0.118542 90
0.166434 -2.29328 -0.0395297 65
-0.233129 -2.28116 -0.276859 58
0.167137 -2.29745 -0.198101 55
-0.23264 -2.26868 -0.435692 52
0.16836 -2.29269 -0.359021 49
-0.234232 -2.26878 -0.601362 59
0.170051 -2.28906 -0.521097 47
-0.579571 -5.59347 1.28814 15
-0.580358 -5.61046 0.885809 20
-0.232124 -2.25201 0.195011 14
-0.235686 -2.28247 0.0394424 90
0.16379 -2.29571 0.118803 58
-0.235797 -2.27967 -0.118673 89
0.162613 -2.29606 -0.0395733 68
-0.236454 -2.27832 -0.276554 58
0.162945 -2.29526 -0.197884 55
-0.237368 -2.27559 -0.43712 52
0.164539 -2.29544 -0.359413 47
-0.238699 -2.27317 -0.602656 59
0.166456 -2.28932 -0.521097 47
-0.611759 -5.617 1.29432 14
-0.607319 -5.58525 0.882297 14
-0.24325 -2.24833 0.194793 14
-0.246693 -2.27628 0.0393552 90
0.151598 -2.29405 0.118672 59
-0.247061 -2.27597 -0.118542 82
0.150821 -2.29436 -0.0395297 68
-0.24838 -2.27706 -0.276554 58
0.151326 -2.29605 -0.197884 55
-0.248345 -2.26948 -0.436168 52
0.152181 -2.29135 -0.35863 49
-0.250733 -2.27673 -0.603949 61
0.154128 -2.2853 -0.519974 47
-0.613877 -5.55549 1.28028 15
-0.615435 -5.56945 0.879956 26
-0.247447 -2.25037 0.195011 14
-0.250391 -2.27336 0.0393115 90
0.147593 -2.29431 0.118672 61
-0.251859 -2.28298 -0.118936 80
0.146651 -2.29213 -0.0394861 74
-0.252354 -2.27662 -0.276554 58
0.147318 -2.29631 -0.197884 56
-0.252579 -2.27149 -0.436644 52
0.148017 -2.28915 -0.358238 49
-0.253896 -2.26909 -0.602009 59
0.150139 -2.28557 -0.519974 45
-0.648426 -5.59081 1.28927 17
-0.25894 -2.24657 0.194793 14
-0.262291 -2.27202 0.0393115 90
0.135731 -2.29754 0.118803 64
-0.262656 -2.27171 -0.118411 79
0.134799 -2.29536 -0.0395297 76
-0.264559 -2.27773 -0.276859 58
0.135444 -2.29954 -0.198101 58
-0.263898 -2.26526 -0.435692 52
0.136484 -2.29728 -0.359413 47
-0.265208 -2.26293 -0.600716 59
0.138322 -2.28875 -0.520536 45
-0.627275 -5.33575 1.23031 1
-0.262861 -2.24612 0.194793 14
-0.266841 -2.27652 0.0393988 90
0.131573 -2.29528 0.118672 67
-0.267498 -2.27868 -0.118804 77
0.130498 -2.2906 -0.0394424 77
-0.268242 -2.2748 -0.276554 56
0.131431 -2.29977 -0.198101 58
-0.26843 -2.26967 -0.436644 52
0.132179 -2.29259 -0.35863 49
-0.270018 -2.26966 -0.602656 59
0.134032 -2.28413 -0.519413 45
-0.685056 -5.5668 1.28477 18
-0.649026 -5.28212 0.83547 1
-0.27401 -2.23977 0.194357 14
-0.278451 -2.27261 0.0393552 90
0.119688 -2.29843 0.118803 68
-0.277898 -2.26486 -0.118148 65
0.118503 -2.29125 -0.0394424 79
-0.279844 -2.2709 -0.27625 58
0.119119 -2.29545 -0.197666 59
-0.280613 -2.27067 -0.43712 52
0.120308 -2.29571 -0.359021 49
-0.281 -2.26102 -0.600716 59
0.122341 -2.28966 -0.520536 47
-0.694101 -5.56814 1.28534 17
0.313675 -5.66266 1.50824 8
-0.278227 -2.24176 0.194575 14
-0.282417 -2.27213 0.0393552 85
0.115546 -2.29614 0.118672 71
-0.28216 -2.26685 -0.118279 65
0.114374 -2.28896 -0.0393988 83
-0.284735 -2.2778 -0.277163 58
0.114982 -2.29317 -0.197449 59
-0.285496 -2.27748 -0.438549 52
0.115911 -2.28852 -0.357847 49
-0.286463 -2.27251 -0.603949 59
0.118082 -2.28501 -0.519413 47
-0.725163 -5.57155 1.28702 14
0.289188 -5.76553 1.53538 4
0.280491 -5.79266 1.11952 14
-0.289961 -2.24027 0.194575 14
0.270757 -5.75788 0.702491 15
-0.293987 -2.26814 0.0393115 83
0.103521 -2.29672 0.118672 74
-0.294744 -2.26777 -0.118411 64
0.102504 -2.29202 -0.0394424 90
-0.296013 -2.27135 -0.276554 55
0.102807 -2.29874 -0.197884 59
-0.295819 -2.26378 -0.436168 52
0.104278 -2.2965 -0.359021 49
-0.29741 -2.2638 -0.602009 58
0.106235 -2.28803 -0.519974 45
-0.738717 -5.59926 1.29376 14
0.279956 -5.78291 1.53991 20
-0.739694 -5.6141 0.889321 21
0.268789 -5.78093 1.11714 20
-0.29387 -2.23976 0.194575 12
0.25362 -5.60466 0.683628 24
-0.299652 -2.27748 0.0394861 82
0.099173 -2.28941 0.118279 74
-0.29903 -2.26973 -0.118542 62
0.0981663 -2.28471 -0.0393115 90
-0.299977 -2.27083 -0.276554 55
0.0985701 -2.29394 -0.197449 61
-0.301065 -2.273 -0.438073 52
0.0999313 -2.28928 -0.357847 50
-0.302397 -2.26801 -0.603302 58
0.102127 -2.28578 -0.519413 47
-0.743413 -5.40935 1.25052 1
0.249404 -5.80123 1.54443 14
-0.773422 -5.63448 0.893223 27
0.230468 -5.591 1.07996 27
-0.304968 -2.23074 0.193922 12
0.222889 -5.59604 0.682411 30
-0.310891 -2.27093 0.0393988 77
0.0869842 -2.2949 0.118541 79
-0.31091 -2.26813 -0.118542 65
0.0860015 -2.2902 -0.0393988 90
-0.312259 -2.26918 -0.276554 55
0.0865578 -2.29442 -0.197449 61
-0.312685 -2.26647 -0.43712 52
0.0878423 -2.29719 -0.359021 52
-0.313935 -2.264 -0.602656 59
0.0899601 -2.29116 -0.520536 47
-0.751909 -5.40817 1.25052 1
0.229631 -5.57243 1.48304 14
-0.787003 -5.66002 0.897516 33
0.220017 -5.57423 1.07663 26
-0.309547 -2.23513 0.194357 12
0.214087 -5.62121 0.685453 20
-0.315199 -2.27286 0.0394424 73
0.082788 -2.29006 0.118279 82
-0.315558 -2.27253 -0.118804 65
0.0819096 -2.28785 -0.0393552 90
-0.316563 -2.27109 -0.276859 55
0.0825531 -2.29457 -0.197449 64
-0.317322 -2.27078 -0.438073 52
0.0835471 -2.28993 -0.357847 50
-0.318898 -2.27062 -0.604595 58
0.0856717 -2.28402 -0.518851 47
-0.818517 -5.662 1.3106 21
0.200007 -5.56149 1.47981 14
-0.81486 -5.6436 0.895565 30
0.192205 -5.61455 1.08425 15
-0.321246 -2.23348 0.194357 11
0.186992 -5.6917 0.693972 27
-0.32638 -2.26623 0.0393552 73
0.0709608 -2.29546 0.118541 88
-0.326736 -2.2659 -0.118542 62
0.0700109 -2.29074 -0.0393988 90
-0.328093 -2.26694 -0.276554 55
0.0707011 -2.29995 -0.197884 64
-0.328854 -2.26666 -0.437596 52
0.0720384 -2.29279 -0.358238 50
-0.330433 -2.26653 -0.603949 59
0.073879 -2.2893 -0.519974 47
-0.822822 -5.62937 1.3033 15
0.191486 -5.59561 1.48886 14
-0.82158 -5.62766 0.893223 27
0.184123 -5.66639 1.09426 15
-0.325504 -2.23538 0.194575 12
0.178529 -5.70686 0.695797 38
-0.331059 -2.2706 0.0394424 71
0.0672766 -2.29307 0.11841 88
-0.332139 -2.27521 -0.119067 59
0.0659355 -2.28836 -0.0393552 90
-0.332014 -2.26888 -0.276859 53
0.0663774 -2.29011 -0.197014 64
-0.332451 -2.26366 -0.43712 52
0.0678014 -2.28551 -0.357064 50
-0.334034 -2.26357 -0.603302 59
0.070123 -2.28455 -0.518851 47
-0.851555 -5.62017 1.30218 15
0.164611 -5.64479 1.50178 14
-0.847704 -5.6013 0.889711 26
0.156134 -5.69178 1.09903 26
-0.336068 -2.22878 0.194139 11
0.148513 -5.70276 0.695189 36
-0.342922 -2.27137 0.0394861 67
0.0553346 -2.29589 0.118541 90
-0.342922 -2.26603 -0.118673 61
0.0543523 -2.28867 -0.0393552 90
-0.343889 -2.26711 -0.276859 55
0.0545142 -2.2954 -0.197449 68
-0.345015 -2.26922 -0.438549 52
0.0559646 -2.29077 -0.357847 52
-0.34512 -2.25946 -0.602656 59
0.0582946 -2.28975 -0.519974 47
-0.858405 -5.59941 1.29769 15
0.156329 -5.70059 1.51664 20
-0.856356 -5.59249 0.888541 27
0.145465 -5.70188 1.10093 23
-0.340335 -2.23065 0.194357 11
0.13831 -5.69309 0.693972 29
-0.347661 -2.27318 0.0395297 61
0.0512055 -2.29099 0.118279 90
-0.348394 -2.2753 -0.119198 59
0.0503577 -2.28876 -0.0393552 90
-0.348224 -2.26896 -0.277163 53
0.050328 -2.28803 -0.196796 70
-0.348601 -2.26619 -0.438073 52
0.0519664 -2.29087 -0.357847 52
-0.351682 -2.27311 -0.606535 59
0.0542352 -2.28742 -0.519413 47
-0.886008 -5.57784 1.29376 15
0.125429 -5.69894 1.516 17
-0.884276 -5.57315 0.886199 26
0.115194 -5.68293 1.09712 15
-0.353961 -2.23862 0.195229 11
0.106869 -5.6615 0.690017 23
-0.359166 -2.26886 0.0394861 59
0.0389043 -2.29622 0.118541 90
-0.359518 -2.26852 -0.118936 56
0.037927 -2.2865 -0.0393115 90
-0.360495 -2.26704 -0.277163 52
0.0383473 -2.28826 -0.196796 71
-0.36202 -2.27154 -0.439501 52
0.0399225 -2.28864 -0.357455 52
-0.362812 -2.26647 -0.605242 58
0.0417091 -2.28037 -0.517728 47
-0.892836 -5.56442 1.29095 15
0.114921 -5.67259 1.50889 14
-0.851932 -5.31574 0.845226 1
0.104704 -5.65368 1.0914 14
-0.357867 -2.238 0.195229 11
0.0973004 -5.62444 0.685453 30
-0.363126 -2.26823 0.0394861 58
0.0352102 -2.29129 0.118279 90
-0.363874 -2.27035 -0.119067 56
0.0340209 -2.29156 -0.0393988 90
-0.36445 -2.26892 -0.277467 52
0.0343534 -2.28832 -0.196796 71
-0.3652 -2.26606 -0.438549 52
0.0359719 -2.29117 -0.357847 52
-0.367542 -2.2706 -0.606535 58
0.0382189 -2.2853 -0.518851 47
-0.924354 -5.57409 1.29432 14
0.0856263 -5.63688 1.49919 14
-0.929869 -5.61328 0.893613 18
0.0754552 -5.60997 1.08282 18
-0.36919 -2.23616 0.195229 11
0.0678817 -5.62736 0.685758 32
-0.373783 -2.26143 0.0393988 55
0.0232127 -2.29144 0.118279 90
-0.376985 -2.2758 -0.119461 56
0.0224219 -2.2917 -0.0393988 90
-0.376325 -2.26698 -0.277467 52
0.0223714 -2.28847 -0.196796 73
-0.377069 -2.26661 -0.439025 50
0.0239439 -2.28886 -0.357455 52
-0.378631 -2.26633 -0.605889 58
0.0261532 -2.27816 -0.517167 47
-0.940131 -5.6085 1.30274 15
0.0750276 -5.5839 1.48498 14
-0.945383 -5.64575 0.899077 20
0.0648063 -5.61992 1.08473 21
-0.373504 -2.23797 0.195447 11
0.0582817 -5.64732 0.688191 30
-0.37978 -2.27057 0.0395733 58
0.0191872 -2.28898 0.118148 90
-0.38137 -2.2776 -0.119592 56
0.018422 -2.29174 -0.0393988 90
-0.380281 -2.26632 -0.277467 53
0.0184024 -2.291 -0.197014 76
-0.381433 -2.26836 -0.439501 52
0.0198956 -2.28396 -0.356672 52
-0.384597 -2.27512 -0.608475 58
0.0222059 -2.28064 -0.517728 47
-0.974625 -5.62734 1.30836 15
0.0448578 -5.58905 1.48627 15
-0.981396 -5.67218 0.90415 24
0.0354324 -5.62754 1.08616 21
-0.384757 -2.231 0.195011 11
0.0277975 -5.65996 0.689713 30
-0.39081 -2.26362 0.0394861 55
0.00682763 -2.29405 0.11841 90
-0.393717 -2.27803 -0.119723 55
0.00602233 -2.29181 -0.0393988 90
-0.392963 -2.26668 -0.277771 52
0.00639444 -2.28857 -0.196796 77
-0.394122 -2.26869 -0.439977 50
0.00793661 -2.28404 -0.356672 53
-0.396504 -2.27308 -0.608475 59
0.00986617 -2.28073 -0.517728 47
-0.991445 -5.67139 1.31903 23
0.0351894 -5.6012 1.4895 15
-0.995834 -5.70225 0.909222 32
0.0257034 -5.64478 1.08949 23
-0.388651 -2.23033 0.195011 11
0.01899 -5.67985 0.692147 30
-0.396053 -2.27032 0.039617 53
0.00322414 -2.29405 0.11841 90
-0.396399 -2.26997 -0.11933 55
0.00202979 -2.29431 -0.0394424 92
-0.396952 -2.2685 -0.278076 50
0.00240012 -2.28858 -0.196796 80
-0.39723 -2.26316 -0.439025 50
0.00395969 -2.28651 -0.357064 53
-0.400891 -2.27476 -0.609122 58
0.00629551 -2.28318 -0.51829 47
-1.02372 -5.68051 1.3224 21
0.00687935 -5.62062 1.49467 14
-1.02042 -5.6678 0.90454 20
-0.00286077 -5.66447 1.09331 21
-0.399051 -2.22343 0.194575 9
-0.0107731 -5.7022 0.694885 35
-0.407095 -2.26583 0.0395733 55
-0.00879184 -2.29654 0.118541 90
-0.40877 -2.27284 -0.119592 55
-0.00957751 -2.29179 -0.0393988 96
-0.407941 -2.26151 -0.277467 50
-0.00918341 -2.28856 -0.196796 82
-0.408241 -2.25871 -0.438549 49
-0.00800903 -2.28404 -0.356672 53
-0.410669 -2.2632 -0.606535 58
-0.00565921 -2.28318 -0.51829 47
-1.02479 -5.63575 1.31229 14
-0.00292122 -5.64719 1.50178 14
-1.02235 -5.62228 0.897516 15
-0.0127745 -5.68409 1.09712 21
-0.403377 -2.22518 0.194793 9
-0.0207877 -5.72451 0.697623 36
-0.411945 -2.27003 0.0396606 55
-0.0128 -2.29652 0.118541 90
-0.413184 -2.27458 -0.119723 53
-0.0135678 -2.28927 -0.0393552 96
-0.412333 -2.26323 -0.277771 50
-0.0131868 -2.29103 -0.197014 82
-0.41351 -2.26523 -0.439977 50
-0.0120032 -2.28649 -0.357064 53
-0.416366 -2.27198 -0.609122 58
-0.0096492 -2.2856 -0.518851 47
-1.0495 -5.59403 1.30387 14
-0.0336586 -5.68332 1.51147 15
-1.04638 -5.58269 0.892053 15
-0.0436951 -5.70848 1.10189 27
-0.41541 -2.22297 0.194793 9
-0.0517598 -5.72431 0.697623 32
-0.422838 -2.2604 0.0395297 53
-0.0252029 -2.29392 0.11841 90
-0.425024 -2.26986 -0.119592 52
-0.0259769 -2.29167 -0.0393988 97
-0.424573 -2.26097 -0.277771 50
-0.025537 -2.28595 -0.196579 82
-0.424849 -2.25814 -0.439025 49
-0.0239543 -2.28392 -0.356672 53
-0.428203 -2.26732 -0.608475 56
-0.021997 -2.28308 -0.51829 47
-1.05375 -5.56844 1.29825 14
-0.0437258 -5.70499 1.51729 18
-0.0536162 -5.70348 1.10093 17
-0.420216 -2.22713 0.195229 9
-0.0606059 -5.70933 0.695797 27
-0.427713 -2.26457 0.039617 55
-0.02878 -2.29138 0.118279 90
-0.428519 -2.26666 -0.119461 52
-0.0299765 -2.29162 -0.0393988 97
-0.429513 -2.26761 -0.278684 50
-0.0295267 -2.2859 -0.196579 82
-0.430627 -2.26704 -0.44093 50
-0.0279404 -2.28388 -0.356672 53
-0.432613 -2.26894 -0.609122 56
-0.0255611 -2.28061 -0.517728 47
-1.0773 -5.53415 1.29151 15
-0.0723713 -5.68537 1.51212 15
-0.082049 -5.67124 1.09474 15
-0.431008 -2.22253 0.195011 9
-0.438692 -2.25992 0.0395733 53
-0.0407772 -2.2912 0.118279 90
-0.44086 -2.26684 -0.119592 52
-0.041575 -2.29144 -0.0393988 98
-0.440905 -2.2629 -0.27838 50
-0.0414952 -2.28571 -0.196579 86
-0.441153 -2.26001 -0.439977 50
-0.0398984 -2.2837 -0.356672 53
-0.443626 -2.26435 -0.608475 56
-0.0375019 -2.28044 -0.517728 47
-1.1006 -5.60158 1.3078 14
-0.0818338 -5.65143 1.50307 14
-1.05122 -5.35546 0.856932 1
-0.0924794 -5.64162 1.08902 15
-0.436806 -2.23155 0.195883 9
-0.443995 -2.26398 0.0396606 53
-0.0448196 -2.29362 0.11841 90
-0.445298 -2.26852 -0.119723 50
-0.0456188 -2.29386 -0.0394424 98
-0.444853 -2.26212 -0.27838 49
-0.0455288 -2.28813 -0.196796 86
-0.446049 -2.26405 -0.44093 50
-0.0438841 -2.28363 -0.356672 53
-0.449853 -2.27297 -0.611062 56
-0.0414429 -2.27794 -0.517167 47
-1.12509 -5.56689 1.30106 14
-0.112134 -5.63642 1.49919 14
-1.07333 -5.31581 0.851469 1
-0.121406 -5.61162 1.0833 15
-0.449366 -2.2316 0.1961 8
-0.0549566 -2.2623 0.273208 11
-0.456338 -2.26408 0.0397042 53
-0.0570573 -2.28585 0.118018 90
-0.457665 -2.2686 -0.119855 50
-0.058029 -2.29358 -0.0394424 99
-0.458073 -2.26455 -0.278988 49
-0.0574514 -2.28537 -0.196579 86
-0.459269 -2.26642 -0.441882 50
-0.0558405 -2.28337 -0.356672 53
-0.461748 -2.27058 -0.611062 58
-0.0537147 -2.27524 -0.516605 47
-1.13091 -5.55079 1.29769 14
-0.121269 -5.60241 1.49015 14
-0.130647 -5.58686 1.07853 15
-0.454255 -2.23569 0.196536 8
-0.0588046 -2.27462 0.274729 11
-0.461288 -2.26817 0.0397915 53
-0.0608918 -2.29574 0.118541 90
-0.462123 -2.27024 -0.119986 50
-0.0619696 -2.29098 -0.0393988 99
-0.462127 -2.26626 -0.279293 49
-0.0615017 -2.28775 -0.196796 86
-0.462731 -2.26321 -0.441406 50
-0.0598256 -2.28327 -0.356672 53
