# .PCD v0.7 - Point Cloud Data file format
VERSION 0.7
FIELDS x y z intensity
SIZE 4 4 4 4
TYPE F F F F
COUNT 1 1 1 1
WIDTH 1526
HEIGHT 1
VIEWPOINT 0 0 0 1 0 0 0
POINTS 1526
DATA ascii
-3.14397 -2.1156 0.729189 3
-7.36312 -3.24597 0.70095 33
-3.15475 -2.11652 0.461532 4
-3.14837 -2.10905 0.196783 11
-0.687211 -0.304037 -0.0376761 49
-3.1446 -2.10494 -0.0654465 14
-0.84922 -0.374832 -0.109526 45
-0.637259 -0.422128 -0.0637142 30
-0.842635 -0.371593 -0.171896 44
-0.598998 -0.397005 -0.10845 38
-0.832102 -0.366294 -0.234079 42
-7.25823 -3.18315 1.81879 33
-3.15044 -2.1199 1.00679 2
-7.25676 -3.184 1.24677 35
-3.16803 -2.1238 0.733955 4
-7.3528 -3.22611 0.699425 35
-3.16632 -2.11709 0.462749 4
-3.16205 -2.11105 0.197437 2
-0.683167 -0.300834 -0.0374136 49
-3.15035 -2.10084 -0.0654901 8
-0.845262 -0.371508 -0.108918 44
-0.635925 -0.41963 -0.0634968 30
-0.841034 -0.369139 -0.17142 44
-0.595587 -0.39321 -0.107667 38
-0.83938 -0.367738 -0.236019 44
-7.26138 -3.1393 1.81542 33
-3.17921 -2.11599 1.0126 3
-7.25973 -3.14008 1.24443 35
-3.18078 -2.10909 0.734432 3
-7.36218 -3.18588 0.698771 33
-3.1877 -2.10734 0.464271 3
-2.12401 -0.919771 0.0397915 4
-3.16265 -2.08758 0.196783 9
-0.680098 -0.295391 -0.037151 49
-3.14843 -2.07659 -0.0652284 3
-0.844917 -0.366094 -0.108614 45
-0.640117 -0.417781 -0.0637142 30
-0.840637 -0.363906 -0.170944 44
-0.601755 -0.392814 -0.10845 39
-0.836794 -0.361576 -0.234725 44
-7.2484 -3.12019 1.81093 33
-3.19497 -2.11846 1.01648 2
-7.25159 -3.12155 1.24208 33
-3.18445 -2.10354 0.734432 3
-7.35172 -3.16614 0.697246 33
-3.16446 -2.08399 0.460316 2
-3.1517 -2.07243 0.195867 2
-0.680612 -0.294204 -0.037151 49
-3.15831 -2.07522 -0.0653593 1
-0.845554 -0.364619 -0.108614 45
-0.640846 -0.416663 -0.0637142 32
-0.841271 -0.362438 -0.170944 45
-0.6045 -0.393123 -0.108842 41
-0.837424 -0.360115 -0.234725 44
-7.26742 -3.08188 1.81149 35
-7.2542 -3.07775 1.23974 35
-7.35902 -3.12371 0.696374 33
-3.18133 -2.06817 0.197045 2
-0.684442 -0.29161 -0.0372823 49
-3.16285 -2.05456 -0.0652284 1
-0.847452 -0.360186 -0.108614 45
-0.640932 -0.411942 -0.0634968 29
-0.845418 -0.358984 -0.17142 45
-0.598279 -0.384556 -0.107276 39
-0.841523 -0.356664 -0.235372 44
-7.25429 -3.06288 1.80699 35
-7.25046 -3.06125 1.23818 33
-7.35758 -3.10795 0.695721 35
-3.15771 -2.04494 0.195344 1
-0.68495 -0.290415 -0.0372823 49
-3.16434 -2.04768 -0.0651847 2
-0.845793 -0.357743 -0.10831 45
-0.639561 -0.409467 -0.0632793 29
-0.841519 -0.355604 -0.170467 45
-0.601019 -0.384856 -0.107667 39
-0.837691 -0.353325 -0.234079 44
-7.25951 -3.01891 1.80419 33
-7.25043 -3.01661 1.23545 35
-7.35996 -3.06365 0.694413 35
-3.16838 -2.02838 0.195344 3
-0.6819 -0.28479 -0.0370197 49
-3.16449 -2.02433 -0.0649666 15
-0.847654 -0.35331 -0.10831 47
-0.641767 -0.406 -0.0632793 29
-0.841102 -0.350253 -0.169991 45
-0.603026 -0.381704 -0.107667 41
-0.83953 -0.348934 -0.234079 42
-0.842837 -0.536972 -0.222365 45
-7.25802 -3.00344 1.8025 33
-7.24199 -2.99828 1.23311 35
-7.34919 -3.04413 0.692888 33
-3.17402 -2.02419 0.195475 9
-0.682396 -0.283599 -0.0370197 49
-3.1617 -2.01477 -0.0648357 14
-0.841389 -0.348988 -0.107397 47
-0.640376 -0.403538 -0.0630619 29
-0.839444 -0.347849 -0.169515 44
-0.599532 -0.377989 -0.106884 41
-0.833498 -0.344564 -0.232139 42
-0.841722 -0.534185 -0.221803 44
-7.26288 -2.95954 1.7997 33
-7.25353 -2.95719 1.23233 35
-7.35402 -2.99962 0.691799 32
-0.683872 -0.280022 -0.0370197 49
-3.16199 -1.99096 -0.0646175 36
-0.847862 -0.346301 -0.108005 45
-0.64248 -0.40018 -0.0630619 29
-0.83904 -0.342378 -0.169039 44
-0.601568 -0.37474 -0.106884 38
-0.835291 -0.340195 -0.232139 42
-0.842543 -0.528318 -0.221242 44
-7.25623 -2.94355 1.79689 35
-7.24495 -2.93896 1.22999 35
-7.35232 -2.98397 0.691145 32
-0.68436 -0.278828 -0.0370197 49
-3.16123 -1.98278 -0.0645303 32
-0.843865 -0.342959 -0.107397 45
-0.64107 -0.397732 -0.0628444 29
-0.835085 -0.339073 -0.168087 44
-0.602221 -0.373689 -0.106884 41
-0.829165 -0.336026 -0.230199 42
-0.845523 -0.528148 -0.221803 42
-7.25571 -2.89919 1.79296 33
-7.24827 -2.89767 1.22804 35
-7.34883 -2.93933 0.689402 32
-7.26799 -4.51829 0.446687 1
-0.676536 -0.271539 -0.0364946 50
-3.16273 -1.96147 -0.0643557 30
-0.847894 -0.339602 -0.107701 47
-0.643143 -0.39437 -0.0628444 30
-0.841351 -0.336659 -0.169039 47
-0.833099 -0.332717 -0.230846 42
-0.844053 -0.521281 -0.22068 42
-7.24944 -2.88202 1.79015 32
-7.24414 -2.88137 1.22647 35
-7.31094 -4.54673 1.66522 44
-7.34006 -2.92097 0.688095 33
-7.41217 -4.59725 1.06515 42
-7.25889 -4.49507 0.445641 1
-0.679329 -0.271279 -0.0366259 49
-3.16403 -1.95463 -0.0643121 30
-0.848486 -0.338122 -0.107701 45
-0.635362 -0.388 -0.0619746 32
-0.841937 -0.33519 -0.169039 45
-0.829245 -0.329342 -0.229552 42
-0.842893 -0.51852 -0.220119 42
-7.25812 -2.84009 1.78846 32
-7.32559 -4.52039 2.29403 38
-7.24582 -2.83673 1.22413 29
-7.31584 -4.49681 1.66093 36
-7.35344 -2.88031 0.687877 33
-7.42424 -4.5493 1.06332 39
-7.30865 -4.47138 0.447211 1
-0.68539 -0.269537 -0.0368885 50
-3.16816 -1.93357 -0.0641812 29
-0.843369 -0.330818 -0.106788 47
-0.637385 -0.384668 -0.0619746 32
-0.841452 -0.329738 -0.168563 47
-0.835459 -0.326747 -0.230846 44
-0.845686 -0.513952 -0.220119 42
-7.32113 -4.5 2.29015 36
-7.3153 -4.47891 1.65902 36
-7.40888 -4.5221 1.05997 36
-7.30792 -4.45342 0.446687 1
-0.683533 -0.267435 -0.0367572 50
-3.16086 -1.92153 -0.0639631 29
-0.841632 -0.328447 -0.106484 47
-0.631677 -0.379664 -0.0613222 32
-0.83745 -0.326493 -0.16761 45
-0.833776 -0.324417 -0.230199 42
-0.840348 -0.50866 -0.218434 42
-7.32602 -4.45031 2.28433 36
-7.31347 -4.42528 1.65331 35
-7.41121 -4.47042 1.05693 35
-7.30548 -4.39962 0.445117 1
-0.680261 -0.262067 -0.0364946 50
-3.1666 -1.90237 -0.0638758 29
-0.84334 -0.324036 -0.106484 47
-0.631523 -0.375066 -0.0611048 33
-0.836855 -0.321228 -0.167134 45
-0.83772 -0.320907 -0.230846 44
-0.843 -0.504253 -0.218434 42
-7.32138 -4.43001 2.28046 36
-7.29387 -4.39603 1.64711 39
-3.08743 -1.17922 0.286089 11
-7.39909 -4.44725 1.05419 35
-7.30168 -4.38171 0.444463 1
-0.680717 -0.260879 -0.0364946 50
-3.15705 -1.88913 -0.063614 30
-0.843848 -0.322711 -0.106484 47
-0.634312 -0.375245 -0.0613222 33
-0.837415 -0.319766 -0.167134 45
-0.829246 -0.316019 -0.228259 42
-0.841705 -0.501671 -0.217873 41
-7.32714 -4.38297 2.27529 36
-7.21697 -4.29996 1.62471 24
-3.10268 -1.16708 0.28696 14
-7.40308 -4.39704 1.05145 33
-7.3052 -4.33195 0.443286 1
-0.677399 -0.255558 -0.0362321 50
-3.16227 -1.87057 -0.0635268 30
-0.836231 -0.314806 -0.105267 45
-0.631984 -0.369377 -0.0608873 33
-0.841321 -0.316384 -0.16761 45
-0.837622 -0.314352 -0.230199 42
-0.84432 -0.497257 -0.217873 42
-7.30989 -4.35533 2.26753 33
-7.21044 -4.27732 1.62137 21
-3.11405 -1.16515 0.287832 3
-7.40007 -4.37778 1.04993 35
-7.30846 -4.31665 0.443024 1
-0.677844 -0.254375 -0.0362321 50
-3.15693 -1.85996 -0.0633522 30
-0.843755 -0.315946 -0.10618 45
-0.636916 -0.370808 -0.0613222 33
-0.834972 -0.312346 -0.166182 44
-0.833696 -0.311063 -0.228906 44
-0.843091 -0.494539 -0.217311 42
-7.31254 -4.30345 2.26107 30
-7.2412 -4.24448 1.62328 20
-3.12732 -1.15087 0.288485 2
-7.40009 -4.3239 1.04659 35
-7.31661 -4.26823 0.442108 1
-0.676823 -0.249962 -0.0361008 50
-3.16047 -1.83908 -0.0632213 30
-0.840792 -0.309668 -0.105571 47
-0.634547 -0.364956 -0.0608873 33
-0.834345 -0.30698 -0.165706 45
-0.828509 -0.304207 -0.226966 42
-0.841551 -0.487507 -0.216188 42
-7.23377 -4.22316 1.61994 15
-3.12698 -1.14455 0.288268 2
-7.39186 -4.30352 1.04446 35
-7.31468 -4.25171 0.441585 1
-0.681948 -0.250493 -0.0363633 50
-3.15287 -1.82728 -0.0630032 32
-0.838947 -0.307496 -0.105267 47
-0.635183 -0.363848 -0.0608873 33
-0.834879 -0.305524 -0.165706 45
-0.831308 -0.303585 -0.227612 44
-0.842316 -0.486185 -0.216188 42
-7.25292 -4.18527 1.61947 15
-3.13039 -1.12787 0.28805 2
-7.39279 -4.25237 1.04141 35
-1.7095 -0.616255 0.0311089 50
-7.32169 -4.20464 0.440669 1
-0.678551 -0.245231 -0.0361008 50
-3.15557 -1.80756 -0.0628723 32
-0.83821 -0.302261 -0.104963 47
-0.63492 -0.359277 -0.0606699 33
-0.834105 -0.300466 -0.16523 45
-0.85208 -0.484802 -0.149951 47
-0.832834 -0.299374 -0.227612 42
-0.84274 -0.480551 -0.215626 42
-5.7975 -3.34424 1.78159 8
-7.23329 -4.15543 1.61327 14
-3.1136 -1.11569 0.286307 2
-7.38729 -4.23206 1.03959 35
-1.70362 -0.610448 0.030978 52
-7.32035 -4.18689 0.440145 1
-0.678978 -0.244046 -0.0361008 50
-3.15221 -1.79832 -0.0627414 32
-0.838736 -0.300798 -0.104963 45
-0.637708 -0.359405 -0.0608873 35
-0.834628 -0.29901 -0.16523 45
-0.850783 -0.482087 -0.14956 47
-0.826581 -0.295347 -0.225673 44
-0.843577 -0.479079 -0.215626 42
-5.826 -3.31881 1.78482 9
-7.25495 -4.1175 1.61327 12
-3.11489 -1.09717 0.285871 2
-7.39713 -4.18469 1.03776 35
-1.70915 -0.602348 0.0310216 50
-7.35376 -4.15337 0.4408 1
-0.680247 -0.240488 -0.0361008 52
-3.15537 -1.77755 -0.0626105 32
-0.835668 -0.294613 -0.104354 47
-0.635245 -0.35361 -0.0604524 33
-0.836233 -0.29449 -0.16523 45
-0.853295 -0.477625 -0.14956 47
-0.830396 -0.291813 -0.226319 44
-0.8398 -0.470901 -0.213942 42
-5.82758 -3.30625 1.78352 9
-7.2429 -4.09395 1.60898 11
-3.10034 -1.08598 0.284346 2
-7.39288 -4.16696 1.03624 35
-1.70076 -0.596065 0.0308471 50
-7.35593 -4.13936 0.440538 1
-0.680666 -0.2393 -0.0361008 52
-3.15193 -1.76837 -0.0624796 32
-0.838473 -0.294117 -0.104659 47
-0.638031 -0.353722 -0.0606699 33
-0.834429 -0.292222 -0.164753 45
-0.849826 -0.47371 -0.148777 49
-0.833185 -0.291156 -0.226966 44
-0.840539 -0.469581 -0.213942 44
-7.25282 -4.05125 1.6066 12
-7.39726 -4.11853 1.03381 35
-1.70612 -0.588262 0.0308908 50
-7.36441 -4.0935 0.439753 17
-0.681909 -0.235733 -0.0361008 50
-3.15647 -1.74996 -0.0623923 32
-0.835307 -0.288112 -0.10405 47
-0.637698 -0.349166 -0.0604524 35
-0.835897 -0.287995 -0.164753 45
-0.84798 -0.46685 -0.147993 49
-0.830078 -0.285372 -0.225673 44
-0.838732 -0.462798 -0.212819 44
-7.24343 -4.02776 1.60279 12
-7.38491 -4.09477 1.03107 35
-1.70488 -0.584177 0.0308471 50
-7.3912 -4.09154 0.44093 15
-0.679957 -0.233735 -0.0359695 50
-3.15078 -1.7396 -0.0622178 32
-0.840505 -0.288257 -0.104659 45
-0.834075 -0.285744 -0.164277 45
-0.848794 -0.46537 -0.147993 49
-0.830624 -0.283778 -0.225673 44
-0.841668 -0.462518 -0.21338 44
-7.29877 -4.02521 2.22101 35
-7.25367 -3.98387 1.6004 12
-7.39173 -4.04641 1.02894 35
-1.70317 -0.57365 0.0307599 50
-7.39133 -4.0395 0.439622 15
-0.678805 -0.229377 -0.0358382 50
-3.15356 -1.71893 -0.0620869 33
-0.834994 -0.281339 -0.103746 47
-0.835609 -0.281227 -0.164277 45
-0.844723 -0.457359 -0.146819 45
-0.832099 -0.279425 -0.225673 42
-0.839887 -0.455612 -0.212257 42
-7.29521 -4.00665 2.21777 36
-7.24555 -3.96295 1.59707 12
-7.37848 -4.02409 1.0262 35
-1.70654 -0.571468 0.0308035 50
-7.38889 -4.02311 0.439099 14
-0.674468 -0.226611 -0.0355757 50
-3.15217 -1.71104 -0.0619997 33
-0.830727 -0.278457 -0.103137 49
-0.831441 -0.278218 -0.163325 45
-0.847687 -0.457067 -0.14721 49
-0.832585 -0.277972 -0.225673 45
-0.838464 -0.453123 -0.211696 42
-7.30054 -3.9616 2.21325 35
-7.24825 -3.91688 1.59325 12
-7.39508 -3.98304 1.02559 35
-1.69991 -0.559704 0.030629 52
-7.39887 -3.97845 0.438444 14
-0.68039 -0.224633 -0.0358382 50
-3.15198 -1.69032 -0.0618251 33
-0.83689 -0.275649 -0.103746 47
-0.823509 -0.270953 -0.16142 45
-0.847895 -0.451451 -0.146819 49
-0.827094 -0.271506 -0.223733 44
-0.838682 -0.447569 -0.211134 44
-7.2947 -3.94196 2.20937 35
-7.24279 -3.89598 1.59039 12
-7.38234 -3.95956 1.02286 35
-1.69386 -0.554113 0.0304981 52
-7.4036 -3.96435 0.438314 12
-0.678407 -0.222671 -0.035707 52
-3.15052 -1.68246 -0.0617379 33
-0.830292 -0.271883 -0.102833 49
-0.826314 -0.270275 -0.161896 45
-0.839979 -0.4453 -0.145253 47
-0.825317 -0.269173 -0.223086 44
-0.839462 -0.446105 -0.211134 42
-7.29888 -3.89333 2.2042 33
-7.25225 -3.85224 1.58801 12
-7.3348 -2.35358 0.670881 17
-7.3905 -3.91259 1.02103 35
-1.69911 -0.546 0.0305417 52
-7.40508 -3.91372 0.437136 11
-0.677186 -0.218354 -0.0355757 52
-3.15295 -1.66188 -0.061607 33
-0.829387 -0.266631 -0.102529 47
-0.827765 -0.2658 -0.161896 47
-0.84674 -0.443061 -0.146036 47
-0.831317 -0.266314 -0.224379 45
-0.839712 -0.440414 -0.210573 42
-6.94305 -2.21328 1.67167 1
-7.295 -3.87491 2.20097 35
-6.95262 -2.21632 1.14765 1
-7.24595 -3.83268 1.58515 12
-7.32229 -2.33548 0.669356 17
-7.38415 -3.89274 1.0192 35
-1.69292 -0.540757 0.0304108 53
-7.40307 -3.89614 0.436613 8
-0.675187 -0.216415 -0.0354444 52
-3.14921 -1.65288 -0.0614761 33
-0.827486 -0.264431 -0.102225 49
-0.82121 -0.262127 -0.160468 45
-0.84096 -0.438126 -0.144861 45
-0.824874 -0.262675 -0.222439 44
-0.842633 -0.440086 -0.211134 44
-7.24789 -2.26727 1.74242 36
-7.29381 -3.82543 2.19451 33
-7.24694 -2.26835 1.19448 30
-7.24853 -3.78559 1.58134 12
-7.33442 -2.29711 0.669356 17
-7.38463 -3.8437 1.01647 35
-1.69573 -0.531886 0.0304108 53
-7.40565 -3.8481 0.435566 11
-0.678694 -0.213621 -0.0355757 52
-3.15117 -1.63291 -0.0613452 33
-0.835966 -0.262312 -0.103137 47
-0.8296 -0.260015 -0.161896 47
-0.841053 -0.432577 -0.14447 45
-0.826238 -0.258353 -0.222439 44
-0.840607 -0.433413 -0.210011 42
-7.23748 -2.25154 1.73905 39
-7.28977 -3.8071 2.19128 35
-7.166 -2.22931 1.18043 30
-7.24642 -3.7684 1.57943 12
-7.32415 -2.27987 0.668049 21
-7.37811 -3.82394 1.01464 36
-1.68949 -0.526699 0.0302799 53
-7.3924 -3.82483 0.434388 11
-0.674298 -0.210955 -0.0353131 52
-3.14957 -1.62511 -0.0612579 35
-0.829312 -0.258648 -0.102225 47
-0.827708 -0.25784 -0.16142 45
-0.843998 -0.432245 -0.144861 47
-0.82438 -0.256197 -0.221793 45
-0.843523 -0.433069 -0.210573 42
-7.23286 -2.20864 1.73512 32
-7.29607 -3.7635 2.1874 35
-7.2386 -2.21176 1.19057 26
-7.25448 -3.72606 1.57705 12
-7.32369 -2.23913 0.666959 15
-7.38192 -3.77863 1.01251 35
-1.69453 -0.518871 0.0303236 53
-7.39833 -3.78054 0.433603 11
-0.675393 -0.207421 -0.0353131 52
-3.14663 -1.60346 -0.0610398 35
-0.835358 -0.255893 -0.102833 50
-0.826655 -0.252933 -0.160944 47
-0.837385 -0.423465 -0.143295 47
-0.827977 -0.252723 -0.222439 45
-0.839203 -0.425456 -0.208888 42
-7.22272 -2.19177 1.73175 32
-7.28545 -3.74193 2.18223 35
-7.23063 -2.19554 1.18862 26
-7.25944 -3.71101 1.57657 12
-7.3109 -2.22128 0.665434 17
-7.37524 -3.75897 1.01069 35
-1.68834 -0.513441 0.0301927 53
-7.3938 -3.76196 0.432949 9
-0.675754 -0.206242 -0.0353131 52
-3.15165 -1.5991 -0.0610834 35
-0.831053 -0.252997 -0.102225 49
-0.820047 -0.249359 -0.159516 49
-0.842522 -0.424246 -0.144078 45
-0.826149 -0.250436 -0.221793 45
-0.839944 -0.42399 -0.208888 42
-7.23447 -2.15266 1.73175 33
-7.30128 -3.70027 2.18094 35
-7.2424 -2.15638 1.18862 26
-7.26125 -3.66409 1.57276 12
-7.31326 -2.17885 0.664563 15
-7.37552 -3.70897 1.00795 35
-1.6958 -0.506019 0.0302799 53
-7.40066 -3.71517 0.432164 9
-0.674431 -0.20199 -0.0351819 50
-0.830031 -0.247791 -0.10192 50
-0.847591 -0.420563 -0.0795884 53
-0.828444 -0.247011 -0.160944 49
-0.831499 -0.413168 -0.141729 45
-0.825133 -0.245422 -0.221146 47
-0.837876 -0.417245 -0.207765 42
-7.22383 -2.13715 1.72838 32
-7.29264 -3.6799 2.17642 33
-7.23868 -2.1429 1.18745 26
-7.26544 -3.65031 1.57228 11
-7.30034 -2.16113 0.663037 14
-7.37469 -3.69404 1.00704 35
-1.6847 -0.499515 0.0300618 53
-7.39309 -3.69683 0.431379 8
-0.674783 -0.200812 -0.0351819 50
-0.830419 -0.246487 -0.10192 49
-0.852779 -0.421312 -0.0800233 53
-0.826519 -0.244872 -0.160468 49
-0.834426 -0.412822 -0.142121 45
-0.82556 -0.243982 -0.221146 47
-0.842884 -0.418116 -0.208888 42
-7.23492 -2.0993 1.72838 33
-7.29389 -3.63431 2.17125 35
-7.24506 -2.1036 1.18667 27
-7.27064 -3.60694 1.56942 11
-7.31597 -2.12554 0.663473 14
-7.37614 -3.64657 1.0046 35
-1.692 -0.492375 0.030149 55
-7.3922 -3.64812 0.430202 8
-0.675825 -0.197276 -0.0351819 50
-0.831699 -0.242135 -0.10192 50
-0.85274 -0.415738 -0.0798059 53
-0.827748 -0.240685 -0.160468 49
-0.834363 -0.407353 -0.141729 47
-0.826784 -0.2398 -0.221146 47
-0.842879 -0.412615 -0.208327 42
-7.22687 -2.0833 1.72557 33
-7.28941 -3.6162 2.16802 36
-7.23685 -2.08753 1.18472 26
-7.27535 -3.59188 1.56895 11
-7.32924 -2.11553 0.664345 12
-7.37581 -3.63039 1.00369 35
-1.68574 -0.48705 0.0300181 55
-7.39856 -3.63521 0.430202 8
-0.673769 -0.195406 -0.0350506 50
-0.829735 -0.239998 -0.101616 49
-0.853464 -0.414249 -0.0798059 52
-0.82109 -0.237208 -0.159039 49
-0.837288 -0.406987 -0.142121 47
-0.822599 -0.236883 -0.219853 47
-0.837045 -0.407907 -0.206642 44
-7.231 -2.04218 1.72389 33
-7.29152 -3.56821 2.16285 35
-7.2528 -2.04969 1.1855 26
-7.27641 -3.54513 1.56514 9
-7.3238 -2.07111 0.662819 11
-7.37526 -3.58067 1.00095 33
-1.69067 -0.478896 0.0300618 53
-7.39117 -3.58205 0.428631 4
-0.677186 -0.192553 -0.0351819 50
-0.826244 -0.234159 -0.101008 49
-0.848899 -0.406514 -0.0791535 52
-0.831812 -0.23542 -0.160944 49
-0.837186 -0.401518 -0.141729 47
-0.830804 -0.23453 -0.221793 47
-0.837049 -0.402306 -0.206081 42
-7.22012 -2.02687 1.72052 33
-7.28688 -3.55018 2.15962 36
-7.25125 -2.03696 1.18472 26
-7.28259 -3.53243 1.56514 9
-7.36971 -3.56367 0.999429 35
-1.68429 -0.473919 0.0299309 53
-7.39454 -3.56935 0.428501 4
-0.675117 -0.190697 -0.0350506 50
-0.826611 -0.232861 -0.101008 50
-0.85185 -0.406115 -0.079371 52
-0.82513 -0.231987 -0.159516 50
-0.837886 -0.400056 -0.141729 47
-0.821907 -0.230487 -0.219206 47
-0.83768 -0.40099 -0.206081 42
-7.21654 -1.98516 1.71715 32
-7.27865 -3.50068 2.15186 35
-7.26182 -1.99896 1.18472 27
-7.28267 -3.48703 1.56132 9
-7.37036 -3.51648 0.996995 35
-1.68666 -0.465388 0.0299309 52
-7.3951 -3.52198 0.427454 4
-0.678514 -0.187821 -0.0351819 50
-0.830212 -0.229186 -0.101312 50
-0.849468 -0.399506 -0.078936 53
-0.828661 -0.228456 -0.159992 50
-0.833284 -0.392472 -0.140555 45
-0.827722 -0.227597 -0.2205 47
-0.833176 -0.393443 -0.204396 42
-7.2153 -1.97128 1.71603 33
-7.27821 -3.48483 2.14992 35
-7.25577 -1.98368 1.18316 29
-7.28492 -3.47093 1.56037 9
-7.36528 -3.49828 0.995474 35
-1.68273 -0.460833 0.0298436 55
-0.669206 -0.184008 -0.0346568 52
-0.825823 -0.226433 -0.100704 50
-0.852414 -0.39909 -0.0791535 52
-0.821954 -0.225077 -0.158563 50
-0.840658 -0.394197 -0.141729 47
-0.825827 -0.225375 -0.219853 47
-0.836061 -0.393036 -0.204957 42
-7.2188 -1.93033 1.71434 33
-7.27731 -3.43611 2.14411 35
-7.27116 -1.94567 1.18394 27
-7.29189 -3.42751 1.55799 9
-7.36613 -3.44995 0.99304 35
-1.68995 -0.453307 0.0299309 55
-0.674985 -0.181791 -0.0349193 52
-0.824638 -0.221322 -0.100399 50
-0.847725 -0.391454 -0.0785011 53
-0.827903 -0.221889 -0.159516 49
-0.833768 -0.385597 -0.140163 47
-0.82933 -0.221668 -0.2205 47
-0.83597 -0.387471 -0.204396 42
-7.20769 -1.91524 1.71097 33
-7.27674 -3.42032 2.14217 35
-7.26467 -1.93171 1.18238 29
-7.28897 -3.41061 1.55608 11
-7.3603 -3.43312 0.991519 33
-1.68108 -0.447791 0.0297564 55
-0.675301 -0.180612 -0.0349193 52
-0.822586 -0.219391 -0.100095 49
-0.850665 -0.391026 -0.0787186 53
-0.821171 -0.218562 -0.158087 50
-0.83444 -0.384141 -0.140163 47
-0.825045 -0.218989 -0.219206 47
-0.834372 -0.385125 -0.203834 44
-7.21762 -1.87747 1.71097 33
-7.27644 -3.3753 2.137 33
-7.27229 -1.89302 1.18199 30
-7.29055 -3.36647 1.55274 11
-7.36465 -3.3883 0.989694 33
-1.68816 -0.440535 0.0298436 55
-0.676206 -0.177192 -0.0349193 53
-0.823723 -0.215081 -0.100095 50
-0.848107 -0.384635 -0.0782837 53
-0.827018 -0.215633 -0.159039 50
-0.829711 -0.376669 -0.138989 49
-0.826143 -0.21481 -0.219206 47
-0.827529 -0.376666 -0.201588 42
-7.20405 -1.86187 1.70704 33
-7.27574 -3.35956 2.13506 33
-7.26841 -1.87848 1.18082 30
-7.28973 -3.35066 1.55131 12
-7.36379 -3.37234 0.988781 33
-1.68409 -0.436338 0.0297564 55
-0.674097 -0.175388 -0.034788 53
-0.819291 -0.212405 -0.0994866 49
-0.848777 -0.383154 -0.0782837 53
-0.820262 -0.212356 -0.157611 49
-0.834857 -0.377278 -0.139772 49
-0.826516 -0.213368 -0.219206 47
-0.832613 -0.377256 -0.202711 42
-7.2093 -1.82167 1.70592 33
-7.28225 -3.3164 2.13183 36
-7.28533 -1.84221 1.18199 30
-7.28929 -3.30433 1.5475 12
-7.34223 -1.85794 0.659551 9
-7.36778 -3.3276 0.986955 35
-1.68392 -0.426902 0.0297127 55
-0.675036 -0.171738 -0.034788 53
-0.817986 -0.207506 -0.0991823 50
-0.846298 -0.376508 -0.0778488 53
-0.826123 -0.209256 -0.158563 50
-0.827821 -0.368834 -0.138206 49
-0.829965 -0.209625 -0.219853 47
-0.825701 -0.368869 -0.200465 44
-7.21246 -1.80909 1.70592 33
-7.27263 -3.2967 2.12731 36
-7.28374 -1.82829 1.18121 30
-7.28221 -3.28426 1.54464 14
-7.32372 -1.83966 0.65759 12
-7.36 -3.30863 0.98513 33
-1.68959 -0.424883 0.0298 56
-0.672913 -0.169953 -0.0346568 53
-0.825569 -0.207884 -0.100095 50
-0.846953 -0.37503 -0.0778488 53
-0.821725 -0.206624 -0.157611 50
-0.828463 -0.367389 -0.138206 47
-0.825678 -0.206865 -0.21856 47
-0.830785 -0.369431 -0.201588 44
-7.20795 -1.76656 1.70255 33
-7.27052 -3.24843 2.12149 35
-7.28393 -1.7865 1.17965 30
-7.27464 -3.2351 1.5394 20
-7.28519 -1.78815 0.653232 14
-7.36645 -3.26372 0.983609 33
-1.68693 -0.414841 0.0297127 56
-0.676219 -0.167021 -0.034788 53
-0.821861 -0.202237 -0.0994866 50
-0.846628 -0.369582 -0.0776313 53
-0.822831 -0.202175 -0.157611 50
-0.830375 -0.363046 -0.138206 49
-0.824404 -0.201968 -0.217913 47
-0.830546 -0.363941 -0.201027 44
-7.20835 -1.75466 1.70199 33
-7.27177 -3.23377 2.1202 36
-7.28433 -1.77447 1.17926 32
-7.27355 -3.21942 1.53797 35
-7.3004 -1.77837 0.654322 17
-7.34887 -3.24212 0.980566 33
-1.6828 -0.410715 0.0296255 56
-0.671657 -0.164662 -0.0345255 55
-0.831823 -0.203286 -0.100704 52
-0.847272 -0.368104 -0.0776313 53
-0.820797 -0.200161 -0.157135 50
-0.828749 -0.360599 -0.137814 49
-0.824755 -0.200529 -0.217913 47
-0.824434 -0.359677 -0.199342 44
-7.2127 -1.71577 1.70087 35
-7.27699 -3.19206 2.11697 35
-7.29352 -1.73631 1.17926 32
-7.26726 -3.17273 1.5332 35
-7.28993 -1.73679 0.652579 21
-7.36347 -3.2026 0.980262 33
-1.68972 -0.403349 0.0297127 56
-3.15428 -1.36631 0.178335 3
-0.67251 -0.161143 -0.0345255 53
-0.830462 -0.198355 -0.100399 53
-0.84005 -0.359694 -0.0767615 55
-0.826576 -0.197135 -0.158087 50
-0.828362 -0.355269 -0.137423 47
-0.825759 -0.196352 -0.217913 47
-0.82184 -0.353406 -0.198219 42
-7.20857 -1.7015 1.69918 33
-7.26927 -3.17355 2.11309 33
-7.29414 -1.72301 1.17887 32
-7.26209 -3.15388 1.53082 35
-7.29295 -1.72406 0.652579 21
-7.35311 -3.18284 0.978132 33
-1.68563 -0.398957 0.0296255 56
-3.13604 -1.35187 0.177157 3
-0.672791 -0.159969 -0.0345255 55
-0.828391 -0.196337 -0.100095 52
-0.842963 -0.359215 -0.076979 55
-0.82453 -0.195131 -0.157611 50
-0.82898 -0.353823 -0.137423 49
-0.826135 -0.194766 -0.217913 47
-0.817987 -0.35003 -0.197096 42
-7.21529 -1.66192 1.69862 35
-7.27303 -3.12844 2.10921 35
-7.29614 -1.68186 1.1777 32
-7.26271 -3.10904 1.52748 33
-7.29246 -1.68234 0.651707 20
-7.35882 -3.13813 0.976611 33
-1.69256 -0.391247 0.0297127 56
-3.14331 -1.33489 0.177157 3
-0.673619 -0.156444 -0.0345255 55
-0.827023 -0.191297 -0.0997908 53
-0.847123 -0.355773 -0.0771964 53
-0.823181 -0.190119 -0.157135 50
-0.828551 -0.348508 -0.137031 47
-0.824789 -0.1899 -0.217266 47
-0.826588 -0.348475 -0.198781 44
-7.20602 -1.64787 1.69581 35
-7.26294 -3.10908 2.10469 33
-7.29395 -1.66929 1.17692 33
-7.2591 -3.09251 1.52558 33
-7.28567 -1.66739 0.650836 17
-7.34775 -3.11977 0.974482 32
-1.68106 -0.385509 0.0294946 56
-3.13391 -1.32507 0.176503 3
-0.673891 -0.155268 -0.0345255 55
-0.829742 -0.190549 -0.100095 53
-0.84545 -0.353321 -0.076979 53
-0.821119 -0.188138 -0.156659 50
-0.826885 -0.346096 -0.136639 49
-0.822764 -0.187926 -0.21662 47
-0.829375 -0.348131 -0.199342 44
-7.21455 -1.61012 1.69581 35
-7.26301 -3.06569 2.10017 33
-7.30019 -1.63054 1.17653 33
-7.25656 -3.04811 1.52177 33
-7.28673 -1.62886 0.650182 15
-7.35026 -3.0755 0.972656 33
-1.68787 -0.378084 0.0295818 58
-0.672231 -0.151312 -0.0343942 55
-0.830728 -0.186202 -0.100095 53
-0.84493 -0.348077 -0.0767615 53
-0.82206 -0.183979 -0.156659 50
-0.826409 -0.340808 -0.136248 49
-0.826063 -0.184281 -0.217266 49
-0.824448 -0.340954 -0.197658 44
-7.2028 -1.59563 1.69244 35
-7.25945 -3.04927 2.09758 33
-7.30302 -1.6178 1.17653 33
-7.25282 -3.03165 1.51986 33
-7.28956 -1.61614 0.650182 15
-7.34187 -3.05694 0.970831 33
-1.68364 -0.374057 0.0294946 56
-0.674932 -0.150677 -0.0345255 53
-0.826205 -0.183683 -0.0994866 52
-0.840937 -0.344688 -0.0763266 55
-0.82238 -0.182544 -0.156659 50
-0.827002 -0.339365 -0.136248 47
-0.824024 -0.182322 -0.21662 47
-0.825042 -0.339514 -0.197658 44
-7.20922 -1.55486 1.69188 33
-7.26246 -3.0044 2.0937 33
-7.30442 -1.5767 1.17536 33
-7.25323 -2.98581 1.51652 33
-7.29089 -1.5751 0.649528 15
-7.34912 -3.0134 0.969614 32
-1.68564 -0.364943 0.0294946 56
-0.670856 -0.145971 -0.0342629 53
-0.832039 -0.180253 -0.100095 53
-0.84279 -0.340133 -0.0763266 53
-0.823356 -0.178092 -0.156659 50
-0.828768 -0.33503 -0.136248 47
-0.82736 -0.178366 -0.217266 47
-0.824614 -0.334118 -0.197096 44
-7.19736 -1.54048 1.68851 33
-7.26769 -2.99172 2.0937 35
-7.30206 -1.56419 1.17457 33
-7.24254 -2.96663 1.51319 33
-7.29607 -1.56289 0.649746 15
-7.34695 -2.99903 0.968701 32
-1.68383 -0.361477 0.0294509 58
-0.67111 -0.1448 -0.0342629 55
-0.827467 -0.17791 -0.0994866 53
-0.843382 -0.338662 -0.0763266 53
-0.816464 -0.175123 -0.15523 50
-0.824779 -0.331716 -0.135465 47
-0.822945 -0.17592 -0.215973 49
-0.822884 -0.331899 -0.196535 44
-7.20532 -1.50277 1.68851 33
-7.26484 -2.94762 2.08853 35
-7.05875 -1.47351 1.13399 1
-7.25291 -2.92809 1.51223 35
-7.30145 -1.52544 0.649528 18
-7.34875 -2.95496 0.966876 32
-1.68809 -0.35346 0.0294946 58
-0.671859 -0.141284 -0.0342629 53
-0.825958 -0.17307 -0.0991823 52
-0.842833 -0.333313 -0.0761091 53
-0.822146 -0.171985 -0.156182 50
-0.826505 -0.327393 -0.135465 49
-0.82619 -0.172241 -0.21662 50
-0.817833 -0.324851 -0.19485 42
-7.19601 -1.48773 1.6857 35
-7.26326 -2.93222 2.08659 35
-7.29104 -1.50868 1.17106 35
-7.25397 -2.91233 1.51128 36
-7.28459 -1.50865 0.647785 20
-7.35159 -2.94121 0.966571 32
-1.67652 -0.347691 0.0292764 55
-0.667215 -0.139103 -0.0340004 53
-0.821398 -0.170627 -0.0985738 52
-0.845726 -0.332766 -0.0763266 53
-0.817637 -0.169561 -0.15523 50
-0.829367 -0.326867 -0.135856 49
-0.819422 -0.169201 -0.21468 49
-0.82292 -0.325238 -0.195973 41
-7.20156 -1.4483 1.68514 36
-7.2678 -2.88841 2.08336 33
-7.30394 -1.47018 1.17184 36
-7.25999 -2.8707 1.50937 35
-7.29997 -1.47069 0.648439 27
-7.35355 -2.89593 0.964746 29
-1.67587 -0.338415 0.0292328 56
-0.667934 -0.135607 -0.0340004 53
-0.827175 -0.167156 -0.0991823 53
-0.842821 -0.326509 -0.0758917 53
-0.823356 -0.166098 -0.156182 50
-0.826529 -0.320564 -0.135073 49
-0.820296 -0.164909 -0.21468 47
-0.817871 -0.318094 -0.194288 41
-7.19905 -1.43603 1.68402 36
-7.26834 -2.87394 2.08207 33
-7.29275 -1.456 0.647567 33
-1.67891 -0.335978 0.0292764 58
-0.670618 -0.134929 -0.0341317 52
-0.820164 -0.164262 -0.0982696 53
-0.84339 -0.325038 -0.0758917 53
-0.818829 -0.163706 -0.15523 50
-0.833984 -0.321826 -0.136248 47
-0.820583 -0.163477 -0.21468 47
-0.820692 -0.317558 -0.19485 42
-7.20193 -1.39613 1.6829 36
-7.30272 -1.41827 0.647785 36
-1.6831 -0.327658 0.02932 58
-0.673766 -0.13189 -0.0342629 55
-0.825886 -0.160906 -0.0988781 53
-0.840433 -0.318826 -0.0754568 53
-0.819675 -0.159416 -0.15523 52
-0.824086 -0.313152 -0.13429 47
-0.823799 -0.159633 -0.215327 49
-0.813257 -0.309738 -0.192604 42
-7.19455 -1.38298 1.68065 35
-7.03252 -1.35313 1.12619 1
-3.16604 -1.21712 0.651981 9
-7.02637 -1.35193 0.622946 1
-3.08884 -1.18303 0.401293 11
-1.67385 -0.322835 0.0291455 59
-0.66664 -0.129303 -0.0338691 53
-1.70526 -0.648446 -0.0312398 38
-0.8237 -0.159142 -0.0985738 53
-0.840988 -0.317358 -0.0754568 53
-0.819952 -0.157986 -0.15523 50
-0.826936 -0.312599 -0.134682 47
-0.81696 -0.156841 -0.213387 47
-0.818288 -0.310212 -0.193727 42
-7.20169 -1.34529 1.68065 36
-7.03466 -1.31538 1.12541 1
-3.13775 -1.188 0.644832 3
-7.03068 -1.3159 0.622728 1
-3.12284 -1.17738 0.404944 11
-1.67792 -0.314818 0.0291891 58
-0.669762 -0.126268 -0.0340004 53
-1.70618 -0.638924 -0.0311962 53
-0.826962 -0.155281 -0.0988781 53
-0.842638 -0.312951 -0.0754568 53
-0.823154 -0.154281 -0.155706 52
-0.828561 -0.308265 -0.134682 47
-0.820117 -0.153144 -0.214033 47
-0.813069 -0.30333 -0.192042 45
-7.18965 -1.33006 1.67728 36
-7.03208 -1.3022 1.12463 1
-3.16298 -1.19065 0.649598 2
-7.02317 -1.30181 0.621856 1
-3.12257 -1.17105 0.40464 1
-1.67115 -0.310233 0.0290583 58
-0.667526 -0.124646 -0.0338691 53
-1.70261 -0.634188 -0.0311089 53
-0.819911 -0.152489 -0.0979654 50
-0.847846 -0.31323 -0.0758917 53
-0.821009 -0.152401 -0.15523 52
-0.829098 -0.306818 -0.134682 47
-0.818035 -0.151134 -0.213387 47
-0.818155 -0.303632 -0.193165 45
-7.19434 -1.29071 1.67672 35
-7.03417 -1.26326 1.12385 1
-3.14157 -1.1638 0.643879 2
-7.03011 -1.26379 0.621856 1
-3.13119 -1.15501 0.404944 2
-1.67767 -0.302361 0.0291455 58
-1.70611 -0.625669 0.0934197 47
-0.670627 -0.121589 -0.0340004 55
-1.70133 -0.623235 -0.0310216 50
-0.825609 -0.148923 -0.0985738 53
-0.844802 -0.30706 -0.0754568 53
-0.821821 -0.147956 -0.15523 50
-0.830693 -0.302473 -0.134682 47
-0.821192 -0.147271 -0.214033 49
-0.817502 -0.298353 -0.192604 44
-7.19876 -1.27984 1.67728 36
-7.03128 -1.25135 1.12307 1
-3.14359 -1.15832 0.643879 2
-7.02005 -1.24934 0.620767 1
-3.12601 -1.14751 0.404031 11
-1.67081 -0.298122 0.0290146 64
-1.70709 -0.622988 0.0934197 47
-0.665922 -0.119546 -0.0337378 55
-1.70007 -0.619403 -0.030978 50
-0.820955 -0.146761 -0.0979654 53
-0.845337 -0.305586 -0.0754568 53
-0.817244 -0.145669 -0.154278 50
-0.83122 -0.301022 -0.134682 49
-0.81907 -0.14542 -0.213387 47
-0.820255 -0.297912 -0.193165 45
-7.19576 -1.24047 1.67504 35
-7.30298 -1.26024 1.1656 39
-3.1425 -1.13987 0.642449 2
-7.02628 -1.21379 0.620767 1
-3.12965 -1.13028 0.403727 2
-1.67476 -0.290086 0.0290583 44
-1.70328 -0.611492 0.0930272 47
-0.666539 -0.116058 -0.0337378 55
-1.70083 -0.60994 -0.0309344 52
-0.821712 -0.14246 -0.0979654 50
-0.839899 -0.298614 -0.0748044 53
-0.817971 -0.14153 -0.154278 52
-0.82582 -0.294142 -0.133507 49
-0.819795 -0.141272 -0.213387 47
-0.821803 -0.293614 -0.193165 45
-7.19551 -1.2275 1.67447 33
-7.03254 -1.20099 1.12189 1
-3.14237 -1.133 0.641972 2
-7.04312 -1.20404 0.622074 1
-3.11528 -1.11892 0.401597 2
-1.6901 -0.289389 0.02932 14
-1.702 -0.607673 0.0928963 47
-1.69719 -0.605279 -0.0308471 50
-0.82196 -0.141026 -0.0979654 50
-0.842762 -0.297991 -0.0750219 53
-0.818217 -0.140103 -0.154278 50
-0.824009 -0.291863 -0.133116 47
-0.820065 -0.139698 -0.213387 47
-0.815442 -0.289694 -0.191481 45
-7.19244 -1.18697 1.67223 35
-7.03163 -1.16171 1.12072 1
-3.13439 -1.11159 0.639113 2
-7.0569 -1.16714 0.622728 1
-3.11193 -1.09873 0.40038 2
-1.70392 -0.282571 0.0295382 12
-1.70055 -0.596789 0.0926346 49
-1.69572 -0.594421 -0.0307599 52
-0.822711 -0.136577 -0.0979654 53
-0.841963 -0.292744 -0.0748044 53
-0.821385 -0.136071 -0.154754 50
-0.823249 -0.286576 -0.132724 49
-0.818402 -0.135013 -0.21274 47
-0.814702 -0.284461 -0.190919 45
-7.19429 -1.17567 1.67223 35
-7.02877 -1.14864 1.11994 1
-7.04418 -1.15241 0.62142 1
-3.0998 -1.08835 0.398555 2
-1.73155 -0.284025 0.0300181 12
-1.69924 -0.592991 0.0925038 49
-0.66999 -0.110639 -0.0338691 55
-1.69912 -0.592289 -0.0308035 52
-0.820499 -0.134743 -0.0976611 50
-0.837774 -0.289621 -0.0743695 53
-0.821621 -0.134637 -0.154754 50
-0.826077 -0.285959 -0.133116 49
-0.816252 -0.1332 -0.212093 47
-0.8129 -0.282227 -0.190358 44
-7.19814 -1.13635 1.67167 36
-7.02493 -1.11028 1.11838 1
-7.28135 -1.15205 0.641902 36
-3.11484 -1.07535 0.399772 2
-1.76511 -0.280022 0.0305853 8
-1.69996 -0.58327 0.092373 49
-0.67056 -0.107129 -0.0338691 58
-1.69747 -0.581751 -0.0307162 53
-0.826096 -0.131215 -0.0982696 53
-0.841633 -0.286044 -0.074587 55
-0.81989 -0.129953 -0.154278 50
-0.825181 -0.280966 -0.132724 47
-0.816938 -0.128924 -0.212093 47
-0.816668 -0.278767 -0.190919 45
-7.1951 -1.12429 1.67054 35
-7.29992 -1.14194 1.16209 41
-7.28581 -1.13972 0.64212 32
-3.10948 -1.06803 0.398859 3
-1.69851 -0.579786 0.0922421 49
-0.66828 -0.105574 -0.0337378 58
-1.69375 -0.577163 -0.030629 53
-0.821397 -0.129155 -0.0976611 53
-0.830355 -0.280525 -0.0734997 55
-0.817691 -0.128146 -0.153802 50
-0.82567 -0.279525 -0.132724 47
-0.819549 -0.127866 -0.21274 50
-0.810198 -0.275095 -0.189235 44
-7.22016 -1.08951 1.67504 27
-7.30824 -1.10407 1.16248 41
-7.28164 -1.10135 0.641248 27
-3.14088 -1.0605 0.402206 3
-1.70153 -0.570884 0.0922421 49
-0.666355 -0.101702 -0.0336066 56
-1.69665 -0.568583 -0.030629 53
-0.822062 -0.124852 -0.0976611 53
-0.836531 -0.277769 -0.0739346 53
-0.815902 -0.123642 -0.153325 50
-0.822445 -0.273613 -0.131941 47
-0.815408 -0.123004 -0.211447 47
-0.813934 -0.271633 -0.189796 45
-7.13531 -1.06399 1.65482 14
-7.29794 -1.08949 1.16053 39
-7.02245 -1.04966 0.618152 1
-1.69305 -0.564729 0.0917188 47
-0.664062 -0.100172 -0.0334753 56
-1.69291 -0.564027 -0.0305417 53
-0.824733 -0.123781 -0.0979654 53
-0.837015 -0.276308 -0.0739346 55
-0.816116 -0.122218 -0.153325 52
-0.820581 -0.271389 -0.13155 49
-0.822811 -0.122493 -0.213387 50
-0.814406 -0.270212 -0.189796 45
-7.06862 -1.01499 1.63798 26
-7.02508 -1.00999 1.11604 1
-7.01077 -1.00917 0.616627 1
-1.69609 -0.55556 0.0917188 49
-0.657163 -0.0956301 -0.0330815 55
-1.69356 -0.554076 -0.0304981 53
-0.820478 -0.118615 -0.0973569 53
-0.836085 -0.271141 -0.0737171 53
-0.816765 -0.1178 -0.153325 52
-0.824335 -0.267865 -0.131941 49
-0.825832 -0.118522 -0.214033 50
-0.808921 -0.263498 -0.188112 45
-7.06538 -1.0032 1.63685 26
-7.02177 -0.998257 1.11526 1
-7.00019 -0.995181 0.615537 1
-1.69696 -0.552895 0.0917188 49
-0.662273 -0.0951831 -0.033344 55
-1.6969 -0.551899 -0.0305417 53
-0.82312 -0.117673 -0.0976611 53
-0.834191 -0.268904 -0.0734997 55
-0.8194 -0.116716 -0.153802 52
-0.824801 -0.266426 -0.131941 49
-0.821254 -0.116411 -0.21274 50
-0.816273 -0.26452 -0.189796 45
-7.07053 -0.966195 1.63685 26
-7.01956 -0.960475 1.11409 1
-7.01007 -0.960413 0.615973 1
-7.02941 -2.27081 0.901464 1
-1.69508 -0.542468 0.0914571 47
-0.660273 -0.0914923 -0.0332127 55
-1.69967 -0.543303 -0.0305417 53
-0.823725 -0.113362 -0.0976611 53
-0.828431 -0.262383 -0.0728473 55
-0.822412 -0.112897 -0.154278 52
-0.826185 -0.262103 -0.131941 49
-0.81944 -0.11193 -0.212093 49
-0.813013 -0.258738 -0.188673 45
-7.0648 -0.95411 1.63517 26
-7.24801 -2.35267 2.02973 45
-7.01633 -0.947562 1.11331 1
-6.94633 -2.2412 1.41072 1
-7.00434 -0.947177 0.61532 1
-7.04753 -2.2631 0.903289 1
-3.11113 -0.420934 0.0541897 35
-1.6984 -0.540272 0.0915879 50
-0.660431 -0.0903397 -0.0332127 55
-1.69109 -0.537283 -0.0303672 52
-0.821462 -0.111594 -0.0973569 53
-0.831259 -0.261698 -0.0730648 53
-0.820176 -0.111136 -0.153802 52
-0.82194 -0.25915 -0.131158 49
-0.822028 -0.110818 -0.21274 50
-0.815781 -0.258067 -0.189235 47
-7.0676 -0.914326 1.63461 27
-6.97306 -2.22159 1.94895 1
-7.30299 -0.946014 1.15819 41
-7.23671 -2.29193 1.46743 42
-7.00442 -0.908626 0.614884 1
-7.34125 -2.31388 0.939494 39
-3.11584 -0.404416 0.0542333 32
-1.69892 -0.530324 0.0914571 50
-0.665862 -0.0874048 -0.0334753 55
-1.69398 -0.528125 -0.0303672 53
-0.822054 -0.107148 -0.0973569 53
-0.830287 -0.256448 -0.0728473 55
-0.815896 -0.106073 -0.152849 50
-0.823286 -0.254843 -0.131158 49
-0.817824 -0.105758 -0.211447 47
-0.814843 -0.252914 -0.188673 45
-7.07145 -0.903531 1.63517 26
-6.98613 -2.21234 1.95154 1
-7.01053 -0.896991 1.11136 1
-7.23602 -2.27782 1.46648 38
-7.00846 -0.896715 0.615102 1
-7.3283 -2.29714 0.937364 32
-3.10663 -0.397712 0.0540588 18
-1.69736 -0.526909 0.0913262 50
-0.666014 -0.0862425 -0.0334753 55
-1.69967 -0.52666 -0.0304544 53
-0.819759 -0.105544 -0.0970526 55
-0.83311 -0.255743 -0.0730648 53
-0.81608 -0.104648 -0.152849 52
-0.826085 -0.254144 -0.13155 49
-0.815611 -0.104029 -0.2108 49
-0.812916 -0.250902 -0.188112 47
-6.84878 -0.838705 1.58238 1
-7.24624 -2.2546 2.02133 35
-7.01758 -0.860572 1.11175 1
-7.23573 -2.23754 1.4641 33
-7.0055 -0.860322 0.614448 1
-7.32837 -2.25508 0.935843 32
-3.11108 -0.382286 0.0541025 24
-1.70249 -0.518748 0.0914571 50
-0.6615 -0.082149 -0.0332127 55
-1.69514 -0.515848 -0.0303236 53
-0.822764 -0.10155 -0.0973569 53
-0.827296 -0.249183 -0.0724124 55
-0.819036 -0.100812 -0.153325 52
-0.822685 -0.248362 -0.130767 49
-0.818525 -0.100189 -0.211447 49
-0.823528 -0.24952 -0.190358 47
-7.06549 -0.852685 1.63236 27
-7.24324 -2.23981 2.01939 41
-7.01662 -0.848027 1.11136 1
-7.23298 -2.22147 1.46267 32
-7.00451 -0.847795 0.61423 1
-7.32044 -2.23865 0.934322 32
-3.10685 -0.375715 0.0540152 29
-1.70339 -0.515776 0.0914571 50
-0.664121 -0.0812926 -0.033344 58
-1.69365 -0.512159 -0.0302799 53
-0.82294 -0.100114 -0.0973569 55
-0.830112 -0.248466 -0.0726299 53
-0.814337 -0.0987998 -0.152373 52
-0.820756 -0.246203 -0.130375 49
-0.821114 -0.0989018 -0.212093 50
-0.816976 -0.245936 -0.188673 47
-7.06274 -0.81361 1.63068 26
-7.23908 -2.19567 2.01487 33
-7.01865 -0.809769 1.11097 1
-7.23277 -2.18002 1.46028 32
-7.00405 -0.809314 0.613794 1
-7.32531 -2.19687 0.933409 32
-3.11374 -0.360014 0.0541025 30
-1.70137 -0.505118 0.0911954 50
-0.662057 -0.0775289 -0.0332127 56
-1.694 -0.502271 -0.0302363 53
-0.818539 -0.0950956 -0.0967484 55
-0.82663 -0.242686 -0.0721949 53
-0.814859 -0.0943923 -0.152373 52
-0.819711 -0.241049 -0.129984 49
-0.814422 -0.0937848 -0.210153 50
-0.815962 -0.240809 -0.188112 47
-6.84858 -0.778083 1.5807 1
-7.23828 -2.18163 2.01357 33
-7.01024 -0.796405 1.10941 1
-7.22246 -2.16316 1.45742 30
-7.0005 -0.796526 0.613359 1
-7.322 -2.18195 0.932496 32
-3.10939 -0.354016 0.0540152 29
-1.69746 -0.500722 0.0909337 50
-0.662192 -0.0763733 -0.0332127 55
-1.69248 -0.498601 -0.0301927 55
-0.82117 -0.0939447 -0.0970526 55
-0.817504 -0.2384 -0.0713251 52
-0.817462 -0.093244 -0.152849 53
-0.820131 -0.239618 -0.129984 47
-0.819384 -0.0928991 -0.211447 50
-0.814048 -0.238686 -0.18755 47
-7.06582 -0.764022 1.63011 26
-7.24034 -2.14096 2.01099 33
-7.01432 -0.759689 1.10941 1
-7.22898 -2.12393 1.45647 32
-7.28189 -0.789888 0.637762 36
-7.32618 -2.14149 0.931584 32
-3.11369 -0.337999 0.0540588 26
-1.69767 -0.491127 0.0908029 50
-0.657618 -0.0723693 -0.0329502 58
-1.69507 -0.489732 -0.0301927 56
-0.819183 -0.0893789 -0.0967484 55
-0.821132 -0.234815 -0.0715426 52
-0.813058 -0.0884401 -0.151897 52
-0.823703 -0.236157 -0.130375 49
-0.815057 -0.0880968 -0.210153 50
-0.817624 -0.235107 -0.188112 47
-7.06217 -0.752407 1.62899 26
-7.23711 -2.12627 2.00905 32
-7.00322 -0.747362 1.10746 1
-7.22561 -2.10924 1.45504 33
-7.00342 -0.74737 0.613141 1
-7.31524 -2.12581 0.929758 32
-3.10433 -0.331507 0.0538843 21
-1.69364 -0.487067 0.0905412 50
-0.652778 -0.0706943 -0.0326876 56
-1.69112 -0.485381 -0.0301054 56
-0.82179 -0.0883531 -0.0970526 55
-0.823932 -0.234075 -0.07176 52
-0.815652 -0.0872778 -0.152373 52
-0.821743 -0.23403 -0.129984 49
-0.815209 -0.0866741 -0.210153 50
-0.813315 -0.232457 -0.186989 47
-7.06359 -0.715174 1.62843 27
-7.2385 -2.08693 2.00647 33
-7.00704 -0.710683 1.10746 1
-7.22911 -2.07061 1.45361 35
-7.27967 -0.739551 0.637109 36
-7.31673 -2.08476 0.928541 32
-3.10348 -0.315538 0.0538407 17
-1.69377 -0.477508 0.0904104 50
-0.65314 -0.0672754 -0.0326876 56
-1.69355 -0.476815 -0.0301054 59
-0.814834 -0.0833045 -0.0961399 56
-0.81796 -0.227714 -0.0711077 52
-0.813641 -0.0829038 -0.151897 53
-0.818208 -0.228369 -0.129201 49
-0.818041 -0.0827859 -0.2108 50
-0.819205 -0.229536 -0.188112 47
-6.84665 -0.681183 1.57789 1
-7.23285 -2.07163 2.00388 33
-6.99598 -0.69723 1.10551 1
-7.22835 -2.05538 1.45266 33
-7.2859 -0.727338 0.637544 32
-7.31797 -2.0713 0.928237 33
-3.10906 -0.310074 0.0539279 14
-1.6946 -0.474551 0.0904104 50
-0.653256 -0.0661353 -0.0326876 56
-1.69438 -0.473858 -0.0301054 74
-0.819917 -0.0823699 -0.0967484 55
-0.81596 -0.225608 -0.0708902 52
-0.813785 -0.0814836 -0.151897 52
-0.81623 -0.226268 -0.128809 49
-0.820602 -0.0814496 -0.211447 50
-0.814918 -0.226773 -0.186989 47
-6.84296 -0.643447 1.57621 1
-7.24163 -2.03181 2.00323 35
-7.00703 -0.660062 1.10668 1
-7.22956 -2.01487 1.45075 35
-7.27485 -0.686506 0.636237 36
-7.32907 -2.03168 0.928237 33
-3.10068 -0.292855 0.0537534 12
-1.70195 -0.466709 0.090672 50
-0.648622 -0.0622476 -0.0324251 56
-1.69933 -0.465351 -0.030149 90
-0.810468 -0.0770106 -0.0955314 55
-0.82193 -0.222663 -0.0713251 50
-0.814214 -0.0770794 -0.151897 52
-0.824541 -0.223973 -0.129984 50
-0.813803 -0.0764865 -0.209507 50
-0.813787 -0.221707 -0.186427 45
-7.05743 -0.652387 1.62562 15
-7.23353 -2.01592 2 33
-7.00314 -0.6486 1.1059 1
-7.22834 -2.00093 1.4498 33
-7.27852 -0.674037 0.636455 36
-7.31312 -2.01488 0.925803 33
-3.10617 -0.287902 0.0538407 11
-1.69306 -0.461384 0.0901487 52
-0.656188 -0.0618021 -0.0328189 58
-1.69291 -0.460397 -0.0300181 90
-0.81553 -0.0761906 -0.0961399 55
-0.822318 -0.221228 -0.0713251 50
-0.814347 -0.0756582 -0.151897 52
-0.82255 -0.221877 -0.129592 50
-0.81634 -0.0752836 -0.210153 50
-0.814134 -0.220428 -0.186427 47
-7.07046 -0.61627 1.62787 1
-7.24131 -1.97864 1.99936 33
-7.00398 -0.611708 1.10551 1
-7.2289 -1.96174 1.44789 35
-7.2744 -0.636539 0.635801 36
-7.32117 -1.97591 0.925499 35
-3.09763 -0.271308 0.0536661 11
-1.69545 -0.452512 0.0901487 52
-0.651528 -0.0579337 -0.0325564 56
-1.69522 -0.451822 -0.0300181 85
-0.810974 -0.0714921 -0.0955314 56
-0.81625 -0.214975 -0.0706728 50
-0.812274 -0.071325 -0.151421 52
-0.818933 -0.216279 -0.128809 49
-0.819117 -0.0713562 -0.2108 50
-0.812926 -0.215524 -0.185866 45
-7.06667 -0.603515 1.62674 1
-7.2331 -1.96283 1.99613 33
-6.99765 -0.598853 1.10433 1
-7.22318 -1.9453 1.44599 35
-7.27301 -0.623629 0.635583 35
-7.31742 -1.9612 0.924586 33
-3.09565 -0.265149 0.0536225 11
-1.689 -0.447614 0.0897562 52
-0.656603 -0.0572195 -0.0328189 56
-1.69359 -0.448217 -0.0299745 79
-0.81357 -0.070286 -0.0958357 56
-0.811813 -0.212263 -0.0702379 50
-0.817289 -0.0703196 -0.152373 52
-0.821694 -0.215489 -0.129201 49
-0.816846 -0.0695827 -0.210153 50
-0.813301 -0.214105 -0.185866 45
-7.07226 -0.565466 1.62731 1
-7.23195 -1.92056 1.9929 33
-7.00079 -0.560983 1.10433 1
-7.22852 -1.9062 1.44503 33
-7.27876 -0.584468 0.635801 36
-7.31832 -1.91906 0.923369 35
-3.097 -0.248936 0.0536225 11
-1.6914 -0.438469 0.0897562 52
-0.659383 -0.0539793 -0.0329502 56
-1.69599 -0.439047 -0.0299745 74
-0.816412 -0.0660791 -0.0961399 56
-0.810504 -0.207378 -0.0700204 49
-0.810317 -0.0653177 -0.150945 53
-0.818035 -0.209929 -0.128418 49
-0.817199 -0.0653048 -0.210153 50
-0.814447 -0.209702 -0.185866 47
-7.078 -0.554736 1.62843 1
-7.22829 -1.90608 1.99096 33
-6.99674 -0.5496 1.10355 1
-7.22946 -1.89296 1.44456 35
-7.27233 -0.57118 0.635147 36
-7.31653 -1.90631 0.922761 33
-3.09493 -0.243336 0.0535789 11
-1.68484 -0.433924 0.0893636 50
-0.654498 -0.0524401 -0.0326876 58
-1.68466 -0.432942 -0.0297564 74
-0.814041 -0.0646045 -0.0958357 56
-0.808454 -0.205336 -0.069803 52
-0.807983 -0.0637146 -0.150468 53
-0.816011 -0.207878 -0.128026 49
-0.810088 -0.0633263 -0.208214 52
-0.814775 -0.208422 -0.185866 47
-7.07352 -0.517137 1.62674 1
-7.22615 -1.86645 1.98773 32
-6.99706 -0.512778 1.10316 1
-7.22469 -1.85268 1.4417 35
-7.27512 -0.534364 0.635147 35
-7.3192 -1.86613 0.921848 35
-3.10859 -0.228579 0.053797 9
-1.68709 -0.425096 0.0893636 52
-0.647285 -0.0485821 -0.0322938 56
-1.67229 -0.420711 -0.0294946 15
-0.816843 -0.0605205 -0.0961399 56
-0.809483 -0.201242 -0.069803 50
-0.810743 -0.0598006 -0.150945 53
-0.819481 -0.204213 -0.128418 49
-0.815216 -0.059569 -0.209507 52
-0.813496 -0.203548 -0.185304 47
-7.06703 -0.505505 1.62506 1
-7.22004 -1.85143 1.98514 32
-6.99056 -0.500038 1.10199 1
-7.22078 -1.83824 1.44027 35
-7.27604 -0.521666 0.635147 36
-7.31042 -1.8503 0.920327 33
-1.68298 -0.420926 0.089102 52
-0.652349 -0.0478067 -0.0325564 56
-0.811997 -0.0587451 -0.0955314 56
-0.810846 -0.0583855 -0.150945 53
-0.819836 -0.202783 -0.128418 49
-0.812909 -0.0579784 -0.20886 50
-0.816211 -0.202729 -0.185866 49
-7.07695 -0.467742 1.62674 1
-7.21558 -1.81006 1.98126 32
-6.99308 -0.463429 1.10199 1
-7.22078 -1.79803 1.43836 35
-7.28365 -0.483891 0.635583 36
-7.3176 -1.8114 0.920023 33
-1.68759 -0.412708 0.0892328 52
-0.65509 -0.0444402 -0.0326876 58
-0.809817 -0.0543308 -0.0952272 56
-0.811141 -0.0541391 -0.150945 53
-0.816093 -0.197299 -0.127635 49
-0.815612 -0.0538763 -0.209507 52
-0.812533 -0.197275 -0.184742 47
-7.06317 -0.454454 1.62338 1
-7.21873 -1.79747 1.98126 33
-6.99388 -0.451223 1.10199 1
-7.21469 -1.78181 1.43645 35
-7.28199 -0.471018 0.635365 36
-7.31593 -1.79744 0.919414 33
-1.68831 -0.409762 0.0892328 53
-0.655166 -0.0432968 -0.0326876 59
-0.814863 -0.0532324 -0.0958357 56
-0.801567 -0.191655 -0.0689331 47
-0.813683 -0.0528783 -0.151421 53
-0.816436 -0.195875 -0.127635 49
-0.815713 -0.0523103 -0.209507 50
-0.810511 -0.195273 -0.184181 47
-6.97311 -0.410807 1.60204 1
-7.22131 -1.75667 1.97932 33
-6.99622 -0.413376 1.10199 1
-7.21676 -1.74227 1.43502 35
-7.27698 -0.431171 0.634712 33
-7.31107 -1.75434 0.917589 33
-1.68807 -0.400039 0.089102 53
-0.652892 -0.0397194 -0.0325564 58
-1.56625 -0.370244 -0.0274875 17
-0.815139 -0.0488228 -0.0958357 56
-0.797715 -0.186295 -0.0684982 47
-0.809057 -0.0481917 -0.150468 53
-0.81505 -0.19102 -0.127243 50
-0.811154 -0.0477631 -0.208214 50
-0.811556 -0.190884 -0.184181 49
-6.85944 -0.393322 1.57565 1
-7.22202 -1.74349 1.97868 35
-7.26804 -0.417927 1.14492 38
-7.21025 -1.72738 1.43312 33
-7.27523 -0.418327 0.634494 33
-7.31382 -1.74286 0.917589 33
-1.68384 -0.39623 0.0888403 53
-0.65296 -0.0385798 -0.0325564 59
-1.5669 -0.36751 -0.0274875 20
-0.815215 -0.0475424 -0.0958357 56
-0.795616 -0.184326 -0.0682808 45
-0.80914 -0.0467795 -0.150468 53
-0.817784 -0.19017 -0.127635 49
-0.811236 -0.0463473 -0.208214 52
-0.814224 -0.190177 -0.184742 47
-6.8687 -0.357779 1.57733 1
-7.2237 -1.70525 1.97674 35
-7.27506 -0.380123 1.1457 38
-7.20934 -1.68862 1.43121 35
-7.28721 -0.382018 0.635365 33
-7.30351 -1.70003 0.915155 32
-1.68589 -0.387408 0.0888403 53
-0.650654 -0.0351451 -0.0324251 59
-1.56143 -0.357878 -0.0273566 24
-0.810497 -0.0430187 -0.0952272 56
-0.791688 -0.179168 -0.0678459 42
-0.809367 -0.0426835 -0.150468 53
-0.818768 -0.185886 -0.127635 50
-0.811461 -0.0422406 -0.208214 50
-0.810464 -0.1848 -0.183619 49
-6.86683 -0.346867 1.57677 1
-7.21726 -1.69043 1.97416 33
-7.27325 -0.367301 1.14531 36
-7.2075 -1.67492 1.43026 35
-7.28537 -0.369174 0.635147 33
-7.30405 -1.68672 0.91485 33
-1.6817 -0.383342 0.0885786 53
-0.648221 -0.0338844 -0.0322938 59
-1.56936 -0.356836 -0.0274875 23
-0.808092 -0.0414811 -0.094923 56
-0.782292 -0.175547 -0.066976 44
-0.806989 -0.0411501 -0.149992 53
-0.816686 -0.1839 -0.127243 50
-0.811533 -0.0408243 -0.208214 49
-0.810786 -0.183386 -0.183619 47
-6.86866 -0.30851 1.57677 1
-7.2216 -1.65027 1.97286 33
-7.27513 -0.327944 1.14531 36
-7.21167 -1.63481 1.42931 35
-7.28478 -0.329639 0.63493 35
-1.68619 -0.374786 0.0887094 55
-0.653382 -0.0305997 -0.0325564 59
-0.805826 -0.0369988 -0.0946187 56
-0.7808 -0.170765 -0.0667586 42
-0.812103 -0.0369982 -0.150945 52
-0.81282 -0.178534 -0.12646 50
-0.811742 -0.0364329 -0.208214 50
-0.811766 -0.178996 -0.183619 49
-6.86426 -0.297511 1.57565 1
-7.21975 -1.6366 1.97157 33
-7.2707 -0.316302 1.14453 36
-7.20972 -1.62114 1.42835 35
-7.28534 -0.316924 0.63493 32
-1.6819 -0.371047 0.0884478 55
-0.650941 -0.0293522 -0.0324251 59
-0.808362 -0.0358386 -0.094923 56
-0.771374 -0.167232 -0.0658888 42
-0.809714 -0.0354776 -0.150468 52
-0.81554 -0.177655 -0.126852 50
-0.814217 -0.035116 -0.20886 52
-0.809669 -0.177186 -0.183058 47
-6.87303 -0.261842 1.57733 1
-7.22323 -1.59899 1.97028 33
-7.27472 -0.278322 1.14492 36
-7.20825 -1.58252 1.42645 35
-7.29183 -0.280236 0.635365 30
-7.07201 -1.5422 0.883209 1
-3.12966 -0.120522 0.0540588 9
-1.68382 -0.362236 0.0884478 55
-0.648591 -0.0258494 -0.0322938 59
-0.811018 -0.0316982 -0.0952272 55
-0.772239 -0.163191 -0.0658888 42
-0.812336 -0.0314696 -0.150945 52
-0.816459 -0.173382 -0.126852 50
-0.809558 -0.0308191 -0.207567 50
-0.810586 -0.172944 -0.183058 47
-7.0585 -0.256534 1.62001 21
-7.22129 -1.58534 1.96899 35
-7.2752 -0.265625 1.14492 36
-7.21607 -1.56972 1.4274 35
-7.28484 -0.267236 0.634712 30
-7.07469 -1.52986 0.883209 1
-3.11989 -0.114152 0.0538843 9
-1.68201 -0.358769 0.0883169 55
-0.648635 -0.0247173 -0.0322938 59
-0.813552 -0.030371 -0.0955314 56
-0.757916 -0.15869 -0.064584 41
-0.807484 -0.0298788 -0.149992 52
-0.81676 -0.171957 -0.126852 50
-0.812029 -0.0293478 -0.208214 50
-0.810887 -0.171529 -0.183058 47
-6.87716 -0.212728 1.57789 1
-7.22032 -1.54422 1.9664 35
-7.27159 -0.226106 1.14414 36
-7.21459 -1.52988 1.42549 35
-7.28618 -0.227818 0.634712 30
-7.07558 -1.49002 0.882297 1
