# .PCD v0.7 - Point Cloud Data file format
VERSION 0.7
FIELDS x y z intensity
SIZE 4 4 4 4
TYPE F F F F
COUNT 1 1 1 1
WIDTH 1621
HEIGHT 1
VIEWPOINT 0 0 0 1 0 0 0
POINTS 1621
DATA ascii
-1.8932 1.29074 0.197408 41
-2.72162 1.22612 0.361742 15
-1.87916 1.28164 0.0390934 35
-1.44149 0.653078 0.0811207 4
-1.40869 0.639214 -0.0263968 4
-1.06252 0.725554 -0.242845 4
-1.46449 0.662835 -0.249396 4
-0.912029 0.623464 -0.286455 3
-1.03684 0.469563 -0.254372 4
-1.86972 1.28957 0.515482 39
-2.75052 1.24612 0.798709 56
-1.8727 1.29115 0.353933 39
-2.74546 1.24955 0.579062 53
-1.87229 1.29041 0.195883 42
-2.6858 1.227 0.357787 14
-1.87677 1.29398 0.0391806 41
-1.4426 0.662687 0.0813824 4
-1.40543 0.646336 -0.0263968 4
-1.05076 0.725337 -0.24094 4
-0.914817 0.632199 -0.288395 3
-1.0255 0.470957 -0.252126 4
-1.85969 1.28695 0.513236 39
-2.74174 1.24793 0.79677 44
-1.86029 1.28739 0.351982 39
-2.72317 1.24519 0.574773 32
-1.86389 1.28942 0.195229 42
-2.65883 1.22034 0.35444 14
-1.86423 1.29013 0.0389625 42
-1.4369 0.663125 0.0811207 4
-1.40657 0.649829 -0.0264404 4
-1.05554 0.73137 -0.242368 4
-0.921642 0.63931 -0.290982 3
-1.02911 0.474768 -0.253249 3
-1.84073 1.28861 0.509867 39
-2.70225 1.24714 0.787077 26
-1.84746 1.29286 0.350812 41
-2.68765 1.24606 0.568577 27
-1.84488 1.29059 0.193922 42
-2.62763 1.22277 0.351093 14
-1.84722 1.2927 0.0387443 41
-1.4402 0.673793 0.0815132 4
-1.39862 0.655079 -0.0263531 4
-1.20342 0.842826 -0.175851 8
-1.04567 0.732655 -0.24094 4
-0.910381 0.63857 -0.288395 3
-1.02882 0.481173 -0.25381 3
-1.82851 1.28481 0.507059 39
-2.67376 1.23971 0.779323 26
-1.83106 1.28614 0.34808 41
-2.66521 1.24192 0.564287 30
-1.83244 1.28664 0.192832 42
-2.60075 1.21584 0.347747 15
-1.83246 1.28762 0.0384826 41
-1.42997 0.672085 0.0809899 4
-1.40653 0.661748 -0.0265277 4
-1.19789 0.842067 -0.175242 9
-1.05241 0.740135 -0.242845 4
-0.919017 0.647282 -0.291628 3
-1.02798 0.482968 -0.25381 4
-1.8136 1.28903 0.504813 41
-2.66045 1.25108 0.777384 50
-1.81804 1.29173 0.346909 41
-2.65868 1.25586 0.564287 58
-1.8153 1.28932 0.191743 42
-2.56047 1.214 0.343183 27
-1.81755 1.2914 0.038308 42
-1.42632 0.679812 0.0809899 4
-1.39615 0.66614 -0.0263968 4
-1.0444 0.742969 -0.241892 4
-0.911684 0.649279 -0.290335 3
-1.02535 0.488523 -0.25381 4
-1.80166 1.2848 0.502005 41
-2.66263 1.25778 0.778677 56
-1.80373 1.28629 0.344568 41
-2.66314 1.26364 0.565717 58
-1.80494 1.2867 0.190871 42
-2.56283 1.22059 0.343792 26
-1.80512 1.28731 0.0380899 41
-1.42513 0.682301 0.0809899 4
-1.39273 0.667502 -0.0263531 4
-1.04908 0.749075 -0.243321 4
-1.02229 0.489269 -0.253249 3
-1.78503 1.28709 0.499198 41
-2.65841 1.27228 0.779323 56
-1.79118 1.29107 0.343397 42
-2.65892 1.27816 0.566194 58
-1.78629 1.28708 0.189564 44
-2.56333 1.23677 0.344704 27
-1.78845 1.28911 0.0378717 41
-1.42615 0.69167 0.0812516 4
-1.39384 0.676712 -0.0264404 4
-1.03335 0.745745 -0.240464 4
-1.0198 0.494437 -0.253249 4
-1.77292 1.28305 0.49639 41
-2.66055 1.279 0.780615 58
-1.77693 1.2855 0.341056 42
-2.65867 1.28433 0.56667 59
-1.77395 1.28289 0.188474 41
-2.56341 1.24232 0.345008 27
-1.77788 1.28668 0.0376972 42
-1.4182 0.690899 0.0808591 4
-1.39041 0.678055 -0.0263968 4
-1.01894 0.496216 -0.253249 3
-1.75613 1.28542 0.493583 41
-2.65793 1.29549 0.781908 59
-1.758 1.28634 0.338715 41
-2.65632 1.30038 0.567624 64
-1.76096 1.28805 0.187821 44
-2.55888 1.25726 0.345313 29
-1.76507 1.29153 0.0375663 42
-1.42341 0.702957 0.0813824 4
-1.38447 0.684467 -0.0263531 4
-1.75953 1.28936 -0.263168 44
-1.01624 0.501722 -0.253249 4
-1.74625 1.28241 0.491336 41
-2.66435 1.30436 0.784492 65
-1.74802 1.28325 0.337154 42
-2.65625 1.3061 0.5681 68
-1.75068 1.28522 0.186949 44
-2.55022 1.258 0.3444 29
-1.75274 1.28721 0.0373481 44
-1.41782 0.702987 0.0811207 4
-1.39225 0.691302 -0.0265277 4
-1.75351 1.28918 -0.262559 44
-1.00889 0.5001 -0.251564 3
-1.72778 1.28281 0.487967 41
-2.66205 1.31997 0.785785 74
-1.73731 1.28944 0.336373 42
-2.6562 1.3228 0.56953 77
-1.73416 1.28664 0.18586 42
-2.55026 1.27465 0.345313 33
-1.73617 1.28861 0.03713 42
-1.41636 0.711515 0.0812516 4
-1.38202 0.694991 -0.0263968 4
-1.73479 1.28946 -0.260734 44
-1.0128 0.508628 -0.253249 4
-1.71773 1.28 0.485721 42
-2.65325 1.32139 0.783846 59
-1.72516 1.28509 0.334422 42
-2.64927 1.3257 0.568577 52
-1.72791 1.28669 0.185424 44
-2.54581 1.27799 0.345008 33
-1.72568 1.28596 0.0369555 42
-1.41958 0.716222 0.0815132 4
-1.38751 0.700762 -0.0265277 4
-1.7226 1.28506 -0.259213 45
-1.00319 0.506043 -0.251003 3
-1.703 1.2834 0.483475 42
-2.6288 1.32705 0.778677 33
-1.7103 1.28845 0.332861 42
-2.61819 1.32739 0.563334 32
-1.70303 1.28252 0.183463 44
-2.53664 1.29063 0.344704 15
-1.71094 1.28896 0.0367809 42
-1.409 0.720502 0.0811207 4
-1.38592 0.709391 -0.0265713 4
-1.70572 1.28688 -0.257692 47
-1.96681 1.00236 -0.344535 12
-1.00913 0.515862 -0.253249 3
-1.69516 1.28167 0.48179 42
-2.60061 1.31857 0.770922 30
-1.69646 1.2822 0.33052 42
-2.59398 1.32086 0.558568 30
-1.69682 1.28249 0.183027 44
-2.51913 1.28673 0.342575 15
-1.69872 1.2844 0.0365628 42
-1.41009 0.723848 0.0812516 4
-1.69048 1.27862 -0.109615 23
-1.38914 0.714081 -0.0266585 4
-1.69777 1.28506 -0.256779 47
-1.98046 1.01363 -0.347276 12
-1.00615 0.516344 -0.252687 3
-1.67875 1.28312 0.478983 42
-2.5767 1.32292 0.765752 30
-1.68187 1.28506 0.328959 42
-2.56107 1.32052 0.552849 30
-1.68239 1.28501 0.182156 45
-2.51236 1.29991 0.342575 15
-1.68625 1.28842 0.0364319 44
-1.40629 0.731221 0.0812516 4
-1.68376 1.28745 -0.109615 27
-1.38551 0.721103 -0.0266585 4
-1.97952 1.02625 -0.348059 14
-1.00776 0.523833 -0.25381 3
-1.66299 1.27566 0.475052 44
-2.5529 1.31639 0.75929 30
-1.67375 1.28348 0.327788 42
-2.54108 1.31643 0.549036 30
-1.66829 1.27884 0.180848 45
-2.49466 1.29631 0.340445 15
-1.67386 1.28404 0.0362137 44
-1.40944 0.735972 0.0815132 4
-1.67557 1.28583 -0.109221 32
-1.37315 0.717764 -0.0264404 4
-1.97115 1.0263 -0.346884 14
-0.996027 0.520001 -0.251003 4
-1.65606 1.28464 0.475052 42
-2.5286 1.32126 0.754121 30
-1.65898 1.28646 0.326227 44
-2.51675 1.32062 0.545224 30
-1.65348 1.28174 0.179977 44
-2.47882 1.30518 0.339228 21
-1.65724 1.28512 0.0359956 44
-1.40323 0.742426 0.0813824 4
-1.65107 1.2808 -0.10804 35
-1.37367 0.727509 -0.0265277 4
-1.94589 1.02662 -0.343361 14
-0.997515 0.527642 -0.252126 4
-1.63675 1.27376 0.469998 42
-2.50703 1.31561 0.748305 30
-1.647 1.28177 0.324276 42
-2.49488 1.31475 0.540934 32
-1.64338 1.2785 0.179105 44
-2.46995 1.30603 0.338315 27
-1.64514 1.28033 0.0357774 45
-1.40855 0.748369 0.0817749 4
-1.64687 1.28214 -0.107909 38
-1.37461 0.731073 -0.0265713 4
-1.92662 1.02081 -0.340228 14
-0.99228 0.527115 -0.251003 4
-1.62792 1.28109 0.469437 44
-2.4809 1.31855 0.742489 32
-1.6325 1.28426 0.322715 44
-2.47063 1.31858 0.537122 32
-1.62884 1.28093 0.178233 45
-2.45432 1.31428 0.337098 32
-1.63448 1.28583 0.0356902 45
-1.39801 0.752205 0.0813824 4
-1.63229 1.28457 -0.107383 39
-1.36195 0.733546 -0.0263968 4
-1.90835 1.02357 -0.337879 14
-0.995958 0.535738 -0.252687 4
-1.61635 1.27609 0.466629 44
-2.46366 1.31494 0.737966 32
-1.62273 1.2807 0.321155 44
-2.45317 1.3148 0.533785 32
-1.61683 1.27605 0.177144 45
-2.43913 1.3111 0.335273 32
-1.62047 1.27938 0.0354284 44
-1.39463 0.75322 0.0812516 4
-1.62417 1.28277 -0.10699 42
-1.36287 0.737104 -0.0264404 4
-1.61526 1.278 -0.392837 47
-1.90004 1.0234 -0.336705 14
-0.992967 0.536153 -0.252126 4
-1.60203 1.27846 0.464383 44
-2.43571 1.31595 0.731504 32
-1.60636 1.28147 0.319203 42
-2.42705 1.3167 0.529496 32
-1.60257 1.278 0.176272 45
-2.4126 1.31321 0.332535 32
-1.61007 1.28445 0.0353411 45
-1.38628 0.758129 0.0809899 4
-1.61353 1.28814 -0.106727 44
-1.35692 0.7428 -0.0263968 4
-1.60877 1.28616 -0.392837 52
-1.8838 1.02745 -0.334747 14
-0.990146 0.541345 -0.252126 4
-1.5941 1.27668 0.462698 44
-2.42066 1.31331 0.727626 32
-1.59641 1.27809 0.317643 42
-2.40726 1.312 0.525683 32
-1.59645 1.27768 0.175837 45
-2.39504 1.30912 0.330405 33
-1.5959 1.27815 0.0350793 47
-1.39372 0.765328 0.0815132 4
-1.60349 1.2847 -0.106202 45
-1.3666 0.751153 -0.0266149 4
-1.59313 1.2782 -0.389504 52
-1.86466 1.02129 -0.331615 14
-1.59332 1.28062 -0.537993 59
-0.984918 0.540746 -0.251003 3
-1.57771 1.27761 0.459891 45
-2.39445 1.31596 0.721811 32
-1.58372 1.28205 0.316472 44
-2.3853 1.31631 0.522347 33
-1.58371 1.28159 0.175183 47
-2.37054 1.31247 0.327971 33
-1.58142 1.2802 0.0349048 45
-1.38519 0.770444 0.0812516 4
-1.58511 1.28364 -0.105414 45
-1.35814 0.756118 -0.0265277 4
-1.57857 1.28061 -0.387599 53
-1.84847 1.02508 -0.329657 14
-1.57722 1.28132 -0.53476 58
-0.986247 0.548416 -0.252126 3
-1.56814 1.27394 0.457645 44
-2.37522 1.31083 0.716641 32
-1.57404 1.2783 0.314911 44
-2.36581 1.31099 0.518534 33
-1.56987 1.27493 0.173876 47
-2.34894 1.30538 0.325233 33
-1.57531 1.2798 0.0348176 47
-1.38616 0.773829 0.0813824 4
-1.57706 1.28168 -0.105021 45
-1.36337 0.762126 -0.0266585 4
-1.56683 1.27561 -0.385218 52
-1.83588 1.02232 -0.3277 14
-1.5675 1.27796 -0.532173 59
-0.981119 0.547609 -0.251003 3
-1.5558 1.27749 0.45596 45
-2.35378 1.31462 0.712117 33
-1.56161 1.28182 0.31374 44
-2.34415 1.31457 0.515198 35
-1.55763 1.27811 0.173222 47
-2.32908 1.31039 0.323407 35
-1.56301 1.283 0.0346867 45
-1.56261 1.28358 -0.104495 47
-1.35296 0.765345 -0.0265277 4
-1.54898 1.27416 -0.382361 53
-1.81327 1.02226 -0.324568 14
-1.55356 1.27973 -0.529587 59
-0.980365 0.553928 -0.251564 4
-1.54418 1.27245 0.453153 45
-2.33461 1.3093 0.706948 33
-1.54794 1.27512 0.311399 44
-2.3245 1.30946 0.511386 36
-1.54579 1.27291 0.172133 47
-2.31598 1.30837 0.321886 35
-1.55284 1.27963 0.0345121 45
-1.55074 1.27836 -0.103839 47
-1.36251 0.773844 -0.0267458 4
-1.54487 1.2753 -0.381885 52
-1.78782 1.01209 -0.320261 14
-1.53994 1.27347 -0.525707 61
-0.975148 0.553252 -0.250441 3
-1.53166 1.2761 0.451468 45
-2.31068 1.31241 0.701778 35
-1.53912 1.28189 0.311009 44
-2.30267 1.31313 0.508049 36
-1.53505 1.27806 0.171697 47
-2.29162 1.31105 0.319452 35
-1.53844 1.28134 0.0343376 45
-1.54211 1.28486 -0.103708 47
-1.34962 0.776246 -0.0265713 4
-1.53418 1.28049 -0.380933 53
-1.76319 1.01044 -0.316737 14
-1.53325 1.28152 -0.525707 59
-0.978493 0.562133 -0.252126 3
-1.52031 1.27069 0.44866 45
-2.29368 1.30809 0.697255 36
-1.52953 1.27797 0.309448 44
-2.28971 1.31107 0.505666 35
-1.52327 1.27275 0.170607 47
-2.27447 1.30603 0.317323 33
-1.53237 1.28081 0.0342503 45
-1.52647 1.27633 -0.102789 47
-1.3526 0.781088 -0.0266585 4
-1.52442 1.27686 -0.379028 53
-1.75071 1.00738 -0.31478 14
-1.52547 1.27953 -0.523767 59
-0.971262 0.560046 -0.250441 3
-1.5062 1.27234 0.446414 45
-2.27447 1.31246 0.693378 35
-1.51527 1.27958 0.307887 44
-2.26817 1.31406 0.50233 35
-1.5111 1.27562 0.169954 47
-2.24613 1.30549 0.31428 33
-1.51441 1.27887 0.0339886 45
-1.51617 1.28081 -0.102526 47
-1.51028 1.27717 -0.23822 47
-1.51419 1.28139 -0.378076 53
-1.72404 1.00416 -0.310865 14
-1.50977 1.27942 -0.520534 59
-0.970426 0.566343 -0.251003 3
-1.50048 1.27155 0.445291 45
-2.25753 1.30798 0.688854 35
-1.50551 1.27583 0.306326 44
-2.24464 1.30571 0.497564 36
-1.50128 1.27181 0.169082 49
-2.22668 1.29943 0.311846 35
-1.50646 1.27666 0.0338577 47
-1.50823 1.27861 -0.102132 47
-1.50426 1.27659 -0.237612 50
-1.5026 1.27608 -0.375695 53
-1.70094 0.994754 -0.306949 14
-1.49466 1.2711 -0.516008 59
-0.979972 0.574148 -0.25381 3
-1.48803 1.27489 0.443607 45
-2.23397 1.31004 0.683685 35
-1.49318 1.27888 0.305155 44
-2.22506 1.31 0.494705 36
-1.48893 1.27479 0.168428 49
-2.21129 1.30604 0.310629 35
-1.49216 1.27802 0.0336831 47
-1.49204 1.27836 -0.101476 47
-1.48815 1.27637 -0.23609 50
-1.49032 1.27913 -0.374266 55
-1.67656 0.992374 -0.303426 14
-1.48798 1.2789 -0.516008 59
-0.974851 0.578038 -0.253249 4
-1.47495 1.26769 0.440237 45
-2.21501 1.30417 0.678515 35
-1.48346 1.27504 0.303594 45
-2.20586 1.30392 0.490892 35
-1.47726 1.26926 0.167339 49
-2.19405 1.30107 0.3085 35
-1.48235 1.2741 0.0335086 47
-1.48602 1.27771 -0.101214 47
-1.48028 1.2741 -0.235178 50
-1.48251 1.27692 -0.372838 55
-1.66207 0.987762 -0.301077 14
-1.47844 1.27519 -0.513421 61
-0.978038 0.582213 -0.254372 4
-1.46439 1.27246 0.439114 45
-2.19361 1.30712 0.673991 35
-1.46745 1.27468 0.301643 47
-2.18846 1.30918 0.488509 36
-1.47059 1.27698 0.167339 49
-2.16804 1.30108 0.305761 35
-1.46812 1.27528 0.0333341 47
-1.46989 1.27727 -0.100557 47
-1.46423 1.27369 -0.233657 52
-1.4684 1.27821 -0.370933 55
-1.6484 0.991382 -0.299511 14
-1.46629 1.27814 -0.511481 61
-0.972884 0.586078 -0.25381 3
-1.45322 1.26674 0.436307 47
-2.1768 1.3023 0.669468 36
-1.4615 1.27399 0.300863 45
-2.16932 1.30292 0.484696 36
-1.45523 1.26808 0.165814 49
-2.16364 1.30359 0.305457 36
-1.46401 1.2762 0.0332905 47
-1.46202 1.27491 -0.100163 47
-1.4564 1.27134 -0.232744 52
-1.45878 1.27431 -0.369029 53
-1.63185 0.98536 -0.29677 15
-1.46042 1.27752 -0.510188 61
-0.97186 0.587775 -0.25381 3
-1.44269 1.27136 0.435184 47
-2.15134 1.30246 0.663652 36
-1.45111 1.27836 0.300082 45
-2.14987 1.30664 0.481837 36
-1.44296 1.27074 0.16516 49
-2.13557 1.30202 0.302415 35
-1.44793 1.27558 0.0330723 47
-1.45136 1.2795 -0.0999007 47
-1.44229 1.27238 -0.231527 52
-1.44473 1.27543 -0.367124 55
-1.62034 0.990045 -0.295595 15
-1.43925 1.27234 -0.505015 59
-0.964602 0.59033 -0.252687 3
-1.44047 1.27388 0.435184 47
-2.13873 1.29996 0.660421 38
-1.43963 1.27271 0.298131 45
-2.13477 1.30311 0.478977 36
-1.43515 1.26831 0.164506 49
-2.11634 1.29542 0.299981 35
-1.438 1.27172 0.0328978 47
-2.11116 1.29426 0.127961 35
-1.44352 1.27706 -0.0995069 49
-1.43264 1.26831 -0.23031 52
-1.44067 1.27632 -0.366648 55
-1.6165 0.991586 -0.295204 15
-1.43138 1.27029 -0.503075 59
-0.965652 0.593279 -0.253249 4
-1.41904 1.26866 0.430691 49
-2.11725 1.30268 0.655898 39
-1.42536 1.27389 0.29657 45
-2.11747 1.30784 0.476594 36
-1.4227 1.27107 0.163853 49
-2.10085 1.30164 0.298764 35
-1.42759 1.2759 0.0328105 47
-2.09775 1.30173 0.127569 35
-1.43309 1.28127 -0.0992444 49
-1.42206 1.27273 -0.229701 52
-1.42095 1.27262 -0.363315 56
-1.60708 0.997443 -0.294421 15
-1.41573 1.2697 -0.499842 59
-0.966576 0.60105 -0.254372 4
-1.41342 1.26763 0.429568 47
-2.1088 1.30258 0.653959 39
-1.41969 1.27283 0.29579 47
-2.09639 1.29994 0.472305 36
-1.41492 1.26856 0.163199 49
-2.08826 1.2984 0.297243 36
-1.41793 1.27171 0.032636 49
-2.07661 1.29318 0.126391 36
-1.42342 1.2771 -0.0987193 50
-1.41268 1.26832 -0.228484 53
-1.41691 1.27346 -0.362838 55
-1.61163 1.00415 -0.295595 15
-1.40993 1.26893 -0.498549 59
-0.969775 0.605129 -0.255495 3
-1.40496 1.27337 0.429007 49
-2.08783 1.30431 0.649436 38
-1.40752 1.27527 0.294619 47
-2.07937 1.30403 0.469922 38
-1.40295 1.27069 0.162545 49
-2.0625 1.29747 0.294505 38
-1.40777 1.27551 0.0325487 47
-2.05712 1.29607 0.125606 36
-1.41117 1.2795 -0.0983254 49
-1.40234 1.27236 -0.227876 52
-1.405 1.27566 -0.36141 56
-1.61263 1.01651 -0.29677 15
-1.4017 1.27443 -0.497902 59
-0.964528 0.608907 -0.254933 4
-1.39553 1.26926 0.426761 49
-2.06916 1.29772 0.644266 39
-1.39798 1.27107 0.293058 47
-2.06231 1.29889 0.466586 39
-1.39336 1.26643 0.161674 49
-2.04763 1.29314 0.292679 38
-1.39793 1.27148 0.0323742 47
-2.04429 1.29301 0.124952 36
-1.40525 1.2786 -0.0980629 49
-1.39829 1.27314 -0.227572 53
-1.39914 1.2748 -0.360458 56
-1.38855 1.26734 -0.494022 61
-0.975843 0.618361 -0.258303 4
-1.37968 1.26854 0.423953 49
-2.04986 1.30115 0.640389 39
-1.38745 1.27527 0.292278 47
-2.04097 1.30047 0.463249 38
-1.38282 1.27058 0.161238 49
-2.02805 1.29621 0.290854 38
-1.38389 1.27201 0.0321997 49
-2.02463 1.296 0.124167 39
-1.38751 1.27579 -0.0972752 49
-1.61777 1.03749 -0.0329414 15
-1.38408 1.27396 -0.226355 53
-1.37779 1.26904 -0.356648 56
-1.37658 1.26968 -0.492082 61
-0.964259 0.618406 -0.256056 4
-1.37053 1.2641 0.421707 49
-2.03739 1.29826 0.637158 39
-1.37819 1.27075 0.290717 47
-2.02835 1.29744 0.460867 39
-1.37694 1.26961 0.160802 49
-2.01555 1.29271 0.289333 38
-1.37983 1.27273 0.0321561 49
-2.01418 1.2938 0.123644 38
-1.37612 1.26974 -0.0966189 49
-1.61807 1.04166 -0.032985 14
-1.37479 1.26939 -0.225138 53
-1.37017 1.26644 -0.35522 56
-1.37082 1.26879 -0.490789 61
-0.963286 0.61992 -0.256056 4
-1.35855 1.26627 0.420022 49
-2.0125 1.29682 0.631342 38
-1.3661 1.27289 0.289546 47
-2.00938 1.29972 0.458007 39
-1.36503 1.27147 0.160149 49
-2.0025 1.29921 0.28842 38
-1.36424 1.27117 0.0319379 49
-1.9969 1.29755 0.122989 38
-1.3658 1.27352 -0.0963563 50
-1.61697 1.05256 -0.0330723 14
-1.36268 1.27149 -0.224225 55
-1.35837 1.26833 -0.353791 58
-1.35733 1.26911 -0.488203 61
-0.964121 0.627596 -0.257179 4
-1.35456 1.26697 0.419461 49
-1.99805 1.29249 0.627465 39
-1.35847 1.27021 0.288376 49
-1.99245 1.29424 0.454671 38
-1.35554 1.26704 0.159277 49
-1.98774 1.2946 0.286594 39
-1.35632 1.26866 0.031807 47
-1.98207 1.29287 0.122204 38
-1.35811 1.27078 -0.0959625 50
-1.35322 1.26708 -0.223008 55
-1.35078 1.26566 -0.352363 58
-1.34961 1.26676 -0.486263 61
-0.969159 0.63325 -0.258864 4
-1.33707 1.26423 0.416092 50
-1.98091 1.29668 0.624234 39
-1.34799 1.27415 0.287595 49
-1.98154 1.30197 0.453718 39
-1.34324 1.26922 0.158623 49
-1.97033 1.29853 0.285073 39
-1.34421 1.27059 0.0316761 47
-1.9667 1.29809 0.121681 38
-1.346 1.27272 -0.0955686 50
-1.34095 1.26926 -0.222095 55
-1.33857 1.26789 -0.350934 58
-1.96461 1.29529 -0.367635 38
-1.33596 1.26715 -0.483676 59
-0.963681 0.637149 -0.258303 4
-1.33332 1.26465 0.41553 50
-1.96652 1.29221 0.620356 39
-1.33883 1.26946 0.286034 47
-1.96696 1.29735 0.450858 39
-1.33199 1.26299 0.157534 49
-1.95378 1.29207 0.282943 39
-1.33656 1.26777 0.0315452 47
-1.95424 1.29431 0.121027 38
-1.34016 1.27163 -0.0953061 50
-1.33356 1.26623 -0.221183 56
-1.32569 1.26007 -0.348077 58
-1.95616 1.29464 -0.36646 39
-1.33724 1.27281 -0.48497 61
-0.968786 0.642677 -0.259987 4
-1.3214 1.26655 0.413846 50
-1.94988 1.29548 0.617125 39
-1.32325 1.26791 0.284083 47
-1.9481 1.29914 0.447998 39
-1.32019 1.26454 0.15688 49
-1.9346 1.29403 0.281118 39
-1.32111 1.26586 0.0313271 49
-1.93497 1.29621 0.120242 38
-1.3247 1.26975 -0.0946497 52
-1.31975 1.26632 -0.219966 55
-1.31576 1.26336 -0.347125 58
-1.93292 1.29391 -0.363328 39
-1.32382 1.27287 -0.482383 61
-0.957293 0.642345 -0.257741 4
-1.31239 1.26187 0.4116 50
-1.93755 1.29221 0.613894 41
-1.32104 1.27021 0.284083 47
-1.93358 1.29437 0.445139 41
-1.31798 1.26684 0.15688 50
-1.92202 1.29051 0.279597 39
-1.3189 1.26816 0.0313271 50
-1.91611 1.28848 0.119195 39
-1.32068 1.27033 -0.0945184 52
-1.31397 1.26518 -0.219357 56
-1.22014 0.822884 -0.125471 12
-1.31179 1.26395 -0.346649 58
-1.91834 1.28905 -0.360979 36
-1.31118 1.26511 -0.478503 59
-0.96225 0.648072 -0.259426 4
-1.30206 1.26555 0.410476 50
-1.92475 1.29829 0.611956 41
-1.30375 1.26678 0.281742 47
-1.9166 1.29762 0.442756 41
-1.30419 1.26678 0.156009 49
-1.90496 1.29361 0.278076 41
-1.30686 1.26982 0.0311962 47
-1.90313 1.29429 0.118803 39
-1.30507 1.26852 -0.0938621 52
-1.30377 1.26858 -0.218749 56
-1.21994 0.832055 -0.125906 12
-1.29812 1.26395 -0.344744 58
-1.90134 1.29216 -0.359021 39
-1.30108 1.26858 -0.47721 59
-0.948747 0.646286 -0.256618 4
-1.29484 1.26249 0.408792 52
-1.90646 1.29085 0.606786 41
-1.29271 1.26043 0.279791 47
-1.90417 1.29409 0.440373 41
-1.29841 1.26557 0.155573 49
-1.89448 1.29136 0.276859 41
-1.30107 1.26861 0.0311089 50
-1.88642 1.28779 0.117887 38
-1.2975 1.26556 -0.0934682 52
-1.88411 1.28718 -0.0392243 36
-1.29623 1.26564 -0.217836 56
-1.2329 0.843984 -0.127428 11
-1.29591 1.26621 -0.344744 59
-1.29369 1.26578 -0.47527 61
-0.953668 0.652041 -0.258303 4
-1.28452 1.26605 0.407669 52
-1.88969 1.29402 0.603555 42
-1.28433 1.26544 0.279401 47
-1.88724 1.29711 0.43799 41
-1.2829 1.26361 0.154484 50
-1.86928 1.28863 0.27412 41
-1.28551 1.26663 0.0308908 50
-1.87348 1.29341 0.117494 39
-1.28708 1.26906 -0.0932057 52
-1.86292 1.28711 -0.0389189 36
-1.28782 1.27067 -0.217532 56
-1.28054 1.26435 -0.342363 59
-1.28361 1.26913 -0.473977 59
-0.948232 0.655648 -0.257741 4
-1.27365 1.25972 0.404861 50
-1.87747 1.29049 0.600324 42
-1.27861 1.26421 0.27862 50
-1.87058 1.29101 0.434654 42
-1.27539 1.26059 0.15383 50
-1.8609 1.28766 0.273208 41
-1.27953 1.26557 0.0308035 50
-1.85888 1.28817 0.116709 39
-1.28131 1.26779 -0.0929431 52
-1.8545 1.2861 -0.038788 36
-1.28032 1.26767 -0.216619 56
-1.27311 1.2614 -0.340935 59
-1.27775 1.26819 -0.472684 59
-0.955115 0.662824 -0.259987 4
-1.2651 1.26487 0.4043 50
-1.85854 1.29239 0.596447 42
-1.27001 1.26936 0.27823 49
-1.85372 1.29378 0.432271 42
-1.26679 1.26571 0.153612 50
-1.84576 1.29204 0.271991 41
-1.26758 1.26695 0.0306726 50
-1.84165 1.29106 0.116055 41
-1.27113 1.27094 -0.0926806 52
-1.83522 1.28753 -0.0385262 36
-1.26643 1.26756 -0.215402 56
-1.26107 1.26305 -0.339506 59
-1.26428 1.26802 -0.470097 61
-0.945515 0.663808 -0.258303 4
-1.2528 1.2565 0.40093 50
-1.84637 1.28874 0.593216 44
-1.26082 1.26457 0.276669 49
-1.84139 1.29 0.429888 44
-1.2593 1.26263 0.152958 50
-1.83537 1.28957 0.270774 41
-1.25832 1.26207 0.0304981 49
-1.83326 1.28998 0.115662 39
-1.2601 1.26431 -0.0920242 52
-1.82274 1.28355 -0.038308 36
-1.25547 1.26096 -0.213881 58
-1.25713 1.26351 -0.33903 59
-1.25356 1.26165 -0.466864 61
-0.944355 0.665457 -0.258303 4
-1.24791 1.26478 0.401492 50
-1.82796 1.28974 0.589339 44
-1.25094 1.26742 0.275889 49
-1.82481 1.29223 0.427505 42
-1.2459 1.26189 0.152087 50
-1.82072 1.29311 0.269557 42
-1.25016 1.26665 0.0304544 49
-1.81856 1.29347 0.115139 41
-1.25018 1.26712 -0.0917617 50
-1.81214 1.28987 -0.0382208 38
-1.24733 1.26553 -0.213577 58
-1.24383 1.26286 -0.337125 59
-1.24208 1.26281 -0.464924 61
-0.944955 0.673039 -0.259426 4
-1.24251 1.26326 0.400369 52
-1.81584 1.28597 0.586108 44
-1.2418 1.26256 0.274328 49
-1.81654 1.29116 0.426075 42
-1.24195 1.26229 0.151869 52
-1.80429 1.28624 0.267427 42
-1.24444 1.26526 0.0303672 49
-1.80612 1.28941 0.114485 41
-1.24272 1.26395 -0.0913678 50
-1.80174 1.28724 -0.0380462 38
-1.24164 1.26417 -0.212968 58
-1.23819 1.26152 -0.336173 59
-1.23649 1.26152 -0.463631 61
-0.941792 0.673278 -0.258864 4
-1.22887 1.26297 0.398123 52
-1.80122 1.28985 0.583523 45
-1.22829 1.26196 0.272767 50
-1.80177 1.29494 0.424169 42
-1.22665 1.25984 0.150779 52
-1.79148 1.29132 0.266514 42
-1.23257 1.26638 0.0302363 49
-1.78718 1.29011 0.1137 41
-1.23065 1.26529 -0.090974 52
-1.7828 1.2879 -0.0377845 38
-1.23155 1.26709 -0.21236 55
-1.22474 1.26094 -0.334268 59
-1.22483 1.26278 -0.461691 61
-0.942214 0.681038 -0.259987 4
-1.22327 1.26162 0.397 52
-1.78914 1.28597 0.580292 45
-1.22781 1.26587 0.273157 49
-1.78733 1.28981 0.421309 42
-1.22098 1.2584 0.150344 50
-1.77513 1.2843 0.264385 42
-1.22319 1.26156 0.0300618 49
-1.7748 1.28593 0.113046 39
-1.2267 1.26564 -0.0908427 52
-1.76838 1.28223 -0.0375227 38
-1.22416 1.26388 -0.211447 58
-1.22253 1.26308 -0.334268 59
-1.22073 1.26339 -0.461044 59
-0.939046 0.681259 -0.259426 4
-1.21137 1.26294 0.395315 52
-1.77042 1.28714 0.576415 45
-1.2124 1.26358 0.271206 50
-1.77261 1.29338 0.419403 42
-1.20898 1.2596 0.14969 52
-1.76214 1.2895 0.263472 42
-1.21138 1.26253 0.0299309 50
-1.76177 1.2911 0.112653 41
-1.21833 1.27024 -0.0907115 52
-1.75536 1.28736 -0.0373918 38
-1.21044 1.26332 -0.21023 56
-1.75532 1.28687 -0.187011 39
-1.2072 1.2608 -0.331888 59
-1.20743 1.26278 -0.458458 59
-1.20602 1.26131 0.394192 52
-1.7584 1.28313 0.573184 45
-1.207 1.26191 0.270425 50
-1.76241 1.29069 0.417497 42
-1.20334 1.2581 0.149254 52
-1.7521 1.28641 0.262255 44
-1.20572 1.26103 0.0298436 50
-1.74967 1.28649 0.111999 41
-1.20577 1.26153 -0.0899238 53
-1.74303 1.28303 -0.0371736 39
-1.20332 1.25983 -0.209317 59
-1.74704 1.28552 -0.186359 39
-1.20331 1.26113 -0.331411 50
-1.20023 1.25963 -0.456518 58
-1.19271 1.26053 0.391946 53
-1.74799 1.28915 0.571891 45
-1.19698 1.26463 0.269645 50
-1.744 1.29086 0.414637 42
-1.19525 1.26237 0.149036 52
-1.73536 1.28819 0.260734 45
-1.19417 1.26167 0.0297127 50
-1.72886 1.28524 0.111083 41
-1.19401 1.26238 -0.08953 53
-1.73049 1.28738 -0.0370427 39
-1.1916 1.2607 -0.208405 58
-1.72828 1.28575 -0.185054 41
-1.18175 1.25113 -0.327126 49
-1.18225 1.25338 -0.451992 56
-1.18884 1.26083 0.391385 53
-1.73796 1.28647 0.569306 45
-1.19139 1.26312 0.268864 50
-1.7356 1.28983 0.413207 44
-1.18792 1.25901 0.148383 52
-1.72314 1.28383 0.259213 44
-1.19175 1.26396 0.0297127 52
-1.71459 1.27932 0.110298 39
-1.18838 1.26082 -0.0892674 53
-1.71821 1.28294 -0.0368246 39
-1.186 1.25916 -0.207796 58
-1.71804 1.28283 -0.184184 39
-1.17957 1.25319 -0.327126 45
-1.17654 1.25213 -0.450698 53
-1.17868 1.26368 0.390261 53
-1.72129 1.28864 0.566075 45
-1.17781 1.26232 0.267304 52
-1.71703 1.29008 0.410348 44
-1.176 1.25996 0.147729 52
-1.71022 1.28867 0.2583 45
-1.17489 1.2592 0.0294509 53
-1.70365 1.28558 0.110036 41
-1.18006 1.2652 -0.0891361 55
-1.70325 1.28621 -0.0366501 41
-1.17748 1.26374 -0.207492 58
-1.16776 1.25417 -0.325697 47
-1.16503 1.25296 -0.448759 47
-1.17172 1.26018 0.388577 52
-1.70356 1.28007 0.560906 45
-1.17246 1.26055 0.266523 52
-1.703 1.28423 0.407488 45
-1.1738 1.26201 0.147729 52
-1.69034 1.27793 0.255562 45
-1.17269 1.26125 0.0294509 52
-1.69365 1.28225 0.109513 42
-1.17276 1.26177 -0.0887423 55
-1.69103 1.28165 -0.0364319 41
-1.1738 1.26377 -0.207188 59
-1.1589 1.249 -0.323793 45
-1.16121 1.25322 -0.448112 45
-1.15852 1.25912 0.386331 53
-1.69128 1.28431 0.558967 45
-1.16417 1.26485 0.266133 50
-1.69257 1.28987 0.406535 44
-1.16065 1.2606 0.146857 52
-1.67968 1.28375 0.254953 45
-1.1646 1.26533 0.0294073 50
-1.67698 1.28353 0.108859 42
-1.16298 1.26401 -0.0884798 55
-1.67259 1.2811 -0.0361701 41
-1.16046 1.26259 -0.205971 59
-1.15422 1.25666 -0.324269 47
-1.14669 1.25018 -0.444879 47
-1.15489 1.25914 0.385769 53
-1.68134 1.28142 0.556382 45
-1.15363 1.25777 0.264182 50
-1.67665 1.28242 0.403199 45
-1.15341 1.25711 0.146204 52
-1.66757 1.27915 0.253432 47
-1.15732 1.26183 0.0292764 50
-1.66482 1.27887 0.108205 42
-1.15909 1.2642 -0.0883485 55
-1.66638 1.28098 -0.0360828 41
-1.1549 1.26095 -0.205362 59
-1.14706 1.25324 -0.32284 55
-1.138 1.24504 -0.442292 47
-1.14479 1.26176 0.384646 53
-1.66311 1.28139 0.552505 45
-1.14371 1.26014 0.263401 52
-1.66213 1.28519 0.401292 44
-1.14514 1.26129 0.145986 52
-1.65693 1.28484 0.252824 47
-1.14567 1.26232 0.0291455 52
-1.65415 1.28452 0.107943 42
-1.1472 1.2649 -0.0879547 55
-1.64779 1.28051 -0.0358211 41
-1.14496 1.2633 -0.204754 59
-1.13554 1.25376 -0.321412 55
-1.1347 1.25457 -0.443586 49
-1.13606 1.25652 0.3824 55
-1.65704 1.28135 0.551213 47
-1.14151 1.26213 0.263401 52
-1.65383 1.28388 0.399862 45
-1.13959 1.25959 0.14555 52
-1.65076 1.28469 0.252215 47
-1.13319 1.25338 0.0288837 53
-1.64994 1.28588 0.107812 42
-1.14165 1.26319 -0.0876921 56
-1.6416 1.28032 -0.0357338 42
-1.14109 1.26345 -0.204449 59
-1.12514 1.24663 -0.319031 59
-1.12583 1.24956 -0.440999 58
-1.126 1.25901 0.381277 55
-1.64056 1.28288 0.547982 47
-1.12808 1.26092 0.26184 53
-1.63935 1.28648 0.397956 45
-1.12446 1.25645 0.144461 52
-1.63206 1.28442 0.25039 47
-1.12828 1.26116 0.0289274 53
-1.6292 1.284 0.106896 42
-1.13169 1.26543 -0.0874296 58
-1.62875 1.28456 -0.0356029 42
-1.12928 1.26405 -0.203537 61
-1.11348 1.2472 -0.317603 86
-1.12409 1.26085 -0.442939 90
-1.1224 1.25896 0.380715 55
-1.6307 1.27979 0.545397 49
-1.12117 1.25716 0.26067 52
-1.62744 1.28177 0.395573 45
-1.11896 1.25469 0.144025 53
-1.62419 1.28238 0.249477 47
-1.12275 1.25939 0.0288401 53
-1.61934 1.28038 0.106373 42
-1.1245 1.26181 -0.0870357 58
-1.61865 1.28121 -0.0354284 42
-1.11905 1.25655 -0.202016 62
-1.10967 1.24731 -0.317126 97
-1.11708 1.25739 -0.440999 90
-1.10935 1.25751 0.378469 55
-1.61473 1.28055 0.542166 49
-1.11131 1.25931 0.259889 53
-1.61709 1.28694 0.39462 45
-1.11424 1.26221 0.144243 52
-1.60774 1.28315 0.247956 47
-1.11141 1.25943 0.0287092 53
-1.59698 1.27641 0.105326 41
-1.11458 1.26393 -0.0867732 56
-1.60824 1.28627 -0.0353411 42
-1.11082 1.26053 -0.201711 67
-1.10334 1.25291 -0.317126 90
-1.10911 1.26121 -0.440352 79
-1.10233 1.25395 0.376785 55
-1.60491 1.27737 0.539581 49
-1.10748 1.25939 0.259499 52
-1.60309 1.28088 0.39176 45
-1.10382 1.25479 0.143153 53
-1.60161 1.28286 0.247347 45
-1.10569 1.25781 0.0286219 53
-1.5928 1.27764 0.105195 42
-1.10908 1.26212 -0.0865106 56
-1.59427 1.27972 -0.0350793 41
-1.10861 1.26247 -0.201711 67
-1.09468 1.24745 -0.315222 70
-1.10191 1.25789 -0.438412 61
-1.09234 1.25622 0.375662 55
-1.59044 1.28 0.536996 49
-1.09903 1.2635 0.259109 53
-1.59062 1.28464 0.390331 44
-1.09538 1.25887 0.142935 53
-1.58306 1.28217 0.245522 47
-1.09745 1.26169 0.0285783 55
-1.58004 1.28153 0.104803 42
-1.09918 1.26414 -0.0862481 55
-1.57566 1.2789 -0.0348176 41
-1.09526 1.26095 -0.200494 67
-1.0847 1.24964 -0.314269 62
-1.09057 1.25816 -0.436473 59
-1.08718 1.25425 0.374539 55
-1.58256 1.27823 0.535057 50
-1.0922 1.25962 0.257938 52
-1.57883 1.27971 0.387948 45
-1.08992 1.25701 0.1425 53
-1.57332 1.27841 0.244305 47
-1.09197 1.25983 0.0284911 55
-1.57026 1.27773 0.104279 44
-1.09371 1.26228 -0.0859855 58
-1.56371 1.27378 -0.0345994 41
-1.09328 1.26267 -0.200494 64
-1.08092 1.24968 -0.313793 62
-1.0868 1.25823 -0.435826 59
-1.07267 1.25067 0.371731 56
-1.56669 1.27861 0.531826 52
-1.08398 1.26345 0.257548 53
-1.56662 1.28304 0.386518 45
-1.07706 1.25495 0.141628 53
-1.55892 1.28035 0.243088 47
-1.08233 1.26154 0.0284038 55
-1.55582 1.27961 0.103756 44
-1.08081 1.26021 -0.0854604 56
-1.55338 1.27851 -0.0345121 44
-1.08182 1.26272 -0.199582 65
-1.07139 1.2514 -0.312841 68
-1.54896 1.27314 -0.312431 35
-1.07415 1.25637 -0.433239 59
-1.55249 1.27336 -0.454837 45
-1.06754 1.24865 0.370608 56
-1.55697 1.27524 0.529242 50
-1.07536 1.25783 0.255987 52
-1.55488 1.278 0.384135 45
-1.07164 1.25304 0.141192 53
-1.55093 1.27835 0.242175 47
-1.07688 1.25963 0.0283165 55
-1.54201 1.27281 0.102971 44
-1.07375 1.2564 -0.0850666 56
-1.54535 1.27645 -0.0343812 44
-1.07639 1.26083 -0.198973 62
-1.06761 1.2514 -0.312365 71
-1.54865 1.27741 -0.312822 45
-1.06882 1.25456 -0.431946 59
-1.54273 1.26989 -0.452591 45
-1.06077 1.2544 0.370608 56
-1.54095 1.2757 0.526011 50
-1.06558 1.25967 0.255207 53
-1.53871 1.27831 0.381752 45
-1.06345 1.25673 0.140974 55
-1.53275 1.27695 0.24035 49
-1.06705 1.26143 0.0282293 55
-1.53148 1.27768 0.102709 45
-1.06716 1.262 -0.0850666 56
-1.53288 1.27974 -0.0342503 44
-1.06498 1.26075 -0.19806 64
-1.50269 1.25423 -0.167875 18
-1.06105 1.25697 -0.312365 71
-1.53054 1.27604 -0.310473 45
-1.05602 1.25275 -0.42936 58
-1.52855 1.27174 -0.450345 47
-1.0541 1.25048 0.368923 56
-1.535 1.27531 0.524718 52
-1.06179 1.25963 0.254816 53
-1.5327 1.27786 0.380799 45
-1.05645 1.25287 0.140321 55
-1.52289 1.27327 0.239133 50
-1.06163 1.25946 0.028142 55
-1.52158 1.27396 0.102186 44
-1.06174 1.26004 -0.0848041 56
-1.52488 1.27761 -0.0341195 44
-1.05639 1.25501 -0.196843 68
-1.51772 1.2712 -0.169832 35
-1.05412 1.25318 -0.310936 70
-1.52072 1.27239 -0.308907 47
-1.05538 1.25644 -0.430006 59
-1.52071 1.26974 -0.44866 47
-1.0442 1.25242 0.3678 56
-1.51718 1.27404 0.520841 52
-1.05202 1.26138 0.254036 53
-1.51659 1.27798 0.378416 45
-1.04509 1.25264 0.139667 55
-1.51051 1.27644 0.23822 49
-1.05182 1.26116 0.0280547 55
-1.50725 1.27547 0.101663 45
-1.04874 1.25791 -0.084279 58
-1.50862 1.27752 -0.0339013 45
-1.0498 1.26052 -0.196843 67
-1.04283 1.25302 -0.309508 71
-1.50837 1.27556 -0.307732 47
-1.04108 1.25266 -0.426773 59
-1.50844 1.27298 -0.446976 45
-1.03756 1.24843 0.366116 56
-1.5094 1.27203 0.518902 52
-1.04508 1.25751 0.252865 53
-1.50872 1.27588 0.376986 45
-1.0429 1.25446 0.139667 56
-1.50069 1.27267 0.237003 49
-1.04802 1.26107 0.0280111 55
-1.4993 1.27327 0.10127 45
-1.04654 1.25974 -0.084279 58
-1.50066 1.27531 -0.0337704 45
-1.04444 1.25853 -0.196235 68
-1.03752 1.25106 -0.308555 74
-1.49293 1.26704 -0.304992 45
-1.03735 1.25261 -0.426127 59
-1.49877 1.26933 -0.44473 47
-1.03234 1.25591 0.366677 58
-1.4972 1.27523 0.516964 53
-1.03535 1.25915 0.252085 53
-1.49641 1.279 0.375556 47
-1.03 1.2522 0.138796 56
-1.48834 1.27568 0.23609 50
-1.03189 1.25495 0.0277493 55
-1.48692 1.27624 0.100878 45
-1.0336 1.25748 -0.0837538 58
-1.48256 1.27341 -0.0335086 45
-1.03469 1.26015 -0.195626 67
-1.48125 1.27185 -0.16744 44
-1.0294 1.25458 -0.308079 65
-1.48628 1.27484 -0.304992 49
-1.03078 1.25803 -0.426127 59
-1.48654 1.27242 -0.443045 45
-1.02111 1.24621 0.363308 56
-1.48577 1.27002 0.513733 52
-1.02846 1.25522 0.250914 55
-1.48671 1.27523 0.37365 47
-1.02466 1.25015 0.13836 56
-1.47857 1.27182 0.234873 50
-1.02969 1.25675 0.0277493 55
-1.4771 1.27233 0.100354 45
-1.02824 1.25542 -0.0834913 58
-1.47464 1.27111 -0.0333777 47
-1.03092 1.26003 -0.195322 70
-1.47525 1.27119 -0.167005 45
-1.02255 1.25067 -0.306651 71
-1.47842 1.27261 -0.303817 49
-1.02095 1.25047 -0.422893 59
-1.4732 1.26552 -0.439676 47
-1.01129 1.24793 0.362185 58
-1.47544 1.27463 0.51244 52
-1.02032 1.25867 0.250524 55
-1.47072 1.27498 0.371267 47
-1.01496 1.25162 0.137924 55
-1.46626 1.27468 0.233961 52
-1.02153 1.26018 0.0277057 56
-1.46665 1.27678 0.100093 45
-1.01694 1.25496 -0.0830975 58
-1.46419 1.27554 -0.0332905 47
-1.01963 1.25962 -0.19441 70
-1.46292 1.27401 -0.166353 44
-1.01445 1.25409 -0.306175 62
-1.46054 1.27064 -0.301468 44
-1.01591 1.25767 -0.42354 61
-1.45918 1.26685 -0.43743 45
-1.00933 1.24952 0.362185 58
-1.46224 1.26774 0.508563 52
-1.01192 1.25276 0.248963 53
-1.46478 1.27434 0.370314 47
-1.01121 1.25145 0.137706 55
-1.45842 1.27235 0.233048 50
-1.01462 1.25612 0.0275748 55
-1.46065 1.27606 0.0998308 47
-1.01475 1.25673 -0.0830975 58
-1.45442 1.27153 -0.0331159 47
-1.00965 1.25173 -0.192888 71
-1.45506 1.27166 -0.1657 44
-1.01072 1.25395 -0.305698 68
-1.45646 1.27157 -0.301077 49
-1.0122 1.25756 -0.422893 59
-1.44961 1.26301 -0.435184 45
-0.997995 1.24925 0.360501 58
-1.45012 1.27062 0.506624 53
-1.00227 1.25418 0.248183 55
-1.4507 1.27553 0.368407 47
-1.0031 1.25478 0.137488 55
-1.448 1.2767 0.23244 50
-1.00491 1.25751 0.0274875 56
-1.44645 1.2771 0.0993075 45
-1.00638 1.26025 -0.0829662 58
-1.44399 1.27583 -0.0330287 47
-1.00153 1.25506 -0.192584 73
-1.44255 1.27458 -0.165048 44
-0.999552 1.25346 -0.30427 65
-1.44236 1.27266 -0.299511 50
-0.996585 1.2515 -0.419014 59
-1.43931 1.26737 -0.434061 47
-0.994297 1.24908 0.359939 58
-1.44608 1.27156 0.505978 53
-0.998543 1.25399 0.247792 55
-1.44087 1.27183 0.366501 49
-0.994703 1.24874 0.136617 56
-1.43646 1.27103 0.230918 50
-0.999385 1.25552 0.0274003 55
-1.4386 1.27467 0.098915 47
-1.00263 1.26005 -0.0828349 59
-1.43613 1.27338 -0.0328978 47
-0.994711 1.25098 -0.191671 74
-1.43658 1.2738 -0.164613 44
-0.995837 1.25328 -0.303794 64
-1.43087 1.26702 -0.297553 52
-0.997179 1.2572 -0.420307 61
-1.42795 1.26184 -0.431253 47
-0.983009 1.2487 0.358254 59
-1.43375 1.27456 0.50404 53
-0.988692 1.2555 0.247012 56
-1.42869 1.27447 0.365071 49
-0.984854 1.25018 0.136181 56
-1.42215 1.27218 0.229701 52
-0.988163 1.25484 0.0272694 56
-1.42422 1.27579 0.0983916 47
-0.991386 1.2594 -0.0824411 59
-1.42549 1.27781 -0.0328105 47
-0.986396 1.25439 -0.191367 73
-1.42246 1.27467 -0.163743 45
-0.982983 1.25093 -0.301889 71
-1.42237 1.27285 -0.297161 50
-0.980159 1.2491 -0.415781 61
-1.41563 1.26469 -0.429568 49
-0.981046 1.25024 0.358254 58
-1.42611 1.27225 0.502101 53
-0.985195 1.2551 0.246622 56
-1.41913 1.27043 0.363165 49
-0.981134 1.24994 0.135963 56
-1.4183 1.27276 0.229397 52
-0.98443 1.2546 0.0272258 58
-1.42036 1.27636 0.0982608 47
-0.98457 1.25523 -0.0820473 59
-1.41395 1.27196 -0.0325924 45
-0.978308 1.24812 -0.19015 74
-1.41281 1.27051 -0.162874 45
-0.983821 1.25651 -0.302841 64
-1.41646 1.27204 -0.296378 52
-0.975006 1.247 -0.414487 59
-1.41365 1.26691 -0.429568 49
-0.971503 1.25151 0.357131 58
-1.41426 1.27462 0.500162 55
-0.975585 1.25634 0.245841 56
-1.40721 1.27268 0.361735 49
-0.970217 1.24899 0.135309 58
-1.4024 1.27186 0.227876 52
-0.973473 1.25364 0.0270949 56
-1.39883 1.27039 0.097214 45
-0.976455 1.25839 -0.081916 59
-1.39822 1.27072 -0.0323742 45
-0.973278 1.25519 -0.190454 74
-1.3969 1.26954 -0.161786 44
-0.972944 1.25565 -0.301413 70
-1.39696 1.26786 -0.293638 50
-0.964253 1.24618 -0.412547 59
-1.39794 1.26614 -0.426761 49
-0.967828 1.25127 0.35657 59
-1.40305 1.26901 0.496931 53
-0.970372 1.25413 0.245061 56
-1.40476 1.27537 0.361735 49
-0.966513 1.24871 0.135091 58
-1.39466 1.26931 0.226963 52
-0.968009 1.25155 0.0270076 58
-1.39292 1.26948 0.0969524 45
-0.969681 1.25417 -0.0815222 58
-1.3886 1.26644 -0.0321997 47
-0.963509 1.24706 -0.188933 76
-1.39099 1.26863 -0.161351 44
-0.966257 1.25151 -0.299984 68
-1.39474 1.27029 -0.293638 50
-0.964804 1.25186 -0.413841 59
-1.39031 1.26368 -0.425076 49
-0.953652 1.24681 0.353762 59
-1.39259 1.27333 0.495639 53
-0.960574 1.25544 0.24428 58
-1.39082 1.27609 0.359829 49
-0.958231 1.25194 0.134874 56
-1.38411 1.27348 0.226355 50
-0.958409 1.25263 0.0269203 56
-1.38235 1.27362 0.0966907 42
-0.960071 1.25526 -0.0812596 58
-1.37804 1.27055 -0.0321124 47
-0.955243 1.25028 -0.188629 71
-1.37699 1.26916 -0.160482 44
-0.957984 1.25477 -0.299508 70
-1.38079 1.27091 -0.292072 50
-0.947999 1.24344 -0.409314 58
-1.37806 1.26625 -0.423392 49
-0.950218 1.24637 0.353201 59
-1.38323 1.26925 0.493054 53
-0.954114 1.25105 0.24311 56
-1.37954 1.27023 0.357446 49
-0.954535 1.25163 0.134656 58
-1.3748 1.26894 0.225138 52
-0.954707 1.25231 0.0268767 59
-1.37667 1.27241 0.096429 47
-0.954856 1.25296 -0.0809971 59
-1.3703 1.26788 -0.0319815 47
-0.953278 1.25178 -0.188629 74
-1.36744 1.26482 -0.159612 45
-0.957276 1.2584 -0.299984 67
-1.37129 1.26663 -0.290506 52
-0.944368 1.24317 -0.408668 59
-1.37068 1.26348 -0.421707 49
-0.942214 1.24938 0.352639 59
-1.36969 1.26968 0.490469 53
-0.946065 1.25406 0.242719 56
-1.36949 1.27386 0.356492 49
-0.945191 1.25246 0.13422 58
-1.35722 1.266 0.223312 53
-0.946853 1.25513 0.0268331 56
-1.36267 1.2728 0.0959056 47
-0.948283 1.25794 -0.0809971 59
-1.36021 1.27139 -0.0318943 47
-0.94522 1.25477 -0.188325 76
-1.35533 1.26687 -0.158959 45
-0.949421 1.26126 -0.299508 65
-1.35922 1.26875 -0.289331 50
-0.933716 1.24214 -0.406728 59
-1.3569 1.26401 -0.419461 50
-0.934185 1.24323 0.350393 58
-1.36038 1.26551 0.487884 55
-0.939429 1.24978 0.241549 58
-1.35985 1.26981 0.354586 49
-0.938519 1.24814 0.133566 56
-1.35501 1.26836 0.223312 52
-0.941442 1.25294 0.0267458 56
-1.35315 1.26837 0.0953823 49
-0.94309 1.2556 -0.0807345 59
-1.34885 1.26524 -0.0316761 49
-0.94154 1.25443 -0.18802 71
-1.34947 1.26584 -0.158524 47
-0.939864 1.2531 -0.297127 62
-1.35158 1.26608 -0.288157 52
-0.93133 1.24393 -0.406728 58
-1.34756 1.25974 -0.417215 50
-0.930347 1.25218 0.351516 59
-1.35175 1.2712 0.487238 53
-0.931182 1.25286 0.241159 58
-1.3496 1.27355 0.353633 49
-0.930268 1.2512 0.133348 56
-1.34271 1.27057 0.2224 53
-0.93189 1.25384 0.0266585 58
-1.34081 1.27053 0.0949898 49
-0.936503 1.26052 -0.0807345 59
-1.33835 1.26909 -0.0315889 49
-0.931785 1.25552 -0.187412 76
-1.3392 1.26947 -0.15809 47
-0.93015 1.25422 -0.296175 61
-1.33774 1.26636 -0.286591 50
-0.924804 1.24879 -0.406728 59
-1.3354 1.26201 -0.41553 50
-0.924035 1.24776 0.349832 59
-1.34249 1.26695 0.484653 55
-0.926277 1.25035 0.240378 58
-1.34023 1.26918 0.351726 49
-0.926602 1.25082 0.13313 56
-1.33349 1.26586 0.221183 53
-0.925243 1.24943 0.0265277 58
-1.33519 1.26921 0.0947281 49
-0.929851 1.25613 -0.0803407 59
-1.33068 1.26626 -0.031458 47
-0.92539 1.25099 -0.186499 77
-1.32975 1.26496 -0.15722 45
-0.926503 1.25386 -0.295699 61
-1.33194 1.2653 -0.285807 52
-0.918327 1.24457 -0.404788 59
-1.32632 1.25742 -0.413284 49
-0.913176 1.24668 0.348147 59
-1.32905 1.26708 0.482069 53
-0.916802 1.2512 0.239598 59
-1.32668 1.26918 0.34982 50
-0.914377 1.24745 0.132259 58
-1.32505 1.27112 0.220878 53
-0.915956 1.25007 0.0264404 58
-1.32311 1.27101 0.0943356 49
-0.917369 1.25292 -0.0798156 59
-1.31522 1.26434 -0.0312398 49
-0.917364 1.25382 -0.186195 79
-1.31591 1.26502 -0.15635 47
-0.915804 1.25259 -0.29427 61
-1.31815 1.26544 -0.284241 53
-0.912016 1.2492 -0.404788 58
-1.31443 1.25931 -0.4116 49
-0.909564 1.2463 0.347585 59
-1.32334 1.26607 0.480776 53
-0.911708 1.24881 0.238817 58
-1.31892 1.26663 0.34839 50
-0.912198 1.24904 0.132259 56
-1.31387 1.26485 0.219357 53
-0.912083 1.2498 0.0263968 58
-1.31548 1.26813 0.093943 49
-0.915181 1.25451 -0.0798156 59
-1.30761 1.26145 -0.0311089 47
-0.912254 1.2514 -0.185587 79
-1.3101 1.26386 -0.155915 47
-0.917946 1.26014 -0.295699 64
-1.31238 1.26432 -0.283458 52
-0.906779 1.24704 -0.403495 58
-1.30695 1.25655 -0.409915 50
-0.902808 1.2512 0.347585 58
-1.3095 1.26651 0.478191 53
-0.904938 1.25372 0.238817 58
-1.3105 1.27182 0.347914 50
-0.899603 1.24588 0.131387 58
-1.30344 1.26848 0.218749 53
-0.905526 1.25456 0.0263968 58
-1.29605 1.26307 0.0930272 45
-0.904223 1.25321 -0.0794218 61
-1.29538 1.26328 -0.030978 47
-0.906919 1.25834 -0.185891 77
-1.29989 1.26724 -0.15548 47
-0.903953 1.25513 -0.293318 61
-1.29687 1.26259 -0.281501 52
-0.900237 1.25177 -0.403495 59
-1.29663 1.26021 -0.408792 50
-0.89658 1.24668 0.345901 59
-1.30555 1.26712 0.477545 53
-0.897207 1.24712 0.237256 59
-1.30475 1.27069 0.346961 50
-0.89888 1.24947 0.131605 58
-1.29255 1.26189 0.217228 55
-0.898963 1.25005 0.0262659 58
-1.29228 1.26336 0.0928963 47
-0.900579 1.25276 -0.0792905 59
-1.28601 1.25857 -0.0308035 49
-0.899158 1.25169 -0.184674 79
-1.28697 1.25908 -0.154175 49
-0.90319 1.2587 -0.293794 61
-1.29467 1.26485 -0.281501 52
-0.892432 1.24548 -0.400908 59
-1.2894 1.25716 -0.407107 50
-0.885809 1.2454 0.344216 59
-1.29048 1.26528 0.474314 55
-0.887805 1.24777 0.236476 59
-1.2948 1.27384 0.346007 50
-0.888217 1.24791 0.130951 58
-1.28415 1.2669 0.216923 55
-0.892624 1.25458 0.0262659 58
-1.2803 1.26486 0.0925038 49
-0.894226 1.2573 -0.0792905 61
-1.27606 1.26155 -0.0307162 49
-0.888286 1.25031 -0.183761 79
-1.28236 1.26733 -0.154393 50
-0.89255 1.25724 -0.292366 61
-1.28274 1.26642 -0.280326 53
-0.888906 1.25393 -0.402201 59
-1.27932 1.26049 -0.405984 50
-0.883852 1.24679 0.344216 59
-1.28654 1.26584 0.473668 55
-0.8842 1.2473 0.236086 59
-1.28207 1.26578 0.343148 50
-0.88316 1.24539 0.130516 58
-1.27663 1.26392 0.216011 53
-0.886102 1.25001 0.026135 58
-1.27276 1.26183 0.0921113 49
-0.889147 1.25478 -0.0790279 61
-1.27029 1.26027 -0.030629 49
-0.883239 1.24781 -0.183153 79
-1.27482 1.26431 -0.15374 50
-0.888939 1.25679 -0.29189 61
-1.27349 1.26173 -0.27876 53
-0.881151 1.24758 -0.399615 59
-1.27017 1.25588 -0.403738 50
-0.874083 1.24772 0.343093 59
-1.26766 1.26089 0.469145 58
-0.877438 1.25207 0.236086 59
-1.27346 1.27097 0.342671 50
-0.874981 1.24811 0.130298 58
-1.26274 1.2638 0.214794 55
-0.876461 1.25069 0.0260477 59
-1.26061 1.26341 0.0917188 49
-0.880915 1.25753 -0.0788966 61
-1.25815 1.26183 -0.0304981 50
-0.875054 1.25053 -0.182848 79
-1.25915 1.2624 -0.152653 50
-0.876508 1.25354 -0.289985 64
-1.26162 1.26315 -0.277586 53
-0.873007 1.25035 -0.398968 59
-1.2599 1.2593 -0.402615 50
-0.869336 1.24509 0.34197 59
-1.26545 1.26311 0.469145 56
-0.869822 1.24534 0.234525 59
-1.26254 1.26453 0.340288 52
-0.869953 1.24555 0.129862 56
-1.259 1.26403 0.214489 55
-0.871418 1.24812 0.0259605 59
-1.2551 1.26186 0.0914571 49
-0.875865 1.25497 -0.0786341 61
-1.25241 1.26048 -0.0304108 50
-0.873088 1.2519 -0.182848 79
-1.25518 1.26283 -0.152436 52
-0.874319 1.25506 -0.289985 61
-1.25767 1.2636 -0.277194 53
-0.866692 1.24592 -0.397028 61
-1.25275 1.25612 -0.40093 50
-0.860041 1.24561 0.340847 59
-1.25052 1.26094 0.465914 56
-0.859085 1.24378 0.233354 59
-1.25267 1.26743 0.339335 52
-0.862224 1.24789 0.129644 58
-1.24712 1.26532 0.213577 56
-0.862252 1.2484 0.0258732 59
-1.24847 1.26841 0.0914571 50
-0.869282 1.25954 -0.0786341 61
-1.2425 1.26325 -0.0303236 50
-0.863708 1.25237 -0.18224 79
-1.2468 1.26762 -0.152218 50
-0.863783 1.25341 -0.288556 62
-1.24408 1.26315 -0.275628 55
-0.859008 1.2483 -0.396382 59
-1.24272 1.2592 -0.399807 52
-0.857865 1.24711 0.340847 59
-1.24321 1.25799 0.463975 56
-0.855515 1.24324 0.232964 59
-1.24505 1.2646 0.337905 52
-0.857224 1.24529 0.129208 58
-1.23794 1.26043 0.21236 55
-0.858439 1.24799 0.0258296 59
-1.23924 1.26348 0.0909337 49
-0.861432 1.25282 -0.078109 62
-1.23854 1.26364 -0.0302799 50
-0.860117 1.25183 -0.181936 79
-1.24109 1.26624 -0.151783 52
-0.85882 1.25086 -0.287604 62
-1.23667 1.26005 -0.274453 56
-0.853883 1.24596 -0.395089 59
-1.23538 1.25617 -0.398123 52
-0.848369 1.2477 0.339724 59
-1.22961 1.2578 0.46139 56
-0.846002 1.24377 0.232183 59
-1.23154 1.26409 0.335999 52
-0.847675 1.24579 0.128773 59
-1.22937 1.26533 0.212055 55
-0.849085 1.24833 0.0257423 59
-1.2289 1.26659 0.090672 50
-0.853458 1.25525 -0.0779777 64
-1.22645 1.26495 -0.030149 52
-0.849155 1.2503 -0.181023 79
-1.22923 1.26738 -0.151131 52
-0.852039 1.25549 -0.287604 61
-1.22661 1.26298 -0.27367 56
-0.850053 1.25441 -0.396382 59
-1.22175 1.25587 -0.395877 53
-0.845044 1.24702 0.339162 59
-1.22403 1.2565 0.460098 55
-0.842663 1.24305 0.231793 59
-1.22591 1.26272 0.335046 52
-0.844104 1.2452 0.128555 58
-1.22392 1.26371 0.211447 56
-0.848306 1.25188 0.0257859 59
-1.21995 1.26136 0.0901487 50
-0.849868 1.25467 -0.0778464 62
-1.22076 1.2635 -0.0300618 52
-0.848579 1.25369 -0.181327 80
-1.21834 1.26059 -0.150044 49
-0.848474 1.25494 -0.287128 61
-1.21924 1.25981 -0.272496 56
-0.838417 1.24188 -0.391855 59
-1.21808 1.25605 -0.395315 52
-0.837149 1.2494 0.338601 61
-1.21093 1.25574 0.457513 56
-0.83477 1.24539 0.231403 59
-1.21609 1.26538 0.334092 52
-0.833636 1.24325 0.127901 59
-1.2104 1.26295 0.21023 55
-0.836399 1.24785 0.0256114 59
-1.20813 1.26234 0.0897562 50
-0.837737 1.2508 -0.0773213 61
-1.20915 1.26426 -0.0299309 52
-0.837868 1.25193 -0.180414 80
-1.20999 1.26516 -0.149826 50
-0.836662 1.25106 -0.285223 61
-1.20406 1.25728 -0.270538 56
-0.834799 1.25012 -0.393149 59
-1.20472 1.2554 -0.393069 50
-0.829564 1.24275 0.336355 64
-1.20706 1.25612 0.456867 55
-0.827118 1.23863 0.229842 59
-1.20855 1.26241 0.332663 52
-0.832846 1.24677 0.128119 59
-1.20303 1.25969 0.209317 56
-0.832616 1.24737 0.0255678 59
-1.20247 1.26084 0.0894945 50
-0.834169 1.25018 -0.0771901 68
-1.20521 1.26456 -0.0298872 53
-0.834307 1.25132 -0.18011 82
-1.20434 1.26367 -0.149391 50
-0.8304 1.24638 -0.283795 59
-1.19845 1.25582 -0.269755 55
-0.827056 1.24367 -0.390562 59
-1.19239 1.24696 -0.3897 47
-0.820149 1.24315 0.335232 59
-1.19357 1.25565 0.454282 56
-0.820404 1.24309 0.229842 59
-1.20023 1.26694 0.332186 53
-0.820607 1.24294 0.127247 59
-1.19449 1.26438 0.209013 56
-0.823324 1.24754 0.0254805 59
-1.1922 1.2637 0.0892328 50
-0.827612 1.25453 -0.0771901 68
-1.19319 1.26562 -0.0297564 52
-0.823434 1.2496 -0.179198 79
-1.19428 1.26634 -0.148956 50
-0.822297 1.24881 -0.283319 61
-1.18845 1.25849 -0.268972 55
-0.819208 1.24597 -0.389916 59
-1.17723 1.24457 -0.386892 42
-0.815522 1.24036 0.334109 64
-1.19138 1.25773 0.454282 56
-0.817095 1.24231 0.229452 59
-1.19295 1.2637 0.330756 52
-0.818436 1.24437 0.127247 59
-1.18568 1.25905 0.207796 55
-0.819774 1.24689 0.0254369 59
-1.19021 1.26558 0.0892328 50
-0.821314 1.24971 -0.0767962 65
-1.18583 1.26225 -0.0296255 53
-0.82011 1.24881 -0.178893 80
-1.19206 1.26843 -0.148956 52
-0.816083 1.24408 -0.28189 62
-1.18286 1.25698 -0.268189 56
-0.813068 1.24133 -0.387976 59
-1.17025 1.24111 -0.385208 41
-0.80504 1.23848 0.332424 61
-1.18168 1.26023 0.452989 56
-0.81058 1.24657 0.229452 61
-1.17814 1.26078 0.328373 53
-0.810772 1.24641 0.127029 59
-1.17228 1.258 0.206579 55
-0.810731 1.24683 0.0253496 59
-1.17333 1.26085 0.0884478 52
-0.807968 1.24352 -0.0761399 71
-1.16918 1.25729 -0.0293637 52
-0.809512 1.24684 -0.177981 82
-1.1752 1.26374 -0.147652 52
-0.809776 1.24819 -0.28189 61
-1.17289 1.25955 -0.267406 55
-0.805464 1.2434 -0.387329 59
-1.1604 1.24367 -0.384085 39
-0.800233 1.23579 0.331301 61
-1.17287 1.25525 0.450405 56
-0.807062 1.24591 0.229062 59
-1.17404 1.26124 0.327897 53
-0.80589 1.24364 0.126594 59
-1.17178 1.26186 0.206883 55
-0.804266 1.24208 0.0252187 61
-1.16773 1.25925 0.0881861 50
-0.807151 1.24702 -0.0762711 68
-1.16528 1.2575 -0.02932 53
-0.801952 1.23991 -0.176764 82
-1.1679 1.26032 -0.146999 52
-0.800945 1.23929 -0.279509 64
-1.16732 1.25798 -0.266623 56
-0.803075 1.24495 -0.387329 59
-1.1549 1.24214 -0.382962 39
-0.792223 1.23805 0.33074 59
-1.16277 1.25804 0.449112 56
-0.79898 1.24818 0.228671 61
-1.16075 1.26017 0.32599 55
-0.797809 1.24589 0.126376 59
-1.1582 1.26089 0.205666 56
-0.797751 1.24628 0.0252187 61
