# .PCD v0.7 - Point Cloud Data file format
VERSION 0.7
FIELDS x y z intensity
SIZE 4 4 4 4
TYPE F F F F
COUNT 1 1 1 1
WIDTH 1552
HEIGHT 1
VIEWPOINT 0 0 0 1 0 0 0
POINTS 1552
DATA ascii
1.31404 -4.62445 -0.756803 4
0.230734 -2.30554 -0.611062 59
0.913618 -3.20803 -0.760869 4
0.561562 -5.64182 1.29881 11
1.89101 -6.60379 1.82876 1
0.564033 -5.65679 0.892833 12
1.87509 -6.59584 1.32493 35
0.225345 -2.24769 0.194575 9
1.86473 -6.58988 0.835444 35
0.228824 -2.29071 0.0395733 55
1.39972 -4.96406 0.268483 8
0.229381 -2.3004 -0.119723 56
1.39493 -4.95372 -0.0892254 45
0.227959 -2.29415 -0.27838 53
1.39663 -4.95979 -0.446869 47
0.227613 -2.29879 -0.441406 52
1.30126 -4.61011 -0.754062 8
0.226307 -2.30598 -0.611062 58
0.907351 -3.20728 -0.760308 4
0.534442 -5.68116 1.30724 11
1.84675 -6.5837 1.82036 1
1.8392 -6.60084 1.32398 35
0.212714 -2.24392 0.194139 9
1.82971 -6.60226 0.835748 36
0.216827 -2.29187 0.0395733 56
1.37017 -4.96193 0.26796 9
0.2164 -2.29163 -0.119198 56
1.36344 -4.94433 -0.08892 45
0.215313 -2.29288 -0.278076 53
1.37131 -4.96944 -0.447087 47
0.214263 -2.29021 -0.439501 52
1.27314 -4.60258 -0.751713 8
0.213343 -2.29751 -0.608475 59
0.893254 -3.22387 -0.763116 4
1.82291 -6.54272 1.80808 1
1.82506 -6.59458 1.32207 36
0.209256 -2.24924 0.194575 11
1.81669 -6.59556 0.834531 35
0.212826 -2.29225 0.0395733 58
1.36304 -4.96649 0.268091 9
0.213087 -2.29946 -0.119592 56
1.3568 -4.95394 -0.0890509 45
0.212164 -2.29816 -0.278684 55
1.35933 -4.95982 -0.446 47
0.210934 -2.29791 -0.44093 52
1.26642 -4.60956 -0.752496 8
0.209115 -2.29548 -0.607829 59
0.887539 -3.22292 -0.762554 4
1.79934 -6.5868 1.81777 1
1.78972 -6.59663 1.32064 36
0.197869 -2.25028 0.194575 9
1.77954 -6.5954 0.833314 33
0.201005 -2.29081 0.0395297 58
1.33441 -4.96391 0.267568 9
0.200828 -2.29806 -0.119461 56
1.3304 -4.95591 -0.0889636 45
0.199701 -2.29429 -0.278076 55
1.33205 -4.96206 -0.445565 47
0.198669 -2.29162 -0.439501 52
1.24355 -4.62089 -0.753279 8
0.197494 -2.29651 -0.607829 59
0.8681 -3.21812 -0.760308 4
1.78024 -6.56197 1.81002 1
1.77641 -6.59768 1.32017 36
0.194153 -2.2531 0.194793 11
1.76416 -6.58412 0.831489 32
0.196606 -2.29119 0.0395297 58
1.3335 -4.99517 0.269138 9
0.196817 -2.2984 -0.119461 58
1.31917 -4.94857 -0.0887891 45
0.195487 -2.29217 -0.277771 55
1.3221 -4.95956 -0.44513 47
0.19467 -2.29196 -0.439501 52
1.23292 -4.61352 -0.751713 4
0.193084 -2.29688 -0.607829 59
1.75279 -6.60184 1.81842 12
1.73934 -6.5974 1.31826 33
0.182159 -2.2566 0.195011 11
1.72788 -6.59117 0.831184 29
0.184607 -2.29219 0.0395297 59
1.29822 -4.97092 0.267437 9
0.184581 -2.29691 -0.11933 56
1.29364 -4.96047 -0.0888764 44
0.183278 -2.29566 -0.278076 55
1.29485 -4.9616 -0.444695 42
0.182266 -2.29298 -0.439501 52
1.2075 -4.61513 -0.75093 4
0.180679 -2.29305 -0.606535 61
0.366011 -4.66386 1.07027 1
1.72274 -6.53485 1.79903 1
1.72533 -6.59093 1.31635 35
0.178609 -2.26188 0.195447 11
0.180606 -2.2925 0.0395297 61
1.28664 -4.95846 0.266652 9
0.180572 -2.29723 -0.11933 59
1.28184 -4.95062 -0.0886582 8
0.179288 -2.291 -0.277467 55
1.27302 -4.91323 -0.440128 2
0.178264 -2.29329 -0.439501 52
1.19508 -4.60051 -0.748189 4
0.177045 -2.29817 -0.607829 59
0.340878 -4.65599 1.06802 3
0.166431 -2.25282 0.194575 11
0.169365 -2.29838 0.039617 67
1.25018 -4.924 0.264427 2
0.168579 -2.29314 -0.119067 61
1.2469 -4.91829 -0.0879601 2
0.167469 -2.29438 -0.277771 56
1.24383 -4.90272 -0.438606 2
0.16683 -2.29661 -0.439977 52
1.17097 -4.6067 -0.748189 4
0.165067 -2.29422 -0.606535 61
0.162498 -2.25311 0.194575 11
0.165175 -2.29617 0.0395733 68
1.23913 -4.91649 0.263904 2
0.164577 -2.29343 -0.119067 59
0.163114 -2.28972 -0.277163 56
1.23955 -4.92178 -0.440128 2
0.162478 -2.292 -0.439025 52
1.16111 -4.60156 -0.747015 4
0.161062 -2.29451 -0.606535 61
1.22621 -4.89459 1.34087 1
1.2243 -4.92307 0.978448 2
0.151028 -2.2589 0.195011 11
0.152821 -2.29202 0.0394861 70
0.152731 -2.29675 -0.119198 64
0.151123 -2.29054 -0.277163 56
0.150475 -2.29282 -0.439025 52
1.13581 -4.60278 -0.746232 3
0.149046 -2.29532 -0.606535 59
0.369063 -5.71627 1.31229 3
1.22059 -4.90844 1.34411 1
1.21393 -4.91805 0.977018 2
0.146925 -2.25667 0.194793 11
0.149141 -2.29727 0.0395733 76
0.148402 -2.29203 -0.118936 64
0.14681 -2.28585 -0.276554 55
0.146008 -2.28574 -0.437596 52
0.14504 -2.29558 -0.606535 61
0.336841 -5.69629 1.30724 1
1.19716 -4.92414 1.34669 2
0.135255 -2.25989 0.195011 12
0.136668 -2.29054 0.0394424 79
0.135706 -2.28781 -0.118673 61
0.135273 -2.29402 -0.277467 58
0.13418 -2.28892 -0.438073 52
0.132604 -2.28907 -0.604595 61
0.327316 -5.70417 1.30892 4
0.131167 -2.25764 0.194793 12
0.132413 -2.29329 0.0394861 80
0.131713 -2.28805 -0.118673 62
0.131129 -2.29178 -0.277163 56
0.130323 -2.2916 -0.438549 52
0.128075 -2.28691 -0.603949 61
0.297833 -5.73262 1.3151 1
0.118562 -2.25086 0.194139 12
0.120404 -2.29395 0.0394861 80
0.119602 -2.28621 -0.118542 64
0.118728 -2.29245 -0.277163 58
0.117797 -2.28982 -0.438073 53
0.116704 -2.29961 -0.607182 59
0.289437 -5.74524 1.3179 3
0.290997 -5.75651 0.90532 14
0.114633 -2.25106 0.194139 12
0.11615 -2.28916 0.0393988 85
0.115612 -2.28642 -0.118542 65
0.115003 -2.29016 -0.276859 58
0.113801 -2.29002 -0.438073 52
0.11234 -2.29257 -0.605242 59
0.264298 -5.83443 0.917417 27
0.103238 -2.25161 0.194139 12
0.104562 -2.28972 0.0393988 85
0.103527 -2.2845 -0.118411 68
0.103011 -2.29073 -0.276859 58
0.102316 -2.29302 -0.438549 52
0.100839 -2.29553 -0.605889 61
0.24343 -5.58818 0.878395 26
0.0994164 -2.25428 0.194357 14
0.100273 -2.29242 0.0394424 90
0.0997542 -2.28966 -0.118673 73
0.0990124 -2.2909 -0.276859 58
0.500292 -2.26385 -0.199406 8
0.0984179 -2.29565 -0.439025 52
0.0960326 -2.28606 -0.603302 62
0.211428 -5.56824 1.27635 23
0.212443 -5.56967 0.875273 29
0.0874077 -2.25976 0.194793 14
0.0880796 -2.28791 0.0393552 86
0.486294 -2.25469 0.119064 8
0.0877642 -2.29015 -0.118673 79
0.486102 -2.25757 -0.0397042 9
0.0865238 -2.28893 -0.276554 58
0.487902 -2.264 -0.199188 8
0.0857247 -2.28879 -0.437596 52
0.488963 -2.26142 -0.36137 8
0.0840615 -2.28653 -0.603302 61
0.203209 -5.58317 1.27972 17
0.20477 -5.59961 0.879956 18
0.0836443 -2.26488 0.195229 14
0.483489 -2.25134 0.278076 8
0.0841766 -2.29056 0.0393988 90
0.481169 -2.24813 0.118672 9
0.0840362 -2.29779 -0.119067 80
0.479527 -2.2462 -0.0394861 9
0.0829283 -2.28906 -0.276554 58
0.481323 -2.25268 -0.198101 11
0.0817299 -2.28893 -0.437596 52
0.483447 -2.25503 -0.360196 9
0.0799876 -2.28426 -0.602656 64
0.168179 -5.39667 1.23648 1
0.177672 -5.67218 0.891272 26
0.0721797 -2.26528 0.195229 14
0.470154 -2.24656 0.277163 9
0.072582 -2.29096 0.0393988 90
0.469906 -2.25306 0.118803 11
0.0719272 -2.2957 -0.118936 83
0.467637 -2.24615 -0.0394424 8
0.0707157 -2.28202 -0.275642 56
0.469009 -2.25273 -0.197884 8
0.0699963 -2.28441 -0.436644 52
0.472144 -2.25995 -0.360587 4
0.0685666 -2.28947 -0.603949 61
0.167351 -5.6916 1.30443 32
0.159085 -5.37629 0.844445 1
0.0681525 -2.26291 0.195011 14
0.466742 -2.2498 0.277467 9
0.0681107 -2.2886 0.0393552 90
0.464442 -2.24655 0.11841 9
0.0677757 -2.29083 -0.118673 85
0.463716 -2.24696 -0.0394424 9
0.0669457 -2.28958 -0.276554 59
0.464059 -2.24867 -0.197449 9
0.0660785 -2.28698 -0.43712 52
0.467693 -2.25835 -0.360196 4
0.0640386 -2.28477 -0.602656 62
0.136785 -5.70217 1.30667 24
0.137433 -5.68812 0.893613 32
0.055968 -2.26574 0.195229 14
0.454562 -2.2523 0.277467 9
0.0561865 -2.29142 0.0393988 90
0.451285 -2.24414 0.118148 8
0.0558393 -2.29365 -0.118804 90
0.449564 -2.23964 -0.0392679 9
0.0544994 -2.28743 -0.27625 59
0.451783 -2.24863 -0.197231 9
0.0536477 -2.28486 -0.436644 53
0.454382 -2.25351 -0.359021 4
0.0521283 -2.28749 -0.603302 62
0.127234 -5.67558 1.3005 17
0.128167 -5.67352 0.891272 24
0.0519578 -2.26334 0.195011 15
0.450039 -2.24814 0.276859 8
0.0520764 -2.28652 0.0393115 90
0.446773 -2.23995 0.117887 8
0.0517263 -2.28875 -0.118542 90
0.445161 -2.23797 -0.0392243 8
0.0510136 -2.29248 -0.276859 61
0.447858 -2.24941 -0.197231 8
0.0496598 -2.28495 -0.436644 53
0.449471 -2.24946 -0.358238 4
0.0481358 -2.28757 -0.603302 64
0.0970202 -5.64694 1.29376 14
0.0977407 -5.63214 0.884638 15
0.0404584 -2.26109 0.194793 15
0.436344 -2.24073 0.275642 4
0.0405881 -2.29175 0.0393988 90
0.435519 -2.24471 0.118018 8
0.0398254 -2.29399 -0.118804 90
0.431907 -2.23038 -0.0390498 9
0.0389282 -2.28775 -0.27625 61
0.436553 -2.25417 -0.197449 8
0.0381729 -2.29008 -0.437596 53
0.435305 -2.23967 -0.356281 4
0.0364085 -2.27813 -0.600716 61
0.438393 -2.24318 -0.518851 4
0.0860916 -5.57646 1.27747 15
0.0876072 -5.61255 0.881517 30
0.0364733 -2.25866 0.194575 17
0.431483 -2.23662 0.275033 4
0.0361503 -2.28932 0.0393552 90
0.431601 -2.24546 0.118018 9
0.0357841 -2.29156 -0.118673 90
0.42849 -2.23359 -0.0390934 9
0.0350444 -2.29526 -0.277163 59
0.431669 -2.25004 -0.197014 8
0.0341056 -2.28523 -0.436644 53
0.433284 -2.25012 -0.357847 8
0.0320672 -2.28061 -0.601362 59
0.43635 -2.25351 -0.521097 4
0.0560618 -5.59146 1.28084 20
0.0572884 -5.61788 0.882297 30
0.0242775 -2.26132 0.194793 20
0.419375 -2.23892 0.275033 4
0.0241878 -2.29198 0.0393988 91
0.416667 -2.23305 0.117233 11
0.0238095 -2.29421 -0.118804 90
0.416861 -2.23833 -0.039137 9
0.0225336 -2.28549 -0.275946 61
0.418497 -2.24492 -0.196362 8
0.0217409 -2.28538 -0.436644 53
0.419659 -2.24265 -0.356281 4
0.020185 -2.28799 -0.603302 62
0.42324 -2.25105 -0.519974 4
0.0473786 -5.60372 1.28365 18
0.0485672 -5.63031 0.884248 30
0.0202681 -2.25389 0.194139 21
0.416316 -2.24201 0.275337 4
0.020167 -2.28952 0.0393552 95
0.414536 -2.24106 0.117625 15
0.0197853 -2.29175 -0.118673 90
0.411578 -2.23168 -0.0390061 9
0.0189435 -2.28552 -0.275946 61
0.413664 -2.24076 -0.195927 9
0.0177697 -2.28787 -0.43712 53
0.416199 -2.24581 -0.356672 4
0.0161916 -2.28802 -0.603302 64
0.42151 -2.26129 -0.52222 4
0.0180732 -5.61608 1.28646 15
0.019133 -5.6453 0.886589 32
0.00887647 -2.25894 0.194575 23
0.402789 -2.2344 0.27412 4
0.00857066 -2.28709 0.0393115 95
0.40235 -2.24074 0.117494 15
0.00777853 -2.28933 -0.118542 90
0.400724 -2.2362 -0.0390498 9
0.00697637 -2.28559 -0.275946 61
0.402815 -2.24779 -0.196362 9
0.00618955 -2.28793 -0.43712 53
0.405319 -2.25282 -0.357455 8
0.00460065 -2.28083 -0.601362 61
0.406591 -2.24669 -0.51829 4
0.00830104 -5.64046 1.29207 15
0.00492996 -2.25646 0.194357 23
0.400212 -2.24242 0.275033 8
0.00418585 -2.29211 0.0393988 91
0.399323 -2.24636 0.117756 15
0.00378813 -2.29433 -0.118804 90
0.396378 -2.23443 -0.0390061 11
0.00298899 -2.28808 -0.27625 62
0.399331 -2.25094 -0.196579 11
0.00219464 -2.28303 -0.436168 53
0.400072 -2.24623 -0.356281 8
0.00021924 -2.28566 -0.602656 62
0.404843 -2.25938 -0.521097 4
-0.0213392 -5.43092 1.24378 1
-0.00726913 -2.25396 0.194139 24
0.389358 -2.25189 0.275946 9
-0.00780556 -2.2896 0.0393552 96
0.388878 -2.25832 0.118279 14
-0.00819357 -2.28683 -0.118411 90
0.386854 -2.25132 -0.0392679 12
-0.00940238 -2.29054 -0.276554 62
0.389249 -2.26282 -0.197449 11
-0.0101701 -2.28546 -0.436644 53
0.389582 -2.25559 -0.357455 8
-0.0117345 -2.28322 -0.602009 64
0.393456 -2.26634 -0.52222 4
-0.0314696 -5.70859 1.3078 24
-0.030504 -5.71192 0.897125 36
-0.0112169 -2.25644 0.194357 24
0.386668 -2.25739 0.276554 9
-0.0118016 -2.28958 0.0393552 97
0.384905 -2.25647 0.118148 12
-0.0121996 -2.28931 -0.118542 90
0.383773 -2.25692 -0.0393552 8
-0.012938 -2.2806 -0.275337 62
0.385299 -2.26349 -0.197449 11
-0.0141256 -2.28053 -0.435692 52
0.386908 -2.26357 -0.35863 8
-0.0157376 -2.28561 -0.602656 64
0.391568 -2.27655 -0.524467 3
-0.061252 -5.6986 1.30555 20
-0.060224 -5.6944 0.894394 29
-0.0226641 -2.25884 0.194575 27
0.373198 -2.24959 0.275337 3
-0.0234441 -2.29449 0.0394424 98
0.374734 -2.2683 0.118672 3
-0.0237592 -2.28672 -0.118411 90
0.374403 -2.27116 -0.0395733 4
-0.0249647 -2.28794 -0.27625 64
0.376301 -2.28015 -0.198754 8
-0.0257264 -2.28534 -0.436644 53
0.375051 -2.26556 -0.35863 8
-0.0272452 -2.28067 -0.601362 64
0.379237 -2.27617 -0.523905 3
-0.0698053 -5.66683 1.29825 15
-0.0698522 -5.6696 0.890492 24
-0.0265139 -2.25133 0.193922 26
0.371713 -2.26493 0.277163 2
-0.0274487 -2.29444 0.0394424 98
0.370774 -2.26895 0.118672 9
-0.027782 -2.28917 -0.118542 90
0.369624 -2.26688 -0.0394861 9
-0.0289579 -2.2879 -0.27625 67
0.371509 -2.27589 -0.198319 9
-0.0296817 -2.28284 -0.436168 53
0.372713 -2.27596 -0.360196 4
-0.0312948 -2.28545 -0.602656 62
0.376066 -2.28163 -0.525028 4
-0.100835 -5.63226 1.29039 14
-0.0999938 -5.63951 0.885809 21
-0.038783 -2.25613 0.194357 24
0.35906 -2.26445 0.276859 9
-0.0398175 -2.29176 0.0393988 98
0.358098 -2.26846 0.118541 8
-0.0402125 -2.29148 -0.118673 90
0.357353 -2.26884 -0.0394861 9
-0.0413824 -2.29019 -0.276554 67
0.359976 -2.28279 -0.198754 8
-0.0420792 -2.2851 -0.436644 53
0.359611 -2.27306 -0.359413 4
-0.0435645 -2.28042 -0.601362 64
0.362163 -2.27402 -0.522782 4
-0.109153 -5.6053 1.28421 14
-0.109203 -5.60723 0.880736 18
-0.0425746 -2.24859 0.193704 26
0.356275 -2.27243 0.277771 8
-0.0438666 -2.29419 0.0394424 98
0.353748 -2.26662 0.11841 8
-0.0440628 -2.28392 -0.118279 90
0.352613 -2.26452 -0.0393988 9
-0.0453288 -2.28763 -0.27625 64
0.354436 -2.27357 -0.197884 8
-0.0459654 -2.28011 -0.435692 53
0.35487 -2.26881 -0.35863 4
-0.0475445 -2.28034 -0.601362 64
0.359346 -2.28186 -0.524467 4
-0.138683 -5.57297 1.27691 15
-0.138438 -5.60164 0.879956 24
-0.054471 -2.25332 0.194139 27
0.343242 -2.26691 0.276859 4
-0.0558783 -2.29393 0.0394424 99
0.341498 -2.26597 0.118279 8
-0.0560207 -2.28366 -0.118279 90
0.341505 -2.27128 -0.0394861 9
-0.0573062 -2.28736 -0.27625 65
0.343654 -2.28278 -0.198536 8
-0.0579672 -2.28229 -0.436168 53
0.343008 -2.26814 -0.358238 4
-0.059677 -2.2873 -0.603302 61
0.345165 -2.26927 -0.521097 4
-0.142233 -5.37792 1.23199 1
-0.147957 -5.62857 0.884248 24
-0.0584037 -2.25322 0.194139 27
0.339308 -2.26499 0.276554 4
-0.0598819 -2.29383 0.0394424 100
0.338685 -2.27144 0.118541 8
-0.0601406 -2.28855 -0.118542 90
0.336051 -2.26199 -0.0393115 9
-0.0608991 -2.28727 -0.27625 65
0.337812 -2.27107 -0.197449 9
-0.0620186 -2.28464 -0.436644 52
0.339419 -2.27117 -0.35863 8
-0.0632569 -2.27271 -0.599422 61
0.342335 -2.27462 -0.52222 4
-0.178325 -5.62546 1.28927 15
-0.178759 -5.66968 0.890882 26
-0.0698075 -2.2529 0.194139 29
0.327084 -2.26428 0.27625 3
-0.0714911 -2.29349 0.0394424 100
0.325346 -2.2633 0.118018 8
-0.0717231 -2.28821 -0.118542 90
0.324957 -2.26613 -0.0393552 11
-0.0727938 -2.28444 -0.275946 64
0.325594 -2.26782 -0.197014 9
-0.0735814 -2.2843 -0.436644 53
0.327879 -2.27536 -0.359021 9
-0.074921 -2.27719 -0.600716 61
0.329355 -2.26915 -0.520536 4
-0.188957 -5.67874 1.30162 20
-0.189978 -5.70884 0.897125 35
-0.0736564 -2.25028 0.193922 29
0.32242 -2.25994 0.275642 4
-0.0754939 -2.29337 0.0394424 99
0.321751 -2.26634 0.118148 8
-0.0756326 -2.28559 -0.118411 92
0.319579 -2.2568 -0.0391806 11
-0.0767808 -2.28431 -0.275946 65
0.321281 -2.26592 -0.196796 9
-0.0773985 -2.27926 -0.435692 53
0.322849 -2.2686 -0.357847 9
-0.0788102 -2.27464 -0.600069 61
0.325394 -2.26972 -0.520536 4
-0.210484 -5.44151 1.24715 1
-0.219771 -5.7053 0.896735 15
-0.0855338 -2.25235 0.194139 29
0.311269 -2.26651 0.27625 4
-0.0875009 -2.29294 0.0394424 99
0.309537 -2.26552 0.118018 8
-0.0879977 -2.28515 -0.118411 90
0.308444 -2.26339 -0.0392679 9
-0.0887403 -2.28388 -0.275946 65
0.308675 -2.26515 -0.196579 9
-0.0894292 -2.28128 -0.436168 53
0.311306 -2.2727 -0.358238 8
-0.0910124 -2.28143 -0.602009 64
0.313506 -2.2714 -0.520536 3
-0.225131 -5.56771 1.27635 12
-0.228029 -5.66297 0.890101 20
-0.0893644 -2.24971 0.193922 29
0.306974 -2.26459 0.275946 8
-0.0919029 -2.29277 0.0394424 100
0.304905 -2.26111 0.117756 9
-0.091884 -2.2825 -0.118279 90
0.303478 -2.2565 -0.039137 9
-0.0929306 -2.28868 -0.276554 61
0.305733 -2.27309 -0.197231 9
-0.0934107 -2.28112 -0.436168 53
0.308011 -2.27814 -0.359021 8
-0.0951875 -2.27643 -0.600716 59
0.308539 -2.2647 -0.518851 4
-0.255476 -5.57127 1.27747 15
-0.257079 -5.62712 0.884638 26
-0.101763 -2.25417 0.194357 27
-0.103906 -2.29225 0.0394424 100
0.294619 -2.27758 0.118541 9
-0.104064 -2.28697 -0.118542 91
0.293214 -2.27298 -0.0393988 9
-0.105197 -2.28566 -0.27625 67
0.294475 -2.2796 -0.197666 8
-0.105751 -2.28058 -0.436168 53
0.297048 -2.28706 -0.360196 2
-0.107336 -2.28073 -0.602009 59
0.297244 -2.27358 -0.520536 3
-0.265272 -5.59277 1.28253 15
-0.265332 -5.61437 0.882687 27
-0.105579 -2.2515 0.194139 26
-0.108026 -2.29457 0.0394861 100
0.291041 -2.27804 0.118541 8
-0.108055 -2.28679 -0.118542 90
0.289567 -2.27597 -0.0394424 2
-0.108667 -2.28301 -0.275946 64
0.291456 -2.28752 -0.198319 11
-0.109731 -2.28039 -0.436168 52
0.293056 -2.28758 -0.360196 14
-0.111435 -2.28295 -0.602656 61
0.294624 -2.28129 -0.52222 21
-0.293521 -5.57184 1.27804 18
-0.293294 -5.58578 0.878395 29
0.283624 -2.27733 0.438943 3
-0.116973 -2.25094 0.194139 29
-0.119375 -2.289 0.0393988 99
0.280035 -2.28696 0.118933 12
-0.119895 -2.2837 -0.118411 90
0.27866 -2.28236 -0.0395297 32
-0.121017 -2.28985 -0.276859 67
0.280395 -2.29643 -0.198971 44
-0.121404 -2.28226 -0.436644 53
0.281686 -2.29398 -0.360979 45
-0.122594 -2.27512 -0.600716 61
0.283588 -2.29005 -0.523905 45
-0.302979 -5.56645 1.27691 18
-0.30358 -5.59512 0.879956 20
0.279859 -2.28274 0.439896 3
-0.120767 -2.24825 0.193922 23
-0.123906 -2.29126 0.0394424 99
0.276044 -2.28745 0.118933 47
-0.123744 -2.28099 -0.118279 90
0.276195 -2.29525 -0.0397479 50
-0.12474 -2.28468 -0.27625 62
0.276689 -2.29939 -0.199188 49
-0.125251 -2.27959 -0.436168 53
0.277682 -2.29447 -0.360979 45
-0.126826 -2.27247 -0.600069 65
0.279591 -2.29055 -0.523905 45
-0.34084 -5.69361 1.30667 21
-0.340644 -5.70679 0.897906 33
0.267612 -2.28174 0.43942 4
-0.133375 -2.25502 0.194575 20
-0.135752 -2.28809 0.0393988 98
0.264827 -2.29882 0.119457 49
-0.135985 -2.2853 -0.118542 90
0.263482 -2.29423 -0.0397042 50
-0.137099 -2.28397 -0.27625 64
0.264356 -2.29833 -0.198971 49
-0.137433 -2.27643 -0.435692 53
0.265664 -2.29589 -0.360979 45
-0.138723 -2.27177 -0.600069 61
0.267194 -2.29203 -0.523905 45
-0.348883 -5.67848 1.3033 20
-0.34885 -5.69392 0.895955 32
0.264776 -2.29195 0.441326 4
-0.13731 -2.25478 0.194575 18
-0.139745 -2.28785 0.0393988 98
0.260928 -2.29676 0.119326 49
-0.140127 -2.28755 -0.118673 90
0.259192 -2.2922 -0.0396606 52
-0.140841 -2.28623 -0.276554 64
0.26063 -2.30126 -0.199188 49
-0.141406 -2.27619 -0.435692 52
0.261657 -2.29635 -0.360979 47
-0.142841 -2.27394 -0.600716 61
0.26331 -2.29002 -0.523343 45
-0.377146 -5.6547 1.29825 15
-0.375861 -5.65013 0.889321 24
0.252624 -2.28838 0.440373 4
-0.148721 -2.25406 0.194575 15
-0.151323 -2.28711 0.0393988 98
0.248625 -2.29561 0.119195 50
-0.151203 -2.27934 -0.118279 90
0.24786 -2.29597 -0.0397042 50
-0.152642 -2.28298 -0.27625 62
0.24816 -2.29513 -0.198536 49
-0.152925 -2.27544 -0.435692 53
0.249358 -2.29524 -0.360587 45
-0.154183 -2.27078 -0.600069 59
0.251045 -2.28895 -0.522782 45
-0.384029 -5.62494 1.29151 14
-0.383021 -5.61005 0.883077 15
0.24917 -2.2937 0.441326 3
-0.152994 -2.25876 0.195011 15
-0.155314 -2.28684 0.0393988 97
0.244618 -2.29604 0.119195 50
-0.155695 -2.28654 -0.118673 90
0.244391 -2.30137 -0.0397915 53
-0.156798 -2.28519 -0.276554 62
0.243886 -2.29308 -0.198319 49
-0.157067 -2.27762 -0.436168 52
0.245619 -2.29812 -0.360979 45
-0.158146 -2.2705 -0.600069 61
0.24705 -2.28938 -0.522782 47
-0.410863 -5.57419 1.28028 15
0.237156 -2.29497 0.441326 8
-0.164819 -2.25793 0.195011 15
0.584815 -5.66715 0.694276 11
-0.167286 -2.286 0.0393988 97
0.232849 -2.29977 0.119326 50
-0.168064 -2.28566 -0.118673 90
0.231313 -2.29267 -0.039617 55
-0.168577 -2.28186 -0.27625 65
0.231731 -2.29684 -0.198536 49
-0.16899 -2.27677 -0.436168 52
0.233328 -2.29692 -0.360587 47
-0.170214 -2.27205 -0.600716 59
0.235313 -2.29307 -0.523343 45
-0.421695 -5.58804 1.28365 18
0.59068 -5.64778 1.51018 11
0.232497 -2.29298 0.44085 11
-0.16876 -2.25764 0.195011 15
0.574165 -5.66076 0.693364 12
-0.172052 -2.29066 0.0394861 97
0.228835 -2.30018 0.119326 50
-0.171864 -2.28288 -0.118542 90
0.227563 -2.29556 -0.0396606 55
-0.172936 -2.28651 -0.276859 62
0.227972 -2.29972 -0.198754 50
-0.172964 -2.27647 -0.436168 52
0.229319 -2.29732 -0.360587 47
-0.174576 -2.27172 -0.600716 59
0.230562 -2.28621 -0.521659 45
-0.452514 -5.59296 1.28534 15
0.561315 -5.66291 1.51341 9
0.220968 -2.29905 0.441803 9
-0.180771 -2.25421 0.194793 15
-0.183438 -2.28225 0.0393552 96
0.21567 -2.29393 0.118933 50
-0.183815 -2.28195 -0.118542 90
0.214663 -2.29178 -0.0395733 55
-0.185507 -2.28802 -0.277163 62
0.21569 -2.29841 -0.198536 50
-0.185479 -2.27795 -0.436644 52
0.21705 -2.29604 -0.360196 45
-0.186269 -2.26837 -0.600069 61
0.218425 -2.28984 -0.52222 45
-0.447438 -5.42472 1.24659 1
0.552847 -5.6783 1.51729 11
0.216248 -2.29211 0.440373 4
-0.185115 -2.25886 0.195229 15
-0.187421 -2.28193 0.0393552 95
0.212302 -2.29675 0.119064 53
-0.188003 -2.28411 -0.118673 90
0.210897 -2.29464 -0.039617 58
-0.188071 -2.27536 -0.275642 61
0.211445 -2.2963 -0.198319 50
-0.189249 -2.27517 -0.436168 53
0.213275 -2.29887 -0.360587 47
-0.190228 -2.26804 -0.600069 59
0.214828 -2.29018 -0.52222 45
-0.498476 -5.67954 1.30611 18
-0.49886 -5.69514 0.897906 35
0.204867 -2.29562 0.44085 2
-0.195894 -2.25045 0.194575 15
-0.19875 -2.27846 0.0393115 95
0.200051 -2.29534 0.118933 55
-0.199741 -2.28061 -0.118542 90
0.199058 -2.29319 -0.0395733 58
-0.199982 -2.27434 -0.275642 59
0.199418 -2.29738 -0.198319 52
-0.200762 -2.27419 -0.436168 52
0.200795 -2.29504 -0.359804 47
-0.202136 -2.27186 -0.601362 58
0.202614 -2.28885 -0.521659 47
-0.510349 -5.7005 1.31117 27
-0.508358 -5.68934 0.897125 36
0.199804 -2.28867 0.43942 3
-0.200043 -2.25258 0.194793 15
-0.203124 -2.27807 0.0393115 94
0.196045 -2.29569 0.118933 55
-0.203497 -2.27777 -0.118411 90
0.195273 -2.29602 -0.039617 59
-0.204175 -2.27646 -0.275946 59
0.195192 -2.29524 -0.198101 50
-0.204731 -2.27383 -0.436168 52
0.196789 -2.29538 -0.359804 47
-0.206937 -2.27628 -0.602656 59
0.198403 -2.28678 -0.521097 45
-0.539567 -5.68067 1.30724 17
-0.53703 -5.66438 0.893613 26
0.187406 -2.2848 0.438467 3
-0.212463 -2.25395 0.195011 15
-0.215285 -2.27947 0.0393552 90
0.183621 -2.29671 0.118933 56
-0.216131 -2.28413 -0.118804 90
0.18244 -2.29206 -0.0395297 59
-0.216725 -2.27779 -0.27625 59
0.183172 -2.29623 -0.198101 52
-0.217735 -2.28002 -0.437596 52
0.184164 -2.29395 -0.359413 49
-0.21862 -2.27276 -0.602009 59
0.185825 -2.28539 -0.520536 47
-0.544968 -5.64345 1.29881 14
-0.54525 -5.64623 0.890882 15
-0.216396 -2.25357 0.195011 15
-0.219023 -2.2766 0.0393115 90
0.179812 -2.29952 0.119064 56
-0.219635 -2.27878 -0.118542 90
0.178439 -2.29238 -0.0395297 62
-0.2207 -2.27741 -0.27625 62
0.178567 -2.2891 -0.197449 52
-0.221714 -2.27964 -0.437596 52
0.179962 -2.29181 -0.359021 47
-0.22235 -2.26997 -0.601362 64
0.182035 -2.28814 -0.521097 47
-0.568818 -5.58478 1.2859 14
-0.566309 -5.5697 0.879175 23
-0.228052 -2.25493 0.195229 15
-0.230796 -2.27795 0.0393552 90
0.167796 -2.29542 0.118803 56
-0.231818 -2.28008 -0.118673 90
0.166835 -2.29325 -0.0395297 65
-0.231718 -2.27133 -0.275642 58
0.166951 -2.29497 -0.197884 55
-0.232998 -2.27604 -0.43712 52
0.16836 -2.29269 -0.359021 49
-0.233836 -2.26882 -0.601362 59
0.170451 -2.28903 -0.521097 47
-0.576803 -5.56681 1.28197 15
-0.580613 -5.61291 0.886199 18
-0.231218 -2.24709 0.194575 14
-0.235427 -2.27999 0.0393988 90
0.164156 -2.30069 0.119064 58
-0.235797 -2.27967 -0.118673 85
0.16265 -2.29105 -0.0394861 70
-0.235939 -2.27339 -0.275946 58
0.162764 -2.29277 -0.197666 55
-0.237226 -2.27808 -0.437596 52
0.164358 -2.29298 -0.359021 49
-0.238445 -2.27076 -0.602009 59
0.166092 -2.28446 -0.519974 47
-0.612474 -5.61447 1.29376 12
-0.608293 -5.58514 0.882297 14
-0.243912 -2.25076 0.195011 14
-0.247362 -2.27872 0.0393988 90
0.151197 -2.29407 0.118672 59
-0.24773 -2.27841 -0.118673 83
0.15042 -2.29439 -0.0395297 68
-0.248507 -2.27455 -0.27625 58
0.150925 -2.29608 -0.197884 55
-0.249548 -2.27676 -0.437596 52
0.152518 -2.29627 -0.359413 49
-0.250065 -2.26708 -0.601362 61
0.153729 -2.28533 -0.519974 47
-0.615384 -5.56023 1.28141 15
-0.615707 -5.57191 0.880346 26
-0.24784 -2.25033 0.195011 14
-0.251339 -2.27829 0.0393988 90
0.147263 -2.28932 0.11841 61
-0.251706 -2.27797 -0.118673 82
0.146087 -2.28966 -0.0394424 74
-0.252904 -2.28155 -0.277163 58
0.146589 -2.29137 -0.197449 56
-0.252975 -2.27144 -0.436644 52
0.148017 -2.28915 -0.358238 49
-0.254563 -2.27144 -0.602656 59
0.150139 -2.28557 -0.519974 47
-0.647863 -5.58597 1.28814 17
-0.649712 -5.61031 0.88698 30
0.360567 -5.77593 1.11714 2
-0.258653 -2.2441 0.194575 14
-0.262291 -2.27202 0.0393115 90
0.135579 -2.29505 0.118672 62
-0.263341 -2.27414 -0.118542 79
0.134496 -2.29037 -0.0394424 76
-0.263983 -2.2728 -0.27625 58
0.135043 -2.29956 -0.198101 58
-0.264469 -2.27013 -0.436644 52
0.136332 -2.29482 -0.359021 49
-0.265208 -2.26293 -0.600716 59
0.138475 -2.29119 -0.521097 45
-0.628492 -5.33806 1.23087 1
-0.656613 -5.58464 0.883077 30
0.349928 -5.78396 1.11857 2
-0.26257 -2.24365 0.194575 14
-0.267238 -2.27648 0.0393988 90
0.131573 -2.29528 0.118672 67
-0.267896 -2.27864 -0.118804 77
0.130351 -2.2881 -0.0393988 77
-0.268242 -2.2748 -0.276554 56
0.130589 -2.29234 -0.197449 58
-0.26901 -2.27454 -0.437596 52
0.132032 -2.29012 -0.358238 49
-0.270988 -2.27441 -0.603949 58
0.134032 -2.28413 -0.519413 47
-0.685729 -5.56427 1.28421 18
-0.686215 -5.5761 0.882297 27
0.319776 -5.78817 1.11904 2
-0.27501 -2.24466 0.194793 14
-0.278848 -2.27257 0.0393552 90
0.119152 -2.29596 0.118672 70
-0.278599 -2.26729 -0.118279 68
0.118103 -2.29127 -0.0394424 79
-0.279629 -2.26593 -0.275642 58
0.118986 -2.30045 -0.198101 59
-0.280101 -2.26331 -0.435692 50
0.119773 -2.29327 -0.35863 49
-0.281694 -2.26337 -0.601362 59
0.122076 -2.29212 -0.521097 47
-0.694166 -5.56076 1.28365 17
0.312686 -5.66272 1.50824 8
-0.695333 -5.57 0.881517 27
0.309807 -5.79117 1.11952 4
-0.278618 -2.24171 0.194575 14
-0.283745 -2.27952 0.0394861 90
0.114884 -2.29118 0.11841 71
-0.282556 -2.2668 -0.118279 65
0.113845 -2.28648 -0.0393552 85
-0.285132 -2.27775 -0.277163 58
0.114453 -2.2907 -0.197231 59
-0.284358 -2.26525 -0.436168 50
0.115511 -2.28854 -0.357847 49
-0.286556 -2.27006 -0.603302 59
0.117814 -2.28746 -0.519974 47
-0.726766 -5.57625 1.28814 14
0.288304 -5.76799 1.53603 4
-0.725446 -5.57363 0.882687 17
0.279601 -5.79516 1.12 14
-0.290673 -2.24269 0.194793 14
0.269752 -5.75793 0.702491 15
-0.294706 -2.27056 0.0393552 82
0.103003 -2.29424 0.118541 73
-0.294744 -2.26777 -0.118411 62
0.101988 -2.28954 -0.0393988 90
-0.296087 -2.26884 -0.27625 55
0.102923 -2.30122 -0.198101 59
-0.296534 -2.26617 -0.436644 52
0.104161 -2.29403 -0.35863 49
-0.296856 -2.25656 -0.600069 59
0.105718 -2.28561 -0.519413 45
-0.739355 -5.60409 1.29488 14
0.27871 -5.77813 1.53861 20
-0.704791 -5.3497 0.847177 1
0.268673 -5.77848 1.11666 20
-0.293283 -2.2323 0.193922 12
0.253392 -5.59971 0.683019 24
-0.299324 -2.275 0.0394424 82
0.0992863 -2.29191 0.11841 77
-0.299357 -2.2722 -0.118673 62
0.0978797 -2.28722 -0.0393552 90
-0.300303 -2.27329 -0.276859 56
0.098458 -2.29145 -0.197231 61
-0.301462 -2.27294 -0.438073 52
0.100044 -2.29174 -0.358238 50
-0.302076 -2.26561 -0.602656 59
0.101786 -2.27848 -0.517728 47
-0.77267 -5.6291 1.30162 15
0.249673 -5.78429 1.53991 12
-0.772439 -5.63461 0.893223 27
0.23134 -5.58851 1.07949 27
-0.305594 -2.23819 0.194575 12
0.223866 -5.596 0.682411 27
-0.310835 -2.27346 0.0394424 77
0.087485 -2.29738 0.118672 79
-0.310514 -2.26818 -0.118542 65
0.0865007 -2.29268 -0.0394424 90
-0.311184 -2.26432 -0.275946 55
0.0870578 -2.29689 -0.197666 64
-0.312626 -2.26896 -0.437596 52
0.0881432 -2.2947 -0.35863 52
-0.31354 -2.26406 -0.602656 59
0.09036 -2.29115 -0.520536 47
-0.784868 -5.65201 1.30724 18
0.230502 -5.56997 1.48239 14
-0.786015 -5.66016 0.897516 33
0.22099 -5.57419 1.07663 24
-0.3095 -2.23765 0.194575 12
0.214972 -5.61869 0.685149 20
-0.314802 -2.27291 0.0394424 73
0.0830918 -2.28755 0.118148 82
-0.315161 -2.27258 -0.118804 64
0.0823089 -2.28783 -0.0393552 90
-0.315823 -2.26868 -0.276554 56
0.0827633 -2.28958 -0.197014 64
-0.317607 -2.2757 -0.439025 52
0.0841381 -2.29485 -0.35863 50
-0.317828 -2.2659 -0.603302 58
0.0860703 -2.284 -0.518851 47
-0.81718 -5.65973 1.31004 21
0.200977 -5.56145 1.47981 15
-0.813522 -5.6413 0.895174 30
0.193098 -5.61206 1.08378 15
-0.320856 -2.23354 0.194357 11
0.188069 -5.69414 0.694276 27
-0.326699 -2.27123 0.0394424 73
0.0713614 -2.29544 0.118541 88
-0.327094 -2.26837 -0.118673 62
0.0704928 -2.29323 -0.0394424 90
-0.327341 -2.26454 -0.27625 55
0.070456 -2.29248 -0.197231 64
-0.328458 -2.26672 -0.437596 52
0.0720384 -2.29279 -0.358238 50
-0.330386 -2.26898 -0.604595 61
0.0741944 -2.28685 -0.519413 47
-0.823175 -5.63178 1.30387 15
0.192122 -5.58593 1.48627 14
-0.821937 -5.6301 0.893613 27
0.183877 -5.65903 1.09283 15
-0.325474 -2.2379 0.194793 12
0.17845 -5.70438 0.695493 38
-0.331059 -2.2706 0.0394424 70
0.0671982 -2.29057 0.118279 88
-0.332501 -2.27768 -0.119198 61
0.0662573 -2.28585 -0.0393115 90
-0.332014 -2.26888 -0.276859 53
0.0663774 -2.29011 -0.197014 67
-0.332414 -2.26614 -0.437596 52
0.0679582 -2.29045 -0.357847 50
-0.33368 -2.26118 -0.602656 59
0.070123 -2.28455 -0.518851 47
-0.852536 -5.62002 1.30218 15
0.163626 -5.64482 1.50178 14
-0.849793 -5.60848 0.890882 27
0.155072 -5.68935 1.09855 26
-0.33683 -2.23119 0.194357 11
0.147451 -5.7003 0.694885 35
-0.342943 -2.26884 0.0394424 68
0.054869 -2.2934 0.11841 90
-0.343297 -2.2685 -0.118804 61
0.054017 -2.29118 -0.0393988 90
-0.343911 -2.2646 -0.276554 53
0.0545786 -2.29789 -0.197666 68
-0.343928 -2.25946 -0.436644 52
0.0556949 -2.29572 -0.35863 52
-0.345515 -2.2594 -0.602656 58
0.057895 -2.28976 -0.519974 47
-0.858035 -5.597 1.29713 15
0.154656 -5.67648 1.51018 18
-0.856957 -5.5899 0.88815 26
0.14553 -5.70433 1.10141 24
-0.341479 -2.23552 0.194793 11
0.137254 -5.69063 0.693668 29
-0.347661 -2.27318 0.0395297 61
0.0508056 -2.291 0.118279 90
-0.348394 -2.2753 -0.119198 58
0.0499583 -2.28877 -0.0393552 90
-0.348998 -2.27135 -0.277467 55
0.050388 -2.29052 -0.197014 70
-0.349371 -2.26856 -0.438549 52
0.0515665 -2.29088 -0.357847 52
-0.35094 -2.26834 -0.605242 58
0.053711 -2.28255 -0.51829 47
-0.886008 -5.57784 1.29376 15
0.125373 -5.69653 1.51535 17
-0.885439 -5.58046 0.88737 26
0.11509 -5.67803 1.09617 15
-0.354351 -2.24108 0.195447 11
0.106869 -5.6615 0.690017 23
-0.359559 -2.27132 0.0395297 59
0.0388568 -2.29373 0.11841 90
-0.360695 -2.27591 -0.11933 58
0.0379737 -2.289 -0.0393552 90
-0.360495 -2.26704 -0.277163 53
0.0383473 -2.28826 -0.196796 71
-0.362408 -2.27397 -0.439977 50
0.0398742 -2.28617 -0.357064 52
-0.362812 -2.26647 -0.605242 58
0.0418086 -2.28524 -0.518851 47
-0.89245 -5.56201 1.29039 15
0.114819 -5.66776 1.5076 15
-0.893812 -5.57663 0.88698 20
0.104704 -5.65368 1.0914 14
-0.357867 -2.238 0.195229 11
0.0973904 -5.62941 0.686062 29
-0.363919 -2.27316 0.0395733 58
0.0352538 -2.29378 0.11841 90
-0.36427 -2.27281 -0.119198 56
0.0340209 -2.29156 -0.0393988 90
-0.364845 -2.27137 -0.277771 53
0.0343534 -2.28832 -0.196796 71
-0.365592 -2.26849 -0.439025 52
0.035884 -2.28624 -0.357064 52
-0.367542 -2.2706 -0.606535 56
0.038173 -2.28287 -0.51829 47
-0.924354 -5.57409 1.29432 14
0.0855875 -5.63447 1.49855 14
-0.930678 -5.61816 0.894394 17
0.0754552 -5.60997 1.08282 18
-0.368783 -2.2337 0.195011 11
0.0679137 -5.62984 0.686062 32
-0.374192 -2.26389 0.0394424 55
0.0232127 -2.29144 0.118279 90
-0.376985 -2.2758 -0.119461 56
0.0224515 -2.2942 -0.0394424 90
-0.375917 -2.26454 -0.277163 52
0.0223418 -2.28598 -0.196579 73
-0.377069 -2.26661 -0.439025 50
0.0239749 -2.29133 -0.357847 52
-0.379829 -2.27347 -0.607829 59
0.0261532 -2.27816 -0.517167 47
-0.940131 -5.6085 1.30274 15
0.074993 -5.58148 1.48433 14
-0.944974 -5.64331 0.898686 20
0.0647455 -5.61501 1.08378 21
-0.373092 -2.23551 0.195229 11
0.0582817 -5.64732 0.688191 30
-0.37978 -2.27057 0.0395733 58
0.0192133 -2.29148 0.118279 90
-0.38137 -2.2776 -0.119592 56
0.018422 -2.29174 -0.0393988 90
-0.380693 -2.26877 -0.277771 53
0.018352 -2.28602 -0.196579 76
-0.380616 -2.26352 -0.438549 52
0.0199491 -2.2889 -0.357455 52
-0.383385 -2.26798 -0.606535 58
0.022177 -2.27821 -0.517167 47
-0.975042 -5.62974 1.30892 15
0.0448578 -5.58905 1.48627 15
-0.981396 -5.67218 0.90415 24
0.0355026 -5.63736 1.08806 23
-0.384332 -2.22855 0.194793 11
0.0277975 -5.65996 0.689713 30
-0.390383 -2.26116 0.0394424 55
0.00681499 -2.29155 0.118279 90
-0.392863 -2.27311 -0.119461 55
0.00601055 -2.28931 -0.0393552 90
-0.392963 -2.26668 -0.277771 53
0.00638226 -2.28608 -0.196579 76
-0.393701 -2.26627 -0.439501 52
0.0079504 -2.2865 -0.357064 53
-0.396088 -2.2707 -0.607829 59
0.00986617 -2.28073 -0.517728 47
-0.990605 -5.66659 1.3179 23
0.0352067 -5.60361 1.49015 15
-0.995834 -5.70225 0.909222 32
0.0257034 -5.64478 1.08949 23
-0.388221 -2.22788 0.194793 11
0.0190004 -5.68233 0.692451 30
-0.396053 -2.27032 0.039617 55
0.00322414 -2.29405 0.11841 90
-0.397261 -2.27488 -0.119592 55
0.00202979 -2.29431 -0.0394424 92
-0.396952 -2.2685 -0.278076 50
0.00238447 -2.2836 -0.196362 79
-0.397655 -2.26558 -0.439501 50
0.00395969 -2.28651 -0.357064 53
-0.39963 -2.26762 -0.607182 58
0.0062836 -2.28074 -0.517728 47
-1.02286 -5.67571 1.32127 21
0.00687935 -5.62062 1.49467 14
-1.02086 -5.67023 0.90493 20
-0.00285735 -5.67428 1.09521 21
-0.399051 -2.22343 0.194575 9
-0.0107731 -5.7022 0.694885 35
-0.406208 -2.26091 0.0394861 53
-0.00878313 -2.29154 0.118279 90
-0.409214 -2.2753 -0.119723 55
-0.00957751 -2.29179 -0.0393988 96
-0.409267 -2.26883 -0.27838 50
-0.00917862 -2.28607 -0.196579 82
-0.409555 -2.26595 -0.439977 50
-0.00801247 -2.2865 -0.357064 53
-0.4124 -2.2727 -0.609122 58
-0.00565751 -2.27831 -0.517167 47
-1.02566 -5.64055 1.31341 14
-0.00291869 -5.65444 1.50372 14
-1.02191 -5.61985 0.897125 15
-0.012778 -5.68654 1.0976 21
-0.403823 -2.22763 0.195011 9
-0.0207877 -5.72451 0.697623 36
-0.411945 -2.27003 0.0396606 55
-0.0127913 -2.29402 0.11841 90
-0.412289 -2.26967 -0.119461 53
-0.0135774 -2.29177 -0.0393988 96
-0.412333 -2.26323 -0.277771 50
-0.0131686 -2.28605 -0.196579 82
-0.413952 -2.26765 -0.440453 50
-0.0120032 -2.28649 -0.357064 53
-0.415492 -2.26723 -0.607829 56
-0.00963899 -2.28073 -0.517728 47
-1.04897 -5.5966 1.30443 14
-0.0326549 -5.68091 1.51083 15
-1.04586 -5.5853 0.892443 15
-0.0426988 -5.70848 1.10189 26
-0.416398 -2.23038 0.195447 9
-0.0507208 -5.71936 0.697014 30
-0.422904 -2.26293 0.0395733 53
-0.0248026 -2.29392 0.11841 90
-0.425485 -2.27232 -0.119723 52
-0.0255769 -2.29167 -0.0393988 97
-0.425555 -2.26836 -0.278684 50
-0.0255596 -2.28844 -0.196796 82
-0.42491 -2.26062 -0.439501 49
-0.0239543 -2.28392 -0.356672 53
-0.427807 -2.26739 -0.608475 56
-0.0215628 -2.27821 -0.517167 47
-1.05103 -5.55408 1.29488 14
-0.0427301 -5.70499 1.51729 18
-1.05009 -5.55435 0.88776 20
-0.0536792 -5.71084 1.10236 18
-0.419365 -2.22476 0.195011 9
-0.0606302 -5.71181 0.696102 27
-0.427713 -2.26457 0.039617 55
-0.0288062 -2.29387 0.11841 90
-0.42945 -2.27157 -0.119723 52
-0.0295766 -2.29162 -0.0393988 97
-0.42905 -2.26518 -0.27838 50
-0.0295267 -2.2859 -0.196579 82
-0.429773 -2.2647 -0.440453 50
-0.0279404 -2.28388 -0.356672 53
-0.432613 -2.26894 -0.609122 56
-0.0255611 -2.28061 -0.517728 47
-1.0792 -5.53874 1.29264 15
-0.0733927 -5.68777 1.51277 15
-1.09241 -5.6116 0.897906 21
-0.0829712 -5.66632 1.09378 15
-0.431396 -2.22246 0.195011 9
-0.440042 -2.26475 0.0396606 53
-0.0412167 -2.29369 0.11841 90
-0.441816 -2.27174 -0.119855 50
-0.0420155 -2.29393 -0.0394424 98
-0.440823 -2.26039 -0.278076 50
-0.0414552 -2.28322 -0.196362 85
-0.44438 -2.27438 -0.442834 50
-0.0398984 -2.2837 -0.356672 53
-0.444487 -2.26664 -0.609122 56
-0.0378647 -2.278 -0.517167 47
-1.1006 -5.60158 1.3078 14
-0.0828534 -5.65383 1.50372 14
-1.05217 -5.36031 0.857713 1
-0.0924413 -5.63917 1.08854 15
-0.437195 -2.23148 0.195883 9
-0.443512 -2.26153 0.039617 53
-0.0447324 -2.28863 0.118148 90
-0.445298 -2.26852 -0.119723 50
-0.0459292 -2.28885 -0.0393552 98
-0.444853 -2.26212 -0.27838 50
-0.0454845 -2.28564 -0.196579 86
-0.44692 -2.26638 -0.441406 50
-0.0438841 -2.28363 -0.356672 53
-0.448442 -2.26586 -0.609122 56
-0.0414429 -2.27794 -0.517167 47
-1.12363 -5.5647 1.3005 14
-0.111059 -5.63161 1.4979 14
-1.12374 -5.57015 0.892443 20
-0.120426 -5.61164 1.0833 15
-0.449962 -2.23656 0.196536 8
-0.0546163 -2.26479 0.273512 9
-0.454953 -2.25925 0.039617 52
-0.0567716 -2.29086 0.118279 90
-0.457665 -2.2686 -0.119855 50
-0.0575711 -2.29109 -0.0393988 98
-0.457678 -2.26463 -0.278988 49
-0.0574514 -2.28537 -0.196579 88
-0.458874 -2.2665 -0.441882 50
-0.0558405 -2.28337 -0.356672 53
-0.461834 -2.27303 -0.611708 58
-0.0532658 -2.27282 -0.516044 47
-1.1314 -5.55318 1.29825 14
-0.120291 -5.60243 1.49015 14
-1.13444 -5.57302 0.893223 14
-0.130537 -5.58196 1.07758 15
-0.453368 -2.23333 0.196318 8
-0.0588046 -2.27462 0.274729 11
-0.459789 -2.26083 0.0396606 52
-0.0607699 -2.29075 0.118279 90
-0.461624 -2.2678 -0.119855 50
-0.0616317 -2.29349 -0.0394424 98
-0.461132 -2.26139 -0.278684 49
-0.0613783 -2.28277 -0.196362 86
-0.462829 -2.26569 -0.441882 50
-0.0598256 -2.28327 -0.356672 53
-0.465224 -2.26741 -0.610415 58
-0.0574009 -2.28003 -0.517728 47
-1.20491 -5.75441 1.3471 3
-0.149785 -5.57031 1.48175 14
-1.22381 -5.84958 0.938879 2
-0.160988 -5.62535 1.08616 15
-0.466465 -2.23572 0.196754 8
-0.0708936 -2.26682 0.273816 11
-0.472645 -2.26328 0.0397479 52
-0.0733121 -2.29538 0.118541 90
-0.474004 -2.26779 -0.119986 50
-0.0738887 -2.28812 -0.0393552 99
-0.473871 -2.2613 -0.278988 49
-0.0734047 -2.28491 -0.196579 86
-0.474575 -2.26075 -0.441406 50
-0.0717799 -2.28292 -0.356672 53
-0.477589 -2.2673 -0.611062 58
-0.0697361 -2.27968 -0.517728 47
-1.22201 -5.79065 1.35609 17
-0.160244 -5.5966 1.48886 14
-1.22127 -5.79208 0.929904 17
-0.172253 -5.67413 1.09569 15
-0.472424 -2.24465 0.197626 4
-0.074378 -2.26423 0.273512 9
-0.477112 -2.2649 0.0397915 50
-0.0767607 -2.29027 0.118279 90
-0.478994 -2.27185 -0.120248 49
-0.0778821 -2.28799 -0.0393552 99
-0.477423 -2.26055 -0.278988 49
-0.0773925 -2.28478 -0.196579 89
-0.47954 -2.26472 -0.442358 50
-0.0757642 -2.28279 -0.356672 53
-0.0732438 -2.27714 -0.517167 47
-1.25076 -5.77703 1.3544 15
-0.190074 -5.64158 1.50113 14
-0.483252 -2.23979 0.197408 4
-0.487511 -2.25757 0.0397042 50
-0.0887515 -2.28984 0.118279 90
-0.489429 -2.26451 -0.119986 50
-0.0894616 -2.28756 -0.0393552 99
-0.490306 -2.26287 -0.279597 49
-0.0888641 -2.28187 -0.196362 88
-0.491518 -2.26467 -0.442834 50
-0.0877158 -2.28236 -0.356672 53
-0.0852517 -2.27916 -0.517728 47
-1.24268 -5.69652 1.33587 18
-0.201506 -5.68709 1.51341 17
-1.17473 -5.38535 0.865517 1
-0.487692 -2.24138 0.197626 8
-0.492517 -2.2616 0.0397915 52
-0.092652 -2.28719 0.118148 90
-0.494447 -2.26853 -0.120248 49
-0.0936477 -2.2924 -0.0394424 99
-0.494786 -2.26443 -0.279901 49
-0.0929426 -2.2842 -0.196579 89
-0.49547 -2.2638 -0.442834 50
-0.0917931 -2.28468 -0.357064 53
-0.0890492 -2.27413 -0.516605 47
-1.27295 -5.68733 1.33531 26
-0.231088 -5.68113 1.51212 14
-0.499421 -2.2388 0.197626 4
-0.502167 -2.24923 0.039617 45
-0.104844 -2.29166 0.11841 90
-0.505621 -2.26095 -0.119986 49
-0.105759 -2.29438 -0.0394861 100
-0.505548 -2.25697 -0.279293 49
-0.105409 -2.28615 -0.196796 89
-0.506239 -2.25639 -0.441882 50
-0.103861 -2.28663 -0.357455 53
-0.101264 -2.28094 -0.51829 47
-0.23629 -5.56731 1.48175 12
-0.503875 -2.24035 0.197844 4
-0.509239 -2.26045 0.0398351 49
-0.108844 -2.29147 0.11841 90
-0.510117 -2.2625 -0.120117 49
-0.109649 -2.29169 -0.0394424 99
-0.511131 -2.26334 -0.280205 38
-0.109172 -2.28099 -0.196362 88
-0.511805 -2.26268 -0.44331 9
-0.107518 -2.27905 -0.356281 53
-0.104923 -2.27346 -0.516605 47
-0.267201 -5.58284 1.48627 15
-0.513745 -2.22789 0.196972 4
-0.518813 -2.24802 0.0396606 44
-0.121367 -2.29334 0.118541 90
-0.519703 -2.25007 -0.119592 12
-0.122047 -2.29106 -0.0394424 99
-0.523369 -2.26054 -0.280205 3
-0.121494 -2.28785 -0.197014 86
-0.522928 -2.2551 -0.442358 9
-0.119822 -2.28585 -0.357455 53
-0.117463 -2.27772 -0.517728 47
-0.276592 -5.57513 1.48433 14
-0.518763 -2.23184 0.197408 4
-0.295022 -5.61258 0.684845 30
-0.522736 -2.24711 0.0396606 4
-0.124969 -2.29315 0.118541 90
-0.523062 -2.24673 -0.119461 12
-0.125913 -2.28835 -0.0393988 98
-0.525224 -2.25247 -0.279293 3
-0.125356 -2.28515 -0.196796 86
-0.526303 -2.25179 -0.441882 4
-0.123555 -2.2807 -0.356672 53
-0.120916 -2.2751 -0.517167 45
-0.304288 -5.56401 1.48175 15
-0.528898 -2.22434 0.196972 4
-0.331884 -5.74226 0.70097 36
-0.534103 -2.24443 0.0396606 4
-0.137262 -2.29745 0.118803 90
-0.533658 -2.2391 -0.119198 11
-0.137639 -2.29018 -0.0394424 99
-0.535856 -2.24486 -0.278684 4
-0.137607 -2.28943 -0.197231 86
-0.537122 -2.24672 -0.441406 8
-0.135777 -2.28496 -0.357455 53
-0.132964 -2.27687 -0.517728 47
-0.315204 -5.58517 1.48756 14
-0.333715 -5.72101 1.10617 24
-0.52987 -2.2113 0.195883 9
-0.341178 -5.72928 0.699448 29
-0.534902 -2.22882 0.0393988 9
-0.140679 -2.28724 0.118279 90
-0.535811 -2.23089 -0.118804 11
-0.141337 -2.28495 -0.0393552 98
-0.540355 -2.24634 -0.278988 9
-0.141306 -2.28421 -0.196796 86
-0.541042 -2.24577 -0.441406 9
-0.139328 -2.27732 -0.356281 53
-0.136514 -2.26934 -0.516044 47
-0.352475 -5.69909 1.51858 20
-0.363512 -5.71673 1.1057 21
-0.543611 -2.21566 0.196536 9
-0.369154 -5.6803 0.693668 26
-0.54776 -2.23084 0.0394861 11
-0.153537 -2.29392 0.118672 90
-0.546888 -2.22563 -0.118673 11
-0.154186 -2.29163 -0.0394861 98
-0.550121 -2.23374 -0.277771 8
-0.153587 -2.28841 -0.197231 82
-0.552007 -2.23805 -0.440453 9
-0.151567 -2.28149 -0.357064 53
-0.149253 -2.27586 -0.517728 47
-0.361514 -5.68401 1.5147 15
-0.370014 -5.66221 1.09521 15
-0.546879 -2.21229 0.196318 9
-0.374821 -5.63019 0.687583 21
-0.551652 -2.22989 0.0394861 11
-0.156809 -2.28869 0.11841 90
-0.552576 -2.23194 -0.119067 11
-0.157851 -2.28637 -0.0393988 97
-0.556024 -2.24251 -0.278988 9
-0.156917 -2.2782 -0.196362 82
-0.556505 -2.23946 -0.44093 8
-0.155549 -2.28122 -0.357064 53
-0.152512 -2.27076 -0.516605 45
-0.388971 -5.66283 1.50953 14
-0.396624 -5.63088 1.08949 14
-0.561126 -2.22156 0.197408 9
-0.402363 -5.60093 0.684236 30
-0.56109 -2.21979 0.0393552 11
-0.169147 -2.29282 0.118672 90
-0.563026 -2.22418 -0.118804 11
-0.169781 -2.29053 -0.0394861 97
-0.169201 -2.28232 -0.196796 82
-0.566622 -2.23186 -0.439977 8
-0.167843 -2.2853 -0.357847 53
-0.164912 -2.27722 -0.51829 47
-0.39701 -5.63564 1.50243 12
-0.406209 -5.61298 1.08616 18
-0.565618 -2.223 0.197626 9
-0.413218 -5.61507 0.686062 30
-0.567825 -2.2284 0.0395297 11
-0.172783 -2.28754 0.11841 90
-0.567526 -2.22561 -0.118936 11
-0.17341 -2.28524 -0.0393988 97
-0.173185 -2.28202 -0.196796 82
-0.572345 -2.238 -0.441406 8
-0.171291 -2.27762 -0.356672 53
-0.168886 -2.27693 -0.51829 45
-0.424244 -5.59006 1.49079 14
-0.43672 -5.62546 1.08902 18
-0.57638 -2.21508 0.19719 8
-0.4463 -5.64738 0.690321 27
-0.185157 -2.28657 0.11841 90
-0.57854 -2.22019 -0.118804 11
-0.185772 -2.28427 -0.0393988 96
-0.185523 -2.28605 -0.197231 77
-0.584446 -2.23487 -0.441406 4
-0.183793 -2.28407 -0.357847 53
-0.180827 -2.27113 -0.517167 47
-0.43363 -5.5845 1.4895 14
-0.446537 -5.62468 1.08902 15
-0.583409 -2.22612 0.198279 8
-0.458524 -5.68872 0.695493 26
-0.188548 -2.28379 0.118279 82
-0.583684 -2.22401 -0.119067 9
-0.18996 -2.28644 -0.0394424 92
-0.189112 -2.28075 -0.196796 77
-0.588972 -2.23622 -0.441882 3
-0.187385 -2.27883 -0.357064 53
-0.184394 -2.27084 -0.517167 45
-0.463466 -5.60149 1.49467 14
-0.4795 -5.67616 1.0995 15
-0.594024 -2.22073 0.198061 4
-0.490616 -5.71344 0.69884 33
-0.200504 -2.28277 0.118279 80
-0.594934 -2.22102 -0.119067 4
-0.201531 -2.28544 -0.0394424 91
-0.200866 -2.28225 -0.197014 77
-0.600283 -2.23321 -0.441882 3
-0.199734 -2.28274 -0.357847 52
-0.604908 -2.24421 -0.613002 3
-0.196691 -2.2747 -0.51829 45
-0.476663 -5.64158 1.50566 14
-0.492746 -5.71443 1.10713 23
-0.601794 -2.23412 0.199369 4
-0.501874 -5.72741 0.700665 39
-0.204052 -2.27744 0.118018 71
-0.601416 -2.22962 -0.119592 8
-0.2053 -2.2826 -0.0393988 90
-0.204632 -2.27941 -0.196796 73
-0.602894 -2.22742 -0.44093 3
-0.203075 -2.275 -0.356672 53
-0.607556 -2.23849 -0.611708 3
-0.200034 -2.26707 -0.516605 45
-0.511679 -5.68944 1.51923 15
-0.523435 -5.70924 1.10665 27
-0.608575 -2.21162 0.197626 8
-0.530576 -5.6999 0.697623 29
-0.216371 -2.27631 0.118018 64
-0.612141 -2.22152 -0.11933 8
-0.217647 -2.28146 -0.0393988 90
-0.217192 -2.28075 -0.197014 73
-0.612971 -2.21703 -0.439501 4
-0.215439 -2.27883 -0.357455 52
-0.619658 -2.23517 -0.611708 4
-0.212297 -2.26595 -0.516605 45
-0.522701 -5.70056 1.52246 21
-0.531362 -5.68632 1.10236 15
-0.616433 -2.22495 0.198933 14
-0.536052 -5.662 0.693059 17
-0.220182 -2.27845 0.118148 59
-0.61468 -2.21564 -0.119067 11
-0.221392 -2.27858 -0.0393552 90
-0.221173 -2.28037 -0.197014 71
-0.618818 -2.22305 -0.44093 3
-0.219415 -2.27845 -0.357455 52
-0.621606 -2.22711 -0.609768 4
-0.216082 -2.26804 -0.517167 45
-0.549241 -5.6738 1.516 14
-0.556318 -5.64448 1.09474 14
-0.622258 -2.20263 0.19719 9
-0.562264 -5.62455 0.6888 21
-0.232357 -2.27975 0.118279 56
-0.623162 -2.20289 -0.118542 11
-0.232923 -2.27743 -0.0393552 90
-0.232712 -2.27922 -0.197014 68
-0.628047 -2.21281 -0.439501 3
-0.231342 -2.27727 -0.357455 52
-0.636183 -2.23554 -0.613002 4
-0.228193 -2.26931 -0.517728 45
-0.554681 -5.62716 1.50372 12
-0.562283 -5.60443 1.08711 15
-0.630198 -2.21592 0.198497 8
-0.571084 -5.61368 0.687583 24
-0.236335 -2.27934 0.118279 52
-0.625635 -2.197 -0.118279 9
-0.236644 -2.27454 -0.0393115 90
-0.236437 -2.27633 -0.196796 67
-0.63326 -2.21643 -0.440453 3
-0.235317 -2.27686 -0.357455 52
-0.642083 -2.24139 -0.614941 4
-0.231668 -2.26406 -0.516605 47
-0.581416 -5.59776 1.49661 14
-0.590597 -5.59164 1.0852 15
-0.636925 -2.19585 0.196972 8
-0.600993 -5.61555 0.688191 14
-0.248266 -2.27807 0.118279 49
-0.641702 -2.20797 -0.119067 9
-0.248816 -2.27575 -0.0393552 90
-0.249547 -2.28245 -0.197449 64
-0.649672 -2.22957 -0.443787 3
-0.247235 -2.2756 -0.357455 50
-0.654488 -2.24032 -0.615588 4
-0.24403 -2.26766 -0.517728 47
-0.591185 -5.59673 1.49661 14
-0.602372 -5.60026 1.08711 14
-0.643554 -2.20429 0.197844 8
-0.611858 -5.62436 0.689408 29
-0.251703 -2.27267 0.118018 44
-0.646257 -2.20924 -0.119198 8
-0.252517 -2.27283 -0.0393115 90
-0.25272 -2.27458 -0.196796 67
-0.655639 -2.2355 -0.445215 3
-0.251472 -2.27762 -0.357847 50
-0.664253 -2.25759 -0.620761 23
-0.248247 -2.26965 -0.51829 47
-0.629775 -5.57996 1.08378 18
-0.655471 -2.20078 0.197844 4
-0.644796 -5.64316 0.692147 26
-0.656797 -2.20382 0.0395297 4
-0.263712 -2.26879 0.117887 41
-0.663535 -2.22496 -0.120248 3
-0.265095 -2.27391 -0.0393552 90
-0.668548 -2.23748 -0.282031 11
-0.265192 -2.27818 -0.197231 64
-0.672658 -2.24838 -0.448548 50
-0.263394 -2.27627 -0.357847 50
-0.674674 -2.24945 -0.619468 61
-0.260523 -2.26827 -0.51829 45
-0.643674 -5.61543 1.09092 23
-0.66146 -2.20679 0.198497 3
-0.649691 -5.60763 0.687887 29
-0.666399 -2.22182 0.0398787 11
-0.267563 -2.27086 0.118018 41
-0.668855 -2.22858 -0.120511 30
-0.269063 -2.27345 -0.0393552 90
-0.672777 -2.23881 -0.282335 52
-0.268881 -2.27524 -0.197014 61
-0.675163 -2.2425 -0.447596 53
-0.267366 -2.2758 -0.357847 50
-0.682095 -2.25983 -0.622701 64
-0.264086 -2.26786 -0.51829 47
-0.670059 -5.59504 1.08759 24
-0.671164 -2.19865 0.198061 4
-0.680229 -5.614 0.689104 29
-0.681294 -2.23037 0.0400969 52
-0.279749 -2.2719 0.118148 38
-0.690026 -2.25608 -0.122218 55
-0.280265 -2.26958 -0.0393115 90
-0.690314 -2.25423 -0.284769 56
-0.28109 -2.27627 -0.197231 61
-0.69083 -2.25313 -0.450453 53
-0.279279 -2.27437 -0.357847 49
-0.694235 -2.25866 -0.623348 61
-0.275667 -2.26403 -0.517728 47
-0.679328 -5.58156 1.0852 21
-0.675001 -2.19747 0.198061 4
-0.68732 -5.59064 0.686366 27
-0.692201 -2.25055 0.0404896 52
-0.283105 -2.26646 0.117887 33
-0.695434 -2.25964 -0.12248 55
-0.284531 -2.27156 -0.0393552 88
-0.694979 -2.25539 -0.285073 55
-0.285063 -2.27578 -0.197231 61
-0.694037 -2.24958 -0.449977 53
-0.283248 -2.27388 -0.357847 49
-0.697855 -2.25501 -0.622701 68
-0.279912 -2.26596 -0.51829 45
-0.697705 -5.56985 1.49273 15
-0.707315 -5.56819 1.0833 20
-0.688371 -2.19854 0.198497 3
-0.719756 -5.60407 0.688496 21
-0.706222 -2.25405 0.0406205 55
-0.295364 -2.26489 0.117887 30
-0.706507 -2.25359 -0.122349 55
-0.296818 -2.26999 -0.0393552 85
-0.707172 -2.2516 -0.285073 56
-0.297609 -2.27919 -0.197666 59
-0.706198 -2.24579 -0.449977 55
-0.295463 -2.27482 -0.358238 49
-0.711107 -2.25593 -0.623994 64
