# .PCD v0.7 - Point Cloud Data file format
VERSION 0.7
FIELDS x y z intensity
SIZE 4 4 4 4
TYPE F F F F
COUNT 1 1 1 1
WIDTH 1536
HEIGHT 1
VIEWPOINT 0 0 0 1 0 0 0
POINTS 1536
DATA ascii
-0.80554 0.00830359 -0.149516 53
-0.806908 -0.130432 -0.124111 50
-0.80768 0.00887501 -0.20692 52
-0.808481 -0.131378 -0.180812 49
-7.20223 -1.2145 1.94508 35
-3.05475 0.0369914 0.477244 8
-7.20426 -1.20197 1.41167 36
-3.0532 0.036984 0.264082 14
-7.06264 -1.16941 0.873474 1
-3.05676 0.0375624 0.0527499 23
-1.74432 -0.283922 0.0908029 14
-0.649068 0.00699784 -0.0322938 61
-1.6997 -0.275627 -0.0294509 11
-0.794215 0.00914375 -0.0930975 62
-0.80307 0.00967567 -0.14904 55
-0.807134 -0.129024 -0.124111 50
-0.807664 0.0102847 -0.20692 52
-0.803881 -0.129305 -0.179689 49
-7.20828 -1.17803 1.94508 36
-3.10883 0.0539525 0.485829 1
-6.95832 -1.12459 1.36211 1
-3.07787 0.0528761 0.266261 2
-7.06377 -1.13163 0.872865 1
-3.08652 0.0535675 0.0532735 3
-1.77044 -0.278734 0.0921113 14
-0.651518 0.0104416 -0.0324251 61
-1.70601 -0.267809 -0.0295382 11
-0.796637 0.013348 -0.0934018 68
-0.807919 0.0138328 -0.149992 55
-0.802923 -0.124013 -0.123328 50
-0.805187 0.0143253 -0.206274 52
-0.806952 -0.125483 -0.18025 50
-7.19841 -1.16351 1.94184 35
-6.96773 -1.1124 1.36354 1
-3.08276 0.0583444 0.266697 11
-7.05593 -1.11774 0.871648 1
-3.07642 0.0592959 0.0530989 14
-1.79805 -0.279939 0.0935505 14
-0.646507 0.0114793 -0.0321625 62
-1.71635 -0.266392 -0.0297127 15
-0.799094 0.0147886 -0.093706 68
-0.807893 0.0152428 -0.149992 56
-0.803138 -0.122612 -0.123328 50
-0.805158 0.0158711 -0.206274 52
-0.804764 -0.12369 -0.179689 49
-7.19744 -1.12342 1.93991 35
-6.96861 -1.07515 1.36258 1
-7.06433 -1.07992 0.871953 1
-3.08856 0.075715 0.0533171 15
-0.646438 0.0148642 -0.0321625 65
-0.799002 0.0191119 -0.093706 71
-0.689868 -0.100473 -0.0578429 44
-0.807799 0.0196137 -0.149992 56
-0.801349 -0.117891 -0.122936 49
-0.80265 0.0200222 -0.205627 52
-0.807829 -0.119706 -0.18025 49
-7.14835 0.189521 1.64022 33
-7.197 -1.11049 1.93926 35
-7.26268 0.192587 1.14258 36
-6.9632 -1.06187 1.36115 1
-7.05394 -1.06573 0.870431 1
-3.09592 0.0813056 0.053448 14
-0.651402 0.0161267 -0.0324251 73
-0.796487 0.0204384 -0.0934018 70
-0.680192 -0.0977827 -0.0569731 44
-0.807764 0.0210235 -0.149992 58
-0.801554 -0.116492 -0.122936 50
-0.797786 0.0212856 -0.204334 52
-0.80322 -0.117561 -0.179127 49
-7.14478 0.228116 1.63966 33
-7.19317 -1.07136 1.93668 33
-7.2591 0.230533 1.14219 38
-6.95653 -1.0236 1.35877 1
-7.27117 0.22966 0.633404 26
-7.05942 -1.02878 0.870431 1
-3.08296 0.0971155 0.0532298 11
-0.663785 0.019938 -0.0330815 79
-0.793889 0.0245275 -0.0930975 70
-0.680695 -0.0942199 -0.0569731 45
-0.807642 0.0252527 -0.149992 58
-0.799709 -0.111937 -0.122545 50
-0.804904 0.0257065 -0.206274 52
-0.803824 -0.113354 -0.179127 49
-7.15172 0.239585 1.64134 33
-7.19502 -1.05881 1.93668 33
-7.25375 0.243036 1.14141 36
-6.95345 -1.01075 1.35782 1
-7.27076 0.24235 0.633404 27
-7.04892 -1.01468 0.86891 1
-3.08029 0.102412 0.0531862 9
-0.661255 0.0210119 -0.0329502 79
-0.793845 0.0259131 -0.0930975 70
-0.670997 -0.0916142 -0.0561033 45
-0.807597 0.0266622 -0.149992 58
-0.802347 -0.110893 -0.122936 50
-0.800031 0.0269402 -0.20498 53
-0.804021 -0.111951 -0.179127 49
-7.1455 0.276838 1.64022 33
-7.19312 -1.02135 1.93474 33
-7.2623 0.280129 1.14297 38
-6.9609 -0.975883 1.35829 1
-7.27442 0.27934 0.63384 29
-7.0466 -0.977963 0.867997 1
-3.12219 0.119647 0.0539279 3
-0.658641 0.0243764 -0.0328189 82
-0.793703 0.0299307 -0.0930975 73
-0.666534 -0.0874168 -0.0556684 47
-0.804999 0.0306519 -0.149516 58
-0.802898 -0.106831 -0.122936 50
-0.797472 0.0308914 -0.204334 52
-0.804577 -0.10788 -0.179127 49
-7.14744 0.289408 1.64078 33
-7.19011 -1.00812 1.93344 33
-7.25933 0.292704 1.14258 35
-6.95061 -0.960829 1.35591 1
-7.27143 0.291935 0.633622 32
-7.04092 -0.964647 0.867085 1
-3.06251 -0.414684 0.160148 9
-0.658597 0.0255259 -0.0328189 85
-0.791171 0.0312138 -0.0927933 77
-0.664218 -0.0859162 -0.0554509 47
-0.804945 0.0320568 -0.149516 56
-0.803084 -0.105429 -0.122936 50
-0.799823 0.0325248 -0.20498 52
-0.802351 -0.106141 -0.178566 49
-7.15064 0.3283 1.64191 35
-7.19306 -0.968882 1.9328 33
-7.26257 0.332203 1.14336 33
-6.95554 -0.924422 1.35591 1
-7.29214 0.332298 0.635583 26
-7.04604 -0.926538 0.867085 1
-3.05729 -0.397132 0.159755 9
-0.653467 0.0287439 -0.0325564 88
-0.788512 0.0353784 -0.092489 77
-0.667128 -0.0827614 -0.0556684 49
-0.802308 0.0362963 -0.14904 58
-0.806073 -0.101546 -0.123328 50
-0.799642 0.0367122 -0.20498 53
-0.800499 -0.101478 -0.178004 50
-7.14281 0.339183 1.64022 35
-7.18996 -0.955686 1.93151 32
-7.26204 0.343611 1.14336 33
-6.95471 -0.91196 1.35543 1
-7.29403 0.345143 0.635801 27
-7.04748 -0.915469 0.867085 1
-3.05295 -0.391686 0.159494 9
-0.653416 0.0298844 -0.0325564 90
-0.790933 0.0367364 -0.0927933 80
-0.664801 -0.081277 -0.0554509 47
-0.799792 0.0375771 -0.148564 58
-0.798903 -0.0991824 -0.122153 50
-0.801989 0.038227 -0.205627 53
-0.805488 -0.100855 -0.179127 50
-7.14824 0.376965 1.64191 33
-7.1947 -0.919283 1.93151 32
-7.26261 0.38176 1.14375 36
-6.95194 -0.875823 1.354 1
-7.29468 0.382187 0.636019 27
-7.04972 -0.878248 0.866781 1
-3.05249 -0.375387 0.159363 9
-0.660729 0.0337025 -0.0329502 90
-0.788252 0.0407447 -0.092489 80
-0.662746 -0.077488 -0.0552335 47
-0.799592 0.0416247 -0.148564 58
-0.801862 -0.095304 -0.122545 50
-0.799374 0.0421543 -0.20498 53
-0.801171 -0.0960267 -0.178004 50
-7.14514 0.389307 1.64134 33
-7.18671 -0.90551 1.92892 32
-7.26193 0.394435 1.14375 38
-6.95117 -0.862171 1.35353 1
-7.27908 0.394107 0.634712 29
-7.04385 -0.86503 0.865868 1
-3.05314 -0.370059 0.159363 11
-0.658177 0.0347188 -0.0328189 90
-0.78818 0.0421204 -0.092489 82
-0.665353 -0.0766339 -0.0554509 49
-0.801968 0.0431563 -0.14904 58
-0.802027 -0.0939044 -0.122545 50
-0.804114 0.043961 -0.206274 53
-0.79892 -0.094328 -0.177443 50
-7.14536 0.428106 1.64191 35
-7.18671 -0.866032 1.92763 32
-7.25476 0.433424 1.14297 38
-6.94828 -0.82489 1.3521 1
-7.27933 0.433634 0.63493 30
-7.27515 -0.85366 0.893858 33
-3.05757 -0.353825 0.159494 11
-0.653002 0.0378649 -0.0325564 90
-0.790418 0.0465344 -0.0927933 82
-0.665745 -0.0731491 -0.0554509 50
-0.806622 0.0477935 -0.149992 58
-0.80496 -0.0899927 -0.122936 50
-0.806283 0.0483194 -0.20692 53
-0.804257 -0.0905784 -0.178566 50
-7.14468 0.43933 1.64191 33
-7.18581 -0.853201 1.92698 32
-7.25654 0.444971 1.14336 38
-6.94971 -0.812761 1.3521 1
-7.27856 0.446338 0.63493 32
-7.04232 -0.814973 0.864955 1
-3.05565 -0.348735 0.159363 11
-0.657918 0.0393129 -0.0328189 90
-0.790344 0.047776 -0.0927933 85
-0.668346 -0.0722724 -0.0556684 52
-0.806538 0.0492013 -0.149992 58
-0.797757 -0.0877336 -0.121762 50
-0.803787 0.0495737 -0.206274 53
-0.799559 -0.0887482 -0.177443 50
-7.14228 0.476733 1.64191 33
-7.19004 -0.81682 1.92698 32
-7.25411 0.48296 1.14336 38
-6.94885 -0.777027 1.35114 1
-7.26378 0.482345 0.63384 32
-7.03663 -0.776993 0.863738 1
-3.05247 -0.332183 0.159101 11
-0.655212 0.04259 -0.0326876 90
-0.792558 0.0520806 -0.0930975 86
-0.666239 -0.0684995 -0.0554509 52
-0.806278 0.0532829 -0.149992 58
-0.80066 -0.0838272 -0.122153 52
-0.805935 0.0538065 -0.20692 52
-0.802434 -0.0848312 -0.178004 50
-7.14143 0.489198 1.64191 33
-7.18185 -0.803189 1.9244 32
-7.25326 0.49562 1.14336 38
-6.95033 -0.763684 1.35114 1
-7.2679 0.495361 0.634276 33
-7.27478 -0.790603 0.892945 33
-3.05552 -0.327124 0.159232 11
-0.655137 0.0437335 -0.0326876 95
-0.787515 0.053121 -0.092489 86
-0.668834 -0.0676047 -0.0556684 52
-0.806184 0.05469 -0.149992 58
-0.800805 -0.0824297 -0.122153 50
-0.803421 0.0551839 -0.206274 53
-0.797738 -0.0828976 -0.176881 49
-7.14354 0.528189 1.64303 35
-7.1861 -0.76432 1.9244 32
-7.24308 0.53431 1.14219 38
-6.94692 -0.726511 1.34971 1
-7.25518 0.533944 0.633404 33
-7.27895 -0.751231 0.892945 35
-3.05725 -0.310588 0.159232 11
-0.659879 0.0475323 -0.0329502 98
-0.787216 0.0573811 -0.092489 88
-0.664224 -0.0635915 -0.0552335 50
-0.803429 0.0588675 -0.149516 58
-0.79877 -0.0779809 -0.121762 50
-0.800713 0.0592075 -0.205627 53
-0.795752 -0.0783269 -0.17632 50
-7.13785 0.539042 1.64191 33
-7.18502 -0.751524 1.92375 32
-7.24962 0.546245 1.14336 38
-6.94329 -0.71388 1.34876 1
-7.25423 0.546606 0.633404 33
-7.27272 -0.739039 0.892032 32
-3.05028 -0.305028 0.15884 11
-0.657305 0.048495 -0.0328189 102
-0.789599 0.0588062 -0.0927933 88
-0.666812 -0.062683 -0.0554509 52
-0.803325 0.0602696 -0.149516 58
-0.793992 -0.0760859 -0.120979 52
-0.798201 0.0604184 -0.20498 53
-0.79345 -0.0768273 -0.175758 50
-7.14221 0.576998 1.64359 35
-7.18152 -0.714426 1.92181 32
-7.24174 0.583798 1.14258 38
-6.94926 -0.678968 1.34924 1
-7.25137 0.583315 0.633404 35
-7.27649 -0.700949 0.892032 33
-3.04935 -0.288814 0.158709 11
-0.791754 0.0631413 -0.0930975 89
-0.664641 -0.0590689 -0.0552335 50
-0.798118 0.0639344 -0.148564 59
-0.796837 -0.072165 -0.12137 52
-0.797885 0.0644577 -0.20498 53
-0.796266 -0.0729086 -0.17632 50
-6.86695 0.565564 1.58014 1
-7.18035 -0.701654 1.92117 30
-7.25055 0.597249 1.14414 38
-6.94066 -0.665894 1.34733 1
-7.25283 0.596175 0.633622 33
-7.2777 -0.688248 0.892032 33
-3.05482 -0.283961 0.15897 11
-0.78917 0.0643172 -0.0927933 88
-0.669702 -0.0583766 -0.0556684 52
-0.805342 0.0659408 -0.149992 58
-0.794504 -0.070541 -0.120979 52
-0.800178 0.0660531 -0.205627 53
-0.798817 -0.0717514 -0.176881 52
-7.14043 0.627059 1.64415 36
-7.17912 -0.663601 1.91987 30
-7.24486 0.634989 1.14375 38
-6.93672 -0.628874 1.3459 1
-7.24961 0.634143 0.633622 33
-7.2812 -0.650133 0.892032 33
-3.05627 -0.267962 0.15897 12
-0.661637 0.0569604 -0.0330815 111
-0.78635 0.0682295 -0.092489 88
-0.667528 -0.0545318 -0.0554509 53
-0.800096 0.069722 -0.14904 59
-0.794862 -0.06638 -0.120979 50
-0.79501 0.0698108 -0.204334 53
-0.799182 -0.0675678 -0.176881 50
-7.11992 0.637778 1.63966 26
-7.18027 -0.65107 1.91987 32
-7.23637 0.646971 1.14258 35
-6.94036 -0.615774 1.34638 1
-7.24601 0.646573 0.633404 33
-7.27244 -0.636552 0.890815 33
-3.05673 -0.262627 0.15897 12
-0.656564 0.0576677 -0.0328189 115
-0.796115 0.0704945 -0.093706 90
-0.66266 -0.0529343 -0.055016 53
-0.797529 0.0708967 -0.148564 58
-0.797436 -0.0652087 -0.12137 50
-0.79247 0.0711169 -0.203687 55
-0.799299 -0.0661729 -0.176881 50
-7.17887 -0.611798 1.91858 30
-6.94104 -0.579221 1.3459 1
-7.27825 -0.5974 0.89112 35
-3.05313 -0.245677 0.158709 12
-0.658738 0.0613414 -0.0329502 122
-0.798193 0.0750374 -0.0940102 90
-0.662928 -0.0494639 -0.055016 53
-0.797134 0.0752107 -0.148564 58
-0.792845 -0.0606261 -0.120587 52
-0.796894 0.0757307 -0.20498 53
-0.79479 -0.0614422 -0.175758 50
-7.17271 -0.59866 1.91664 29
-6.9396 -0.566904 1.34543 1
-7.28165 -0.586167 0.891424 35
-3.06098 -0.241481 0.159101 12
-0.661115 0.062732 -0.0330815 126
-0.793134 0.0758103 -0.0934018 90
-0.663013 -0.0483068 -0.055016 55
-0.797002 0.0766019 -0.148564 58
-0.788028 -0.0588445 -0.119804 52
-0.796761 0.0771214 -0.20498 53
-0.794885 -0.0601936 -0.175758 52
-2.85347 0.289937 0.653056 47
-7.16842 -0.561777 1.9147 29
-6.93504 -0.531205 1.344 1
-7.28462 -0.548032 0.891424 33
-3.05722 -0.225077 0.15884 12
-0.658294 0.0659387 -0.0329502 131
-0.787789 0.0794554 -0.0927933 90
-0.663257 -0.0448347 -0.055016 55
-0.794162 0.0803834 -0.148088 58
-0.795711 -0.0552755 -0.120979 52
-0.79636 0.0811532 -0.20498 53
-0.800048 -0.0564029 -0.176881 50
-2.85296 0.294917 0.653056 47
-7.17662 -0.549824 1.91664 32
-6.93115 -0.517521 1.34304 1
-7.27567 -0.534584 0.890207 33
-3.05512 -0.219557 0.158709 12
-0.658178 0.0670875 -0.0329502 134
-0.792586 0.0813455 -0.0934018 90
-0.663334 -0.043677 -0.055016 55
-0.794021 0.0817694 -0.148088 58
-0.795807 -0.0538867 -0.120979 52
-0.798605 0.0829356 -0.205627 53
-0.797715 -0.0548247 -0.17632 50
-2.84648 0.309819 0.651933 47
-7.16022 -0.509602 1.91147 29
-6.93376 -0.481222 1.34304 1
-7.2735 -0.494871 0.889599 33
-3.05128 -0.202686 0.158447 12
-0.660299 0.0708042 -0.0330815 135
-0.792134 0.0856326 -0.0934018 90
-0.663554 -0.0402032 -0.055016 55
-0.796078 -0.0497191 -0.120979 53
-0.798159 0.087116 -0.205627 55
-0.79314 -0.0501705 -0.175197 52
-2.84599 0.31429 0.651933 47
-7.1635 -0.497273 1.91212 27
-6.93215 -0.468952 1.34257 1
-7.26932 -0.483113 0.88899 33
-3.05409 -0.198058 0.158578 14
-0.657694 0.0716808 -0.0329502 140
-0.789532 0.0866019 -0.0930975 90
-0.658653 -0.0387166 -0.0545811 55
-0.791236 -0.0480006 -0.120196 52
-0.788407 0.0874271 -0.203041 53
-0.793218 -0.0489246 -0.175197 52
-2.83462 0.328062 0.649687 47
-7.15629 -0.460382 1.90953 27
-2.85571 0.33002 0.448758 50
-6.94178 -0.434325 1.344 1
-2.87248 0.33147 0.249919 55
-7.27175 -0.445044 0.88899 33
-3.05508 -0.182064 0.158578 14
-0.659802 0.075297 -0.0330815 146
-0.789068 0.0907347 -0.0930975 90
-0.65884 -0.0353824 -0.0545811 55
-0.800275 0.0923203 -0.149516 58
-0.793941 -0.0440087 -0.120587 52
-0.792751 0.0919816 -0.204334 53
-0.791032 -0.0446185 -0.174635 52
-2.84136 0.333369 0.651372 50
-7.15708 -0.447891 1.90953 26
-2.85758 0.335292 0.449148 53
-6.93273 -0.421606 1.34209 1
-2.862 0.335319 0.249048 53
-7.26508 -0.431905 0.888077 33
-3.06038 -0.177028 0.15884 14
-0.65967 0.0764485 -0.0330815 148
-0.791373 0.0924038 -0.0934018 90
-0.663873 -0.034527 -0.055016 55
-0.795239 0.0931374 -0.148564 58
-0.796481 -0.0427702 -0.120979 50
-0.794987 0.0936519 -0.20498 55
-0.786245 -0.0429421 -0.173512 50
-2.83704 0.348935 0.65081 50
-6.97616 -0.398564 1.86042 1
-2.86062 0.351353 0.449929 55
-6.93246 -0.383953 1.34161 1
-2.86262 0.351104 0.249265 55
-7.27227 -0.392862 0.888686 33
-3.05631 -0.160198 0.158578 14
-0.654291 0.0794045 -0.0328189 146
-0.790861 0.0966842 -0.0934018 90
-0.65659 -0.0305332 -0.0543637 55
-0.797159 0.0977416 -0.14904 58
-0.796695 -0.0385993 -0.120979 50
-0.792073 0.097652 -0.204334 53
-0.793763 -0.0390917 -0.175197 50
-2.83649 0.353391 0.65081 52
-6.97444 -0.386252 1.85978 1
-2.85027 0.354621 0.448368 55
-6.92822 -0.371586 1.34066 1
-2.85953 0.355791 0.249048 53
-7.27288 -0.381438 0.888686 32
-3.05905 -0.155528 0.158709 14
-0.656629 0.0808567 -0.0329502 142
-0.788246 0.0976171 -0.0930975 90
-0.656642 -0.0293872 -0.0543637 55
-0.792117 0.0985184 -0.148088 58
-0.796761 -0.0372087 -0.120979 50
-0.794297 0.0993382 -0.20498 53
-0.791391 -0.0377139 -0.174635 52
-2.8346 0.368237 0.65081 52
-6.96665 -0.350455 1.85719 1
-2.85327 0.370178 0.449148 55
-6.93001 -0.336515 1.34066 1
-2.8651 0.371223 0.249701 55
-7.2723 -0.343234 0.888382 33
-3.05483 -0.139273 0.158447 14
-0.658687 0.0845019 -0.0330815 134
-0.792645 0.102387 -0.093706 90
-0.65927 -0.0261801 -0.0545811 56
-0.796475 0.103165 -0.14904 58
-0.789545 -0.0326849 -0.119804 50
-0.79139 0.103041 -0.204334 53
-0.796444 -0.033806 -0.175758 49
-2.8316 0.372371 0.650249 52
-6.97449 -0.338652 1.85913 1
-2.84772 0.374511 0.448368 53
-6.92568 -0.324186 1.33971 1
-2.85951 0.375572 0.249265 52
-7.27289 -0.330541 0.888382 33
-3.05258 -0.133828 0.158316 14
-0.653588 0.0849971 -0.0328189 124
-0.790005 0.103444 -0.0934018 90
-0.661803 -0.025142 -0.0547986 56
-0.798727 0.104879 -0.149516 58
-0.784668 -0.0310811 -0.119021 50
-0.791209 0.104422 -0.204334 52
-0.796502 -0.0324159 -0.175758 50
-2.82472 0.387022 0.649126 50
-6.97858 -0.302235 1.85978 1
-2.84817 0.389753 0.448758 52
-6.92728 -0.287919 1.33971 1
-2.85504 0.390201 0.249048 50
-7.26956 -0.292253 0.887773 33
-3.05324 -0.117843 0.158316 15
-0.655607 0.0887582 -0.0329502 115
-0.784537 0.1069 -0.0927933 88
-0.659437 -0.0215769 -0.0545811 56
-0.800597 0.109396 -0.149992 58
-0.787287 -0.0270721 -0.119413 50
-0.793043 0.108896 -0.20498 53
-0.786925 -0.0278403 -0.173512 49
-2.82411 0.391459 0.649126 50
-6.97427 -0.289851 1.85848 1
-2.8377 0.393362 0.447197 50
-7.17054 -0.285664 1.38689 36
-2.84695 0.394155 0.248394 49
-7.27254 -0.279662 0.888077 33
-3.05094 -0.112418 0.158185 15
-0.650506 0.0892135 -0.0326876 111
-0.789264 0.108957 -0.0934018 86
-0.659473 -0.020426 -0.0545811 56
-0.793114 0.109771 -0.148564 58
-0.789801 -0.0257937 -0.119804 50
-0.79046 0.109943 -0.204334 53
-0.786972 -0.0264668 -0.173512 50
-2.82677 0.40743 0.650249 50
-6.97328 -0.25324 1.85784 1
-2.83805 0.408568 0.447587 49
-7.17439 -0.248201 1.38737 36
-2.84485 0.409056 0.248394 49
-7.26894 -0.241411 0.887469 33
-3.04899 -0.0963593 0.158055 15
-0.654972 0.093333 -0.0329502 106
-0.781316 0.112018 -0.092489 85
-0.657082 -0.0168906 -0.0543637 56
-0.787671 0.113216 -0.147611 56
-0.787457 -0.0215752 -0.119413 50
-0.792263 0.11443 -0.20498 53
-0.7871 -0.0223459 -0.173512 50
-2.81889 0.410812 0.648564 49
-6.97613 -0.241154 1.85848 1
-2.83489 0.413163 0.447197 49
-7.17726 -0.235762 1.38784 35
-2.84167 0.413661 0.248176 47
-7.26935 -0.228724 0.887469 33
-3.05165 -0.0911161 0.158185 15
-0.649868 0.0937527 -0.0326876 103
-0.781119 0.113382 -0.092489 80
-0.657111 -0.0157437 -0.0543637 56
-0.794756 0.115663 -0.14904 58
-0.789961 -0.0202792 -0.119804 52
-0.794451 0.116166 -0.205627 52
-0.789572 -0.0210521 -0.174073 49
-2.81422 0.425692 0.648003 49
-6.98212 -0.204769 1.85978 1
-2.8278 0.427261 0.446416 49
-7.17104 -0.19797 1.38641 35
-2.83946 0.428534 0.248176 49
-7.27541 -0.190793 0.888077 33
-3.05209 -0.0751365 0.158185 17
-0.649368 0.0971541 -0.0326876 100
-0.780514 0.11747 -0.092489 82
-0.659674 -0.0123677 -0.0545811 58
-0.796566 0.120193 -0.149516 58
-0.78512 -0.0160117 -0.119021 50
-0.789058 0.119592 -0.204334 53
-0.792107 -0.0169848 -0.174635 50
-2.81596 0.430482 0.648564 49
-6.98005 -0.192515 1.85913 1
-2.82461 0.431821 0.446026 49
-7.17383 -0.185519 1.38689 35
-2.84117 0.433866 0.248394 50
-7.27325 -0.178032 0.887773 32
-3.05221 -0.0698095 0.158185 15
-0.651665 0.0986662 -0.0328189 98
-0.782761 0.11921 -0.0927933 79
-0.662184 -0.0112767 -0.0547986 56
-0.791504 0.120834 -0.148564 58
-0.790084 -0.0147638 -0.119804 52
-0.793621 0.12171 -0.205627 53
-0.7897 -0.0155393 -0.174073 50
-2.80878 0.444946 0.647441 49
-6.97614 -0.155853 1.85784 1
-2.81987 0.446218 0.445636 49
-7.17715 -0.148007 1.38737 35
-2.82902 0.447176 0.247522 50
-7.27408 -0.139947 0.887773 32
-3.04755 -0.0537314 0.157924 17
-0.648656 0.101798 -0.0326876 97
-0.777225 0.122526 -0.0921848 79
-0.659745 -0.00764686 -0.0545811 58
-0.786014 0.124202 -0.147611 58
-0.795088 -0.0107233 -0.120587 52
-0.795357 0.126246 -0.206274 52
-0.787335 -0.0113541 -0.173512 52
-2.80318 0.449075 0.646318 49
-6.9764 -0.143677 1.85784 1
-2.81909 0.451139 0.445636 50
-7.17006 -0.134085 1.38594 33
-2.82578 0.451719 0.247304 52
-7.25695 -0.126936 0.885643 29
-0.681333 0.108094 0.0114313 8
-3.05512 -0.048543 0.158316 20
-0.653407 0.103723 -0.0329502 94
-0.77456 0.123487 -0.0918806 76
-0.659758 -0.00649538 -0.0545811 58
-0.793064 0.126748 -0.14904 58
-0.790168 -0.00924766 -0.119804 52
-0.79273 0.127386 -0.205627 52
-0.787354 -0.00997993 -0.173512 50
-2.79831 0.463835 0.645756 50
-7.00605 -0.10639 1.86559 1
-2.8093 0.465171 0.444465 49
-2.82329 0.467001 0.247304 55
-0.680757 0.11166 0.0114313 4
-3.04286 -0.0318623 0.157662 21
-0.645467 0.105915 -0.0325564 91
-0.781223 0.128901 -0.0927933 76
-0.657292 -0.00301126 -0.0543637 58
-0.792367 0.131037 -0.14904 55
-0.792674 -0.00514128 -0.120196 52
-0.792052 0.131535 -0.205627 52
-0.787396 -0.00571981 -0.173512 52
-2.79998 0.468634 0.646318 50
-2.81344 0.4704 0.445246 50
-2.81756 0.471104 0.246869 56
-0.685492 0.113676 0.0115186 4
-3.0479 -0.0271348 0.157924 23
-0.650205 0.107869 -0.0328189 90
-0.78102 0.130128 -0.0927933 74
-0.657297 -0.00186407 -0.0543637 58
-0.789717 0.132011 -0.148564 55
-0.792682 -0.00375779 -0.120196 53
-0.78944 0.132513 -0.20498 52
-0.787404 -0.00448297 -0.173512 52
-2.79269 0.482456 0.645195 49
-2.80607 0.484282 0.444465 53
-3.10719 -0.0179391 0.596696 9
-2.81759 0.485783 0.247087 58
-3.09669 -0.0135745 0.375432 8
-0.677519 0.115865 0.0113877 4
-3.048 -0.0111757 0.157924 23
-0.642252 0.109992 -0.0324251 90
-0.780328 0.134215 -0.0927933 73
-0.659788 0.00156537 -0.0545811 58
-0.793874 0.136849 -0.149516 55
-0.790222 0.000406503 -0.119804 53
-0.793517 0.137339 -0.206274 52
-0.784981 -0.00034393 -0.17295 52
-2.79424 0.48775 0.645756 52
-2.81008 0.49003 0.445246 53
-3.08513 -0.0118542 0.592407 2
-2.8192 0.491129 0.247304 64
-3.0446 -0.00795147 0.369043 3
-0.679757 0.117597 0.0114313 4
-3.05301 -0.0058734 0.158185 17
-0.644518 0.111543 -0.0325564 90
-0.787425 0.136865 -0.093706 71
-0.657293 0.00272474 -0.0543637 58
-0.791217 0.137809 -0.14904 56
-0.79022 0.0017857 -0.119804 53
-0.790874 0.138441 -0.205627 52
-0.780108 0.00104993 -0.171827 52
-2.78916 0.502428 0.645195 52
-2.80253 0.504349 0.444465 55
-3.06307 0.00430344 0.588117 8
-2.8165 0.506375 0.247304 65
-3.04708 0.00852448 0.369348 11
-0.691432 0.123374 0.0116495 8
-3.048 0.0106354 0.157924 20
-0.648838 0.115804 -0.0328189 90
-0.784231 0.14068 -0.0934018 71
-0.65727 0.00616626 -0.0543637 58
-0.79046 0.142088 -0.14904 55
-0.792668 0.00606503 -0.120196 53
-0.792514 0.143014 -0.206274 52
-0.782527 0.00527196 -0.172389 52
-2.78597 0.506371 0.644633 50
-2.80165 0.50924 0.444465 55
-3.06306 0.00964949 0.588117 4
-2.81561 0.51129 0.247304 62
-3.04458 0.0138353 0.369043 11
-0.691215 0.124581 0.0116495 8
-3.04798 0.0159551 0.157924 24
-0.646179 0.116488 -0.0326876 90
-0.783984 0.142049 -0.0934018 67
-0.654768 0.00730384 -0.0541462 58
-0.792625 0.14391 -0.149516 56
-0.787718 0.00743211 -0.119413 52
-0.787513 0.143522 -0.20498 52
-0.782517 0.00663772 -0.172389 52
-2.78798 0.522337 0.645756 52
-2.79894 0.523902 0.444465 49
-3.06051 0.0256707 0.587641 4
-2.808 0.525107 0.246869 58
-3.04447 0.0297764 0.369043 11
-0.697923 0.129581 0.0117804 9
-3.04785 0.031914 0.157924 26
-0.645561 0.11987 -0.0326876 90
-0.780791 0.145693 -0.0930975 67
-0.659702 0.0107773 -0.0545811 58
-0.79186 0.148058 -0.149516 56
-0.78767 0.011419 -0.119413 52
-0.791496 0.148543 -0.206274 52
-0.784907 0.0107531 -0.17295 52
-2.78237 0.525809 0.644633 52
-2.79326 0.52738 0.443685 44
-3.06537 0.0310542 0.588594 4
-2.80463 0.529544 0.246651 56
-3.04938 0.0346071 0.369652 11
-0.692784 0.129869 0.0116931 11
-3.05029 0.0367277 0.158055 23
-0.642897 0.120531 -0.0325564 90
-0.785437 0.147845 -0.093706 62
-0.654701 0.0118748 -0.0541462 58
-0.78919 0.14898 -0.14904 55
-0.792587 0.0128437 -0.120196 53
-0.788864 0.14947 -0.205627 52
-0.782453 0.0119639 -0.172389 52
-2.77958 0.54037 0.644633 52
-2.78804 0.541526 0.443295 39
-3.0848 0.0468362 0.592407 3
-2.80191 0.543733 0.246651 56
-3.08637 0.0511317 0.374216 2
-0.692118 0.133373 0.0116931 12
-3.04507 0.05262 0.157793 23
-0.642258 0.123896 -0.0325564 90
-0.782217 0.15148 -0.0934018 61
-0.65712 0.0153426 -0.0543637 58
-0.786017 0.152501 -0.148564 55
-0.792509 0.0169935 -0.120196 55
-0.788097 0.153461 -0.205627 52
-0.777508 0.015991 -0.171266 52
-2.77863 0.54522 0.644633 50
-2.78951 0.546867 0.443685 50
-2.79852 0.548142 0.246433 58
-0.689408 0.134219 0.0116495 12
-3.04747 0.0579781 0.157924 23
-0.646939 0.125981 -0.0328189 90
-0.78682 0.153805 -0.0940102 61
-0.654602 0.0164451 -0.0541462 58
-0.788157 0.154349 -0.14904 53
-0.797415 0.0184611 -0.120979 56
-0.79017 0.155444 -0.206274 52
-0.777479 0.0173479 -0.171266 52
-2.77325 0.559763 0.644072 49
-2.78893 0.562441 0.444075 53
-2.79551 0.563276 0.246433 58
-0.688696 0.137827 0.0116495 12
-3.04961 0.0745226 0.158055 23
-0.643824 0.128872 -0.0326876 88
-0.778681 0.15658 -0.0930975 61
-0.652017 0.019815 -0.0539288 59
-0.784906 0.158122 -0.148564 55
-0.792367 0.0226641 -0.120196 55
-0.786979 0.159097 -0.205627 53
-0.782245 0.0216588 -0.172389 52
-2.76999 0.563631 0.64351 50
-2.78795 0.567308 0.444075 50
-7.16448 0.166173 1.38498 33
-2.7994 0.569149 0.246869 67
-7.25835 0.178391 0.885948 29
-0.686005 0.138529 0.0116058 9
-3.04698 0.0797837 0.157924 23
-0.646044 0.130495 -0.0328189 85
-0.783268 0.158934 -0.093706 59
-0.656961 0.0210764 -0.0543637 59
-0.789437 0.160478 -0.149516 53
-0.797263 0.0241668 -0.120979 56
-0.784335 0.159983 -0.20498 52
-0.787077 0.0231371 -0.173512 52
-2.76223 0.577128 0.642387 50
-6.89817 0.183119 1.83716 1
-2.78021 0.5804 0.443295 52
-7.1611 0.202366 1.38451 30
-2.80136 0.58433 0.247304 86
-7.26976 0.215485 0.887469 32
-0.687742 0.142512 0.0116495 8
-3.04653 0.0952047 0.157924 23
-0.645375 0.133763 -0.0328189 80
-0.782454 0.162896 -0.093706 59
-0.654357 0.024327 -0.0541462 62
-0.786213 0.163966 -0.14904 55
-0.79713 0.0282018 -0.120979 56
-0.783515 0.163951 -0.20498 52
-0.777209 0.0268451 -0.171266 52
-2.7637 0.58197 0.642949 52
-6.92439 0.195891 1.84427 1
-2.77919 0.585252 0.443295 55
-7.15828 0.214792 1.38403 30
-2.7979 0.588704 0.247087 97
-7.26193 0.227945 0.886556 30
-0.687492 0.143712 0.0116495 4
-3.04886 0.1006 0.158055 23
-0.63537 0.132825 -0.0322938 71
-0.779741 0.163748 -0.0934018 59
-0.651824 0.0253903 -0.0539288 64
-0.783525 0.164829 -0.148564 53
-0.799548 0.0296697 -0.12137 58
-0.787952 0.166324 -0.206274 52
-0.774726 0.0281284 -0.170704 52
-2.76527 0.597946 0.644072 52
-6.92569 0.232224 1.84491 1
-2.7785 0.600318 0.443685 56
-7.1546 0.252185 1.38355 32
-2.80208 0.604926 0.24774 99
-7.26807 0.266232 0.887469 33
-0.679401 0.145722 0.0115186 3
-3.04829 0.116563 0.158055 24
-0.632203 0.135731 -0.0321625 65
-0.626456 0.0279709 -0.0103405 4
-0.783722 0.168882 -0.0940102 59
-0.651677 0.0289166 -0.0539288 64
-0.785049 0.169451 -0.14904 55
-0.796914 0.033766 -0.120979 56
-0.789429 0.170963 -0.20692 52
-0.774568 0.0321845 -0.170704 52
-2.76185 0.602252 0.64351 52
-6.92527 0.244311 1.84491 1
-2.77262 0.604113 0.442904 41
-7.15901 0.266099 1.38451 30
-2.79616 0.608754 0.247304 90
-7.26264 0.27873 0.88686 33
-0.67912 0.147026 0.0115186 4
-3.04808 0.121883 0.158055 24
-0.631965 0.136835 -0.0321625 61
-0.626406 0.0290642 -0.0103405 8
-0.783426 0.17025 -0.0940102 59
-0.654114 0.0301505 -0.0541462 67
-0.782355 0.170295 -0.148564 55
-0.796854 0.0351569 -0.120979 56
-0.784383 0.171438 -0.205627 52
-0.774511 0.0335363 -0.170704 52
-2.75379 0.61612 0.642387 50
-6.92143 0.28168 1.84427 1
-2.7669 0.618565 0.442514 53
-7.16488 0.303887 1.38594 33
-2.78796 0.622785 0.246869 71
-7.26102 0.31802 0.88686 33
-0.68078 0.151127 0.0115622 3
-3.04488 0.138263 0.157924 23
-0.633676 0.140688 -0.0322938 61
-0.62624 0.032453 -0.0103405 8
-0.782494 0.174486 -0.0940102 59
-0.653947 0.033575 -0.0541462 68
-0.786211 0.175603 -0.149516 53
-0.796659 0.0393287 -0.120979 58
-0.78583 0.176075 -0.206274 52
-0.776752 0.0378296 -0.171266 53
-2.7552 0.620981 0.642949 49
-6.92576 0.293961 1.84556 1
-2.76593 0.622911 0.442514 52
-7.15943 0.316178 1.38498 32
-2.78201 0.626553 0.246433 58
-7.25308 0.329093 0.885948 33
-0.68783 0.153967 0.0116931 4
-3.03967 0.142819 0.157662 24
-0.628559 0.140693 -0.0320313 61
-0.631176 0.0337753 -0.0104278 8
-0.782219 0.175715 -0.0940102 59
-0.6514 0.0346024 -0.0539288 73
-0.793083 0.178605 -0.150945 53
-0.794122 0.0406079 -0.120587 58
-0.790231 0.178519 -0.207567 52
-0.779125 0.0391568 -0.171827 52
-2.74479 0.633751 0.641264 50
-6.92659 0.329124 1.84621 1
-2.76022 0.636828 0.442124 52
-7.16019 0.35253 1.38546 33
-2.78851 0.642869 0.247304 58
-7.25374 0.367189 0.886252 33
-0.689477 0.15801 0.0117367 3
-0.630246 0.144545 -0.0321625 61
-0.628501 0.0368422 -0.0103842 8
-0.781288 0.179808 -0.0940102 58
-0.653697 0.0381395 -0.0541462 76
-0.792169 0.182617 -0.150945 53
-0.796365 0.0448894 -0.120979 58
-0.791669 0.183065 -0.208214 52
-0.776476 0.0431159 -0.171266 53
-2.74605 0.639094 0.641826 50
-6.9236 0.341096 1.84556 1
-2.76632 0.643326 0.443295 55
-7.15705 0.366152 1.38498 35
-2.78011 0.64604 0.246651 85
-7.25308 0.379849 0.886252 33
-0.627562 0.145077 -0.0320313 59
-0.625939 0.0378074 -0.0103405 8
-0.778557 0.180606 -0.093706 58
-0.648655 0.039018 -0.0537113 77
-0.78468 0.182321 -0.149516 55
-0.793819 0.0461509 -0.120587 58
-0.786614 0.183479 -0.20692 52
-0.771534 0.0442228 -0.170143 53
-2.74255 0.653942 0.641826 52
-6.91924 0.378421 1.84491 1
-2.758 0.657137 0.442514 49
-7.15258 0.403485 1.38451 35
-2.77173 0.659917 0.246215 99
-7.25092 0.419086 0.886252 33
-0.63165 0.149522 -0.0322938 61
-0.630716 0.0414839 -0.0104278 8
-0.782394 0.185972 -0.0943145 58
-0.648442 0.0424138 -0.0537113 83
-0.783682 0.186563 -0.149516 53
-0.798488 0.0507286 -0.12137 58
-0.790339 0.188725 -0.208214 50
-0.773716 0.0485338 -0.170704 53
-2.74626 0.659389 0.642949 52
-6.92098 0.390631 1.84556 1
-2.75204 0.660794 0.441734 45
-7.15432 0.416109 1.38498 35
-2.77541 0.665918 0.246651 157
-7.2477 0.431595 0.885948 33
-0.628961 0.150039 -0.0321625 61
-0.625653 0.0422855 -0.0103405 8
-0.786893 0.188502 -0.094923 58
-0.650853 0.043694 -0.0539288 85
-0.788126 0.189084 -0.150468 53
-0.793469 0.0518301 -0.120587 58
-0.787661 0.189535 -0.207567 50
-0.776062 0.0500256 -0.171266 53
-2.73792 0.673073 0.641826 44
-6.91161 0.426423 1.84362 1
-2.74855 0.675195 0.441734 56
-7.14959 0.453409 1.38451 35
-2.76947 0.679845 0.246433 176
-7.2503 0.469855 0.886556 33
-0.623318 0.152136 -0.0319 59
-0.622929 0.0453982 -0.0102969 8
-0.785895 0.192619 -0.094923 56
-0.64813 0.0469397 -0.0537113 86
-0.784743 0.192619 -0.149992 53
-0.790723 0.0558251 -0.120196 58
-0.784314 0.193075 -0.20692 52
-0.770927 0.0537799 -0.170143 53
-2.73686 0.677373 0.641826 44
-6.90844 0.438334 1.84298 1
-2.75216 0.68118 0.442514 56
-7.14389 0.465571 1.38355 35
-2.7707 0.685277 0.246651 193
-7.24699 0.482345 0.886252 33
-3.04345 0.207474 0.158055 18
-0.625475 0.153825 -0.0320313 59
-0.622848 0.0464854 -0.0102969 8
-0.78315 0.193392 -0.0946187 56
-0.648047 0.0480708 -0.0537113 89
-0.789169 0.195175 -0.150945 52
-0.793088 0.0573683 -0.120587 58
-0.791005 0.1962 -0.20886 50
-0.770832 0.0551253 -0.170143 53
-2.73315 0.69217 0.641826 39
-6.91087 0.474828 1.84427 1
-2.75095 0.696187 0.442904 56
-7.1536 0.503823 1.38594 35
-2.76224 0.698552 0.246215 183
-7.24436 0.520284 0.886252 33
-3.03734 0.223048 0.157793 20
-0.624661 0.157098 -0.0320313 59
-0.61761 0.0493859 -0.0102097 4
-0.779722 0.196878 -0.0943145 56
-0.645303 0.0512844 -0.0534938 90
-0.788136 0.199304 -0.150945 53
-0.792787 0.0613817 -0.120587 58
-0.787627 0.199741 -0.208214 50
-0.770533 0.0591606 -0.170143 53
-2.73206 0.696463 0.641826 52
-6.91003 0.486889 1.84427 1
-2.74746 0.699897 0.442514 56
-7.14781 0.515958 1.38498 35
-2.76102 0.703372 0.246215 125
-7.24354 0.531663 0.886252 35
-2.83144 0.721874 0.0503938 1
-3.03948 0.228002 0.157924 18
-0.626804 0.158806 -0.0321625 59
-0.617523 0.0504638 -0.0102097 4
-0.789027 0.200564 -0.0955314 55
-0.642728 0.0522273 -0.0532764 90
-0.78541 0.20007 -0.150468 53
-0.795141 0.0629453 -0.120979 58
-0.782599 0.199912 -0.20692 50
-0.775298 0.0607209 -0.171266 53
-2.72602 0.710143 0.641264 50
-6.91229 0.522218 1.84556 1
-2.74853 0.71552 0.443295 56
-7.15 0.552504 1.38594 35
-2.76224 0.718594 0.246651 113
-7.2456 0.569968 0.88686 33
-2.82049 0.734303 0.0502629 4
-3.04073 0.244109 0.158055 20
-0.62838 0.162717 -0.0322938 59
-0.624735 0.0541796 -0.0103405 4
-0.783165 0.203437 -0.094923 56
-0.642446 0.0555919 -0.0532764 90
-0.784387 0.204043 -0.150468 52
-0.794801 0.0671077 -0.120979 58
-0.786249 0.205098 -0.208214 50
-0.770112 0.064404 -0.170143 53
-2.72714 0.715519 0.641826 35
-6.90896 0.534097 1.84491 1
-2.7425 0.719061 0.442514 56
-7.14403 0.565846 1.38498 35
-2.75617 0.722149 0.246215 143
-7.23718 0.582021 0.885948 33
-2.80458 0.735904 0.0500011 4
-3.03781 0.249216 0.157924 20
-0.623266 0.162543 -0.0320313 59
-0.627131 0.0554713 -0.0103842 4
-0.787608 0.206068 -0.0955314 55
-0.647313 0.0571143 -0.0537113 90
-0.786403 0.206037 -0.150945 52
-0.797144 0.068692 -0.12137 58
-0.783519 0.205989 -0.207567 50
-0.76757 0.0655561 -0.169581 52
-2.72322 0.730264 0.641826 44
-6.91079 0.571865 1.84621 1
-2.74096 0.734529 0.442904 55
-7.14342 0.603449 1.38546 35
-2.75222 0.73705 0.246215 163
-7.24134 0.621802 0.88686 33
-2.7862 0.746689 0.0497394 9
-3.03891 0.265862 0.158055 18
-0.624817 0.166452 -0.0321625 59
-0.619351 0.0582191 -0.0102533 3
-0.786481 0.210326 -0.0955314 55
-0.642042 0.0600756 -0.0532764 90
-0.780537 0.209011 -0.149992 52
-0.794313 0.0726548 -0.120979 58
-0.784761 0.210719 -0.208214 50
-0.772059 0.0701183 -0.170704 53
-2.72443 0.735176 0.642387 50
-6.917 0.58453 1.84815 1
-2.73742 0.738189 0.442514 53
-7.1448 0.616125 1.38594 33
-2.74852 0.741203 0.245997 98
-7.23788 0.632961 0.886556 33
-2.77524 0.748941 0.0495648 11
-3.036 0.270418 0.157924 17
-0.624526 0.167543 -0.0321625 59
-0.614268 0.0588617 -0.010166 3
-0.788545 0.21221 -0.0958357 55
-0.649379 0.0618499 -0.0539288 90
-0.78254 0.211016 -0.150468 52
-0.794185 0.074041 -0.120979 59
-0.782062 0.211454 -0.207567 49
-0.776802 0.0717488 -0.171827 52
-2.72054 0.749431 0.642387 50
-6.96687 0.624237 1.86236 1
-2.73352 0.752512 0.442514 55
-2.75194 0.757091 0.246651 67
-2.76659 0.761649 0.0494776 14
-2.99974 0.283082 0.156092 17
-0.626047 0.171475 -0.0322938 59
-0.61894 0.0624335 -0.0102533 3
-0.780248 0.214352 -0.094923 52
-0.646567 0.0650182 -0.0537113 90
-0.779096 0.214319 -0.149992 52
-0.793787 0.0781983 -0.120979 59
-0.783309 0.216056 -0.208214 49
-0.769138 0.0751502 -0.170143 53
-2.71453 0.752874 0.641264 50
-2.73458 0.757943 0.442904 56
-2.75542 0.763224 0.247087 58
-2.76031 0.76562 0.0493903 14
-3.03404 0.291606 0.157924 17
-0.632962 0.174574 -0.0326876 59
-0.61883 0.0635137 -0.0102533 3
-0.779873 0.215713 -0.094923 50
-0.648932 0.0663818 -0.0539288 90
-0.783449 0.216997 -0.150945 50
-0.793649 0.0795836 -0.120979 58
-0.785218 0.21821 -0.20886 47
-0.769005 0.0764925 -0.170143 53
-2.71042 0.76755 0.641264 50
-2.72806 0.772053 0.442514 55
-2.86729 0.285496 0.552849 45
-2.74166 0.775406 0.246215 62
-2.87367 0.290137 0.349876 42
-2.76107 0.781426 0.0494776 15
-2.8933 0.294107 0.150597 33
-0.629638 0.177204 -0.0325564 59
-0.623452 0.06736 -0.0103405 3
-0.781081 0.220608 -0.0952272 50
-0.643619 0.0692823 -0.0534938 90
-0.782264 0.221233 -0.150945 50
-0.795678 0.0839824 -0.12137 58
-0.781743 0.221655 -0.208214 47
-0.773429 0.0811301 -0.171266 53
-2.70452 0.770469 0.640141 50
-2.85817 0.284658 0.75929 45
-2.72684 0.776338 0.442514 52
-2.87167 0.290986 0.553802 47
-2.74749 0.782239 0.246869 100
-2.87568 0.294899 0.350181 49
-2.7549 0.784872 0.0493903 24
-2.89532 0.298904 0.150728 47
-0.629328 0.178303 -0.0325564 59
-0.623333 0.0684481 -0.0103405 3
-0.783119 0.222517 -0.0955314 49
-0.645975 0.0706581 -0.0537113 90
-0.788954 0.224626 -0.152373 50
-0.79553 0.085371 -0.12137 58
-0.781355 0.223019 -0.208214 47
-0.768453 0.0818593 -0.170143 53
-2.69811 0.783938 0.63958 50
-2.85189 0.298626 0.757998 45
-2.72037 0.789915 0.442124 52
-2.86528 0.305006 0.552849 47
-2.74589 0.79683 0.247087 182
-2.87163 0.30969 0.349876 49
-2.75089 0.798806 0.0493903 32
-2.89123 0.313794 0.150597 49
-0.630814 0.182184 -0.0326876 59
-0.62795 0.0721351 -0.0104278 4
-0.779561 0.225919 -0.0952272 49
-0.645609 0.0739267 -0.0537113 90
-0.787707 0.0887507 -0.120196 58
-0.768014 0.0858817 -0.170143 52
-2.69922 0.78886 0.640141 52
-2.85136 0.303603 0.757998 45
-2.71662 0.793968 0.441734 50
-2.8623 0.309746 0.552373 49
-2.74449 0.801621 0.247087 97
-2.87109 0.314702 0.349876 50
-2.74949 0.803606 0.0493903 41
-2.88323 0.318031 0.150204 49
-0.625703 0.18188 -0.0324251 58
-0.779166 0.22728 -0.0952272 45
-0.643003 0.074784 -0.0534938 90
-0.790006 0.0903911 -0.120587 58
-0.767863 0.087222 -0.170143 53
-2.6971 0.804621 0.640703 50
-2.84968 0.319026 0.757998 47
-2.70992 0.807948 0.441344 53
-2.86058 0.325228 0.552373 49
-2.73057 0.81361 0.246215 56
-2.86688 0.329952 0.349572 49
-2.7451 0.81847 0.0493903 49
-2.88147 0.333626 0.150204 49
-0.627102 0.185978 -0.0325564 58
-0.645064 0.0785446 -0.0537113 90
-0.789521 0.0945263 -0.120587 58
-0.767379 0.0913753 -0.170143 52
-2.69817 0.809558 0.641264 49
-2.84192 0.323193 0.756059 47
-2.70864 0.812203 0.441344 55
-2.86245 0.330498 0.552849 50
-2.72676 0.817657 0.245997 55
-2.86143 0.333887 0.348964 49
-2.87598 0.337578 0.149943 49
-0.629167 0.187791 -0.0326876 58
-0.644925 0.0796704 -0.0537113 90
-0.789355 0.0959042 -0.120587 58
-0.769655 0.0928572 -0.170704 52
-2.69855 0.825101 0.642387 49
-2.84265 0.337854 0.756706 49
-2.71144 0.828543 0.442514 56
-2.85586 0.344402 0.551896 50
-2.72973 0.833634 0.246651 52
-2.8621 0.349162 0.349268 52
-2.86922 0.352032 0.149681 49
-0.623435 0.189511 -0.0324251 58
-0.644514 0.0829336 -0.0537113 90
-0.796196 0.100923 -0.121762 58
-0.773996 0.0974644 -0.171827 52
-2.69958 0.830056 0.642949 49
-2.83965 0.34253 0.756059 49
-2.70527 0.83182 0.441734 50
-2.85282 0.349092 0.551419 52
-2.71637 0.834733 0.245561 55
-2.85656 0.353555 0.348659 52
-2.87356 0.357648 0.149943 49
-0.627875 0.19207 -0.0326876 58
-0.641896 0.0837544 -0.0534938 90
-0.791117 0.101713 -0.120979 58
-0.768988 0.0982281 -0.170704 52
-2.69273 0.84392 0.642387 50
-2.83063 0.3565 0.754121 50
-2.70088 0.845974 0.441734 49
-2.84852 0.363718 0.550943 50
-2.71909 0.85118 0.246215 90
-2.85221 0.368193 0.348355 49
-2.86669 0.372055 0.149681 49
-0.626826 0.195464 -0.0326876 58
-0.641434 0.0872262 -0.0534938 90
-0.788125 0.105541 -0.120587 56
-0.76363 0.101641 -0.169581 52
-2.6959 0.850086 0.64351 52
-2.8324 0.361742 0.754767 49
-2.69939 0.850686 0.441734 47
-2.84538 0.368875 0.550466 49
-2.7176 0.855925 0.246215 111
-2.85402 0.373489 0.348659 49
-2.86356 0.376736 0.14955 47
-0.621723 0.195053 -0.0324251 58
-0.641281 0.0883456 -0.0534938 90
-0.792837 0.10755 -0.12137 58
-0.765868 0.103284 -0.170143 50
-2.68894 0.863913 0.642949 53
-2.82561 0.376432 0.753475 50
-2.7018 0.867547 0.442904 49
-2.84341 0.383768 0.550466 50
-2.70819 0.869091 0.245779 55
-2.85442 0.389256 0.348964 49
-2.86148 0.392224 0.14955 49
-0.62307 0.19907 -0.0325564 58
-0.643277 0.0920366 -0.0537113 90
-0.789816 0.11137 -0.120979 58
-0.765297 0.107426 -0.170143 50
-2.68758 0.868136 0.642949 52
-2.82735 0.381682 0.754121 49
-2.70279 0.87255 0.443295 49
-2.84274 0.38873 0.550466 49
-2.85626 0.394074 0.349268 49
-2.85839 0.396379 0.149419 49
-0.625097 0.200926 -0.0326876 58
-0.640648 0.0928203 -0.0534938 90
-0.78962 0.112748 -0.120979 56
-0.767542 0.108955 -0.170704 52
-2.68068 0.881434 0.642387 49
-2.82538 0.395987 0.754121 49
-2.70053 0.887462 0.443685 50
-2.84073 0.403113 0.550466 49
-2.84433 0.407633 0.348051 47
-2.85133 0.410636 0.149157 44
-0.621665 0.203415 -0.0325564 56
-0.642619 0.0965253 -0.0537113 90
-0.789019 0.116881 -0.120979 58
-0.766961 0.112973 -0.170704 50
-2.67451 0.884579 0.641264 49
-2.82468 0.400918 0.754121 49
-2.70366 0.893726 0.444465 56
-2.83752 0.408221 0.54999 49
-2.84116 0.412244 0.347747 47
-0.623679 0.205286 -0.0326876 58
-0.644914 0.0980028 -0.0539288 90
-0.788814 0.118258 -0.120979 58
-0.766762 0.114311 -0.170704 52
-2.66738 0.898258 0.640703 47
-2.82008 0.415847 0.753475 47
-2.69177 0.905975 0.443295 55
-2.83292 0.422714 0.549513 47
-2.83398 0.426879 0.347138 47
-0.624961 0.209346 -0.0328189 58
-0.641929 0.101009 -0.0537113 90
-0.790626 0.122751 -0.12137 58
-0.768543 0.118815 -0.171266 52
-2.66366 0.901665 0.640141 47
-2.81457 0.420063 0.752182 47
-2.69268 0.910994 0.443685 50
-2.82975 0.427296 0.549036 49
-2.83331 0.43133 0.347138 47
-0.626959 0.211239 -0.0329502 58
-0.641752 0.102129 -0.0537113 90
-0.787969 0.123762 -0.120979 58
-0.765946 0.119661 -0.170704 52
-2.6566 0.914805 0.63958 47
-2.81241 0.434304 0.752182 47
-2.68554 0.924276 0.443295 47
-2.8227 0.440864 0.548083 49
-2.82856 0.445777 0.346834 49
-0.621124 0.21289 -0.0326876 56
-0.633827 0.10433 -0.0530589 90
-0.78487 0.127505 -0.120587 55
-0.767716 0.124044 -0.171266 52
-2.65039 0.917843 0.638457 49
-2.80688 0.438475 0.75089 47
-2.67926 0.927344 0.442514 45
-2.82427 0.446661 0.54856 50
-2.82533 0.450327 0.34653 49
-0.636104 0.105826 -0.0532764 90
-0.782208 0.128489 -0.120196 55
-0.769905 0.125761 -0.171827 52
-2.64309 0.931359 0.637895 50
-2.80685 0.454036 0.751536 49
-2.66721 0.939362 0.441344 45
-2.81947 0.461051 0.548083 50
-2.8204 0.465207 0.346225 49
-2.83217 0.469141 0.148634 53
-0.689522 0.118126 -0.0116058 4
-0.640456 0.109962 -0.0537113 90
-0.779088 0.132185 -0.119804 55
-0.769213 0.129925 -0.171827 50
-2.64163 0.93551 0.637895 50
-2.7989 0.457777 0.749597 49
-2.66341 0.942725 0.440953 45
-2.81624 0.465575 0.547607 50
-2.81477 0.468829 0.345617 50
-2.83636 0.474404 0.148896 59
-0.691781 0.119739 -0.0116495 4
-0.637807 0.110672 -0.0534938 90
-0.77642 0.133142 -0.119413 55
-0.766604 0.130738 -0.171266 52
-2.6344 0.948502 0.637333 50
-2.79416 0.47154 0.748951 49
-2.65146 0.954146 0.439783 47
-2.81143 0.479415 0.54713 50
-2.81472 0.483977 0.345921 52
-2.82891 0.488408 0.148634 56
-0.61813 0.221433 -0.0326876 56
-0.698557 0.124505 -0.0117804 4
-1.43832 0.518048 -0.183153 4
-0.639693 0.114319 -0.0537113 89
-0.78058 0.138036 -0.120196 55
-0.765909 0.13475 -0.171266 52
-2.63062 0.951809 0.636772 50
-2.79334 0.476416 0.748951 49
-2.6498 0.958772 0.439783 47
-2.80817 0.483908 0.546653 50
-2.81876 0.489731 0.34653 53
-1.44572 0.522441 0.0262222 4
-2.83051 0.493769 0.148765 59
-0.62009 0.223363 -0.0328189 56
-0.698339 0.125724 -0.0117804 8
-1.42808 0.51717 -0.181936 4
-0.641947 0.11586 -0.0539288 90
-0.780338 0.139398 -0.120196 55
-0.765673 0.136087 -0.171266 50
-2.62771 0.96687 0.637333 50
-2.78842 0.490621 0.748305 49
-2.64474 0.972633 0.439783 49
-2.81043 0.499456 0.547607 52
-2.81616 0.504483 0.34653 55
-1.44531 0.530868 0.0262659 4
-2.82789 0.508583 0.148765 61
-0.618872 0.226715 -0.0328189 56
-0.692749 0.1285 -0.0116931 8
-1.43699 0.528936 -0.183457 4
-0.638859 0.118894 -0.0537113 88
-0.777166 0.14305 -0.119804 55
-0.76495 0.140094 -0.171266 50
-2.62602 0.971455 0.637333 50
-2.78756 0.495487 0.748305 49
-2.64072 0.97639 0.439392 49
-2.80705 0.504421 0.54713 50
-2.81527 0.509397 0.34653 55
-1.44663 0.53451 0.0263095 8
-2.81963 0.512191 0.148372 55
-0.618475 0.227794 -0.0328189 56
-0.694984 0.130152 -0.0117367 8
-1.43141 0.529717 -0.182848 4
-0.636199 0.119566 -0.0534938 85
-0.779345 0.144843 -0.120196 55
-0.767102 0.141857 -0.171827 50
-2.62529 0.987366 0.638457 50
-2.78484 0.510562 0.748305 50
-2.63309 0.989794 0.439002 52
-2.80196 0.518669 0.546653 50
-2.8076 0.52372 0.345921 53
-1.43914 0.540316 0.0262222 4
-2.82172 0.52835 0.148634 55
-0.621947 0.23279 -0.0330815 56
-0.691812 0.133454 -0.0116931 9
-1.42621 0.536578 -0.182544 4
-0.64291 0.12426 -0.0541462 83
-0.781004 0.14937 -0.120587 55
-0.763928 0.145564 -0.171266 52
-2.62145 0.990627 0.637895 50
-2.78395 0.515422 0.748305 50
-2.63153 0.993928 0.439002 52
-2.79864 0.523112 0.546177 52
-2.80189 0.52722 0.345313 50
-1.44287 0.544596 0.0263095 4
-2.81844 0.532323 0.148503 55
-0.623874 0.234759 -0.0332127 56
-0.694035 0.135122 -0.0117367 8
-1.42536 0.538817 -0.182544 4
-0.637797 0.124464 -0.0537113 79
-0.778315 0.15028 -0.120196 55
-0.770884 0.148099 -0.17295 50
-2.60941 1.00172 0.63621 50
-2.77893 0.529058 0.747659 50
-2.62168 1.00592 0.438222 52
-2.79595 0.53727 0.546177 50
-1.47457 0.564846 0.135091 4
-2.80153 0.542351 0.345617 50
-1.45409 0.557272 0.0265713 4
-2.80826 0.545656 0.148111 55
-0.622678 0.237913 -0.0332127 56
-0.68107 0.136266 -0.0115186 8
-1.43178 0.54984 -0.183761 4
-0.637159 0.127691 -0.0537113 79
-0.775093 0.153887 -0.119804 53
-0.767705 0.151676 -0.172389 52
-2.61011 1.00669 0.636772 50
-2.778 0.533907 0.747659 49
-2.61762 1.00961 0.437832 52
-2.79742 0.542612 0.546653 50
-1.48055 0.57011 0.135745 8
-2.79814 0.546768 0.345313 50
-1.44612 0.557107 0.0264404 4
-2.81465 0.551986 0.148503 58
-0.626919 0.2408 -0.0334753 58
-0.683285 0.137932 -0.0115622 8
-1.41925 0.547859 -0.18224 4
-0.63938 0.129278 -0.0539288 79
-0.772399 0.154769 -0.119413 53
-0.767439 0.153015 -0.172389 52
-2.60444 1.02125 0.636772 50
-2.77507 0.54893 0.747659 50
-2.61671 1.02556 0.438612 52
-2.79204 0.557263 0.546177 50
-1.47281 0.576293 0.135309 8
-2.79758 0.562384 0.345617 50
-1.45007 0.567663 0.0265713 4
-2.80918 0.566717 0.148372 59
-0.623283 0.243276 -0.033344 58
-0.677627 0.140645 -0.011475 4
-1.42319 0.558255 -0.183153 4
-0.636229 0.132247 -0.0537113 77
-1.30729 0.513191 -0.265701 4
-0.776421 0.159777 -0.120196 53
-0.76421 0.156691 -0.171827 52
-2.60284 1.02534 0.636772 50
-2.76937 0.552835 0.746366 49
-2.60821 1.02695 0.437441 52
-2.79106 0.562136 0.546177 52
-1.47875 0.581604 0.135963 8
-2.79912 0.567267 0.345921 55
-1.44675 0.569276 0.0265277 4
-2.81318 0.572116 0.148634 71
-0.62518 0.24528 -0.0334753 58
-0.67738 0.141827 -0.011475 4
-1.42001 0.559578 -0.182848 4
-0.638438 0.13385 -0.0539288 74
-1.29727 0.51186 -0.263796 4
-0.773721 0.160645 -0.119804 53
-0.761575 0.157413 -0.171266 52
-2.59969 1.03986 0.637333 50
-2.7689 0.567326 0.747013 49
-2.60509 1.04151 0.437832 53
-2.78337 0.57527 0.545224 50
-1.47117 0.58723 0.135527 8
-2.79855 0.582417 0.346225 59
-1.44153 0.575662 0.026484 4
-2.81014 0.586838 0.148634 90
-0.623887 0.24855 -0.0334753 58
-0.676654 0.145254 -0.011475 3
-1.42397 0.569777 -0.183761 4
-0.640167 0.137697 -0.0541462 73
-1.30377 0.522078 -0.265701 4
-0.770451 0.164194 -0.119413 53
-1.00526 0.402994 -0.280636 4
-0.767898 0.16287 -0.17295 52
-2.59787 1.0444 0.637333 50
-2.76554 0.571673 0.746366 50
-2.60327 1.04606 0.437832 53
-2.78707 0.581607 0.546177 52
-1.47245 0.590726 0.135745 8
-2.79752 0.5873 0.346225 61
-1.43578 0.576561 0.0263968 4
-2.814 0.592763 0.148896 90
-0.623452 0.249638 -0.0334753 58
-0.683739 0.147971 -0.0116058 3
-1.41376 0.56855 -0.182544 4
-0.637488 0.138304 -0.0539288 71
-1.30286 0.524352 -0.265701 3
-0.77258 0.166043 -0.119804 52
-0.995532 0.4013 -0.278049 4
-0.767613 0.16421 -0.17295 50
-2.59218 1.05844 0.637333 50
-2.76005 0.58613 0.74572 50
-2.60214 1.06199 0.438612 55
-2.77918 0.595172 0.545224 50
-1.46693 0.597742 0.135527 8
-2.79431 0.602427 0.346225 62
-1.43506 0.585017 0.0264404 4
-2.80831 0.607455 0.148765 90
-0.619826 0.251954 -0.033344 58
-0.678041 0.150617 -0.0115186 3
-1.41067 0.57619 -0.182544 4
-0.636755 0.14164 -0.0539288 70
-1.29773 0.530463 -0.265224 4
-0.774115 0.170602 -0.120196 52
-0.993417 0.406507 -0.278049 4
-0.764331 0.167853 -0.172389 52
-2.59052 1.06251 0.637333 49
-2.76374 0.591949 0.747013 50
-2.59818 1.06514 0.438222 52
-2.78054 0.600536 0.5457 52
-1.47049 0.602193 0.135963 4
-2.79336 0.606816 0.346225 61
-1.43866 0.58942 0.0265277 4
-2.80736 0.611866 0.148765 83
-0.624004 0.254934 -0.0336066 58
-0.682663 0.15286 -0.0116058 4
-1.41894 0.582182 -0.183761 4
-0.636507 0.142751 -0.0539288 68
-1.30134 0.534597 -0.266177 4
-0.771402 0.171432 -0.119804 52
-0.992706 0.40824 -0.278049 3
-0.771212 0.170588 -0.174073 52
-2.58492 1.07606 0.637333 50
-2.75835 0.605417 0.746366 50
-2.59257 1.07873 0.438222 53
-2.77267 0.61355 0.544747 49
-1.45823 0.605799 0.135091 4
-2.78772 0.620898 0.345921 55
-1.43797 0.597655 0.0265713 4
-2.7968 0.624936 0.148372 58
-0.620401 0.257128 -0.0334753 58
-0.68188 0.156313 -0.0116058 4
-1.409 0.586735 -0.182848 4
-0.638208 0.14651 -0.0541462 67
-1.29635 0.54023 -0.265701 3
-0.770494 0.175469 -0.119804 52
-0.986172 0.411394 -0.276756 4
-0.767929 0.1741 -0.173512 52
-2.75729 0.61023 0.746366 50
-2.58841 1.0823 0.437832 53
-2.77399 0.618918 0.545224 50
-1.46865 0.61315 0.136181 4
-2.78179 0.624683 0.345313 50
-1.44614 0.604026 0.0267458 4
-2.80058 0.630905 0.148634 56
-0.626859 0.261104 -0.0338691 58
-0.681606 0.157503 -0.0116058 3
-1.42171 0.594953 -0.184674 4
-0.640382 0.148168 -0.0543637 67
-1.30672 0.547243 -0.268081 3
-0.770187 0.176813 -0.119804 52
-0.987678 0.414051 -0.277403 4
-0.770002 0.175968 -0.174073 52
-2.74699 0.623068 0.744428 49
-2.58043 1.09487 0.437441 52
-2.76593 0.632348 0.544271 45
-1.46542 0.620832 0.136181 4
-2.77606 0.638688 0.345008 50
-1.43836 0.609635 0.0266585 4
-2.7948 0.645003 0.148503 62
-0.62314 0.263515 -0.0337378 58
-0.680772 0.161069 -0.0116058 3
-1.41172 0.599473 -0.183761 4
-0.639571 0.15163 -0.0543637 65
-1.29481 0.550229 -0.266177 3
-0.764436 0.179743 -0.119021 52
-0.981055 0.417321 -0.276109 3
-0.766695 0.179457 -0.173512 50
-2.74825 0.628396 0.745074 49
-2.62848 1.12071 0.446026 52
-2.76949 0.638752 0.545224 50
-1.46434 0.623388 0.136181 4
-2.77977 0.644645 0.345617 59
-1.44178 0.614359 0.0267458 8
-2.79367 0.64988 0.148503 68
-0.62727 0.266565 -0.0340004 58
-0.685361 0.163384 -0.0116931 3
-1.41752 0.604864 -0.184674 4
-0.644158 0.153868 -0.0547986 65
-1.29385 0.552488 -0.266177 4
-0.768933 0.182186 -0.119804 52
-0.978033 0.418251 -0.275463 3
-0.768755 0.181339 -0.174073 50
-2.74481 0.643256 0.745074 50
-2.60425 1.12706 0.442904 49
-2.76372 0.652685 0.544747 50
-1.47008 0.635262 0.137052 4
-2.77383 0.659106 0.345313 73
-1.43396 0.619912 0.0266585 4
-2.78526 0.663836 0.148242 93
-0.625866 0.269845 -0.0340004 58
-0.682035 0.166513 -0.0116495 3
