# .PCD v0.7 - Point Cloud Data file format
VERSION 0.7
FIELDS x y z intensity
SIZE 4 4 4 4
TYPE F F F F
COUNT 1 1 1 1
WIDTH 1573
HEIGHT 1
VIEWPOINT 0 0 0 1 0 0 0
POINTS 1573
DATA ascii
-0.349988 -2.27678 -0.198101 53
-0.762899 -2.24791 -0.453786 53
-0.348102 -2.27485 -0.359413 47
-0.768341 -2.25751 -0.629167 61
-0.344155 -2.26449 -0.519974 45
-1.91584 -5.55572 1.34654 15
-0.861709 -5.6055 1.50824 15
-1.83297 -5.31858 0.883468 1
-0.871512 -5.60447 1.09474 17
-0.755983 -2.1973 0.20024 3
-0.878246 -5.5965 0.690321 27
-0.774589 -2.25 0.0409259 55
-0.358875 -2.25823 0.118018 14
-0.776486 -2.25422 -0.12353 53
-0.362024 -2.27316 -0.0395733 62
-0.778683 -2.25677 -0.28842 64
-0.361132 -2.27 -0.197666 52
-0.776655 -2.24839 -0.454738 53
-0.359627 -2.27056 -0.359021 47
-0.779359 -2.25117 -0.628521 61
-0.356402 -2.2626 -0.519974 45
-1.92216 -5.5458 1.34486 15
-0.868908 -5.58728 1.50372 14
-1.84456 -5.32503 0.885029 1
-0.879017 -5.5884 1.09188 18
-0.76308 -2.20539 0.201112 3
-0.887809 -5.60001 0.69093 23
-0.779334 -2.251 0.0409695 55
-0.362422 -2.25766 0.118018 12
-0.781238 -2.25522 -0.123662 53
-0.365991 -2.27253 -0.0395733 59
-0.780598 -2.25086 -0.287811 58
-0.365093 -2.26936 -0.197666 52
-0.781385 -2.24935 -0.455215 53
-0.363589 -2.26993 -0.359021 47
-0.784082 -2.25209 -0.629167 62
-0.359578 -2.25963 -0.519413 45
-1.9609 -5.56323 1.3516 15
-0.89489 -5.5685 1.49984 14
-1.88473 -5.35023 0.890882 1
-0.904942 -5.56934 1.08902 15
-0.772577 -2.1968 0.200676 3
-0.923507 -5.63447 0.695797 23
-0.791548 -2.24939 0.0410132 55
-0.374641 -2.2582 0.118148 12
-0.794303 -2.25595 -0.123924 53
-0.377083 -2.26818 -0.0395297 59
-0.791546 -2.2444 -0.287507 90
-0.376575 -2.26749 -0.197666 52
-0.793578 -2.24768 -0.455691 53
-0.375469 -2.26799 -0.359021 47
-0.797892 -2.25492 -0.631107 62
-0.371795 -2.26012 -0.519974 45
-1.98022 -5.58999 1.3589 15
-0.904607 -5.56693 1.49984 14
-1.984 -5.60062 0.933416 17
-0.92218 -5.61377 1.09807 15
-0.777242 -2.1978 0.200894 3
-0.937375 -5.65734 0.69884 26
-0.794638 -2.24565 0.0409695 53
-0.377359 -2.25015 0.117756 11
-0.797405 -2.2522 -0.123793 53
-0.381451 -2.26999 -0.0395733 58
-0.799616 -2.25471 -0.289028 56
-0.381753 -2.2742 -0.198319 50
-0.798322 -2.2486 -0.456167 55
-0.37983 -2.26977 -0.359413 47
-0.801826 -2.25352 -0.631107 61
-0.376528 -2.26427 -0.521097 45
-2.02614 -5.62273 1.36957 15
-0.939312 -5.59546 1.50889 14
-2.0267 -5.62733 0.93966 23
-0.958505 -5.65 1.10617 17
-0.792115 -2.20307 0.201766 3
-0.972813 -5.6866 0.703099 27
-0.807232 -2.24381 0.0410132 53
-0.389135 -2.24814 0.117756 11
-0.810033 -2.25035 -0.123924 53
-0.393753 -2.27042 -0.039617 55
-0.811411 -2.25049 -0.289028 55
-0.394076 -2.27462 -0.198536 50
-0.810919 -2.2467 -0.456643 55
-0.392539 -2.27262 -0.360196 45
-0.814437 -2.25156 -0.631754 59
-0.388785 -2.26467 -0.521659 44
-2.04742 -5.6539 1.37799 23
-0.954703 -5.62716 1.51793 14
-2.04577 -5.64932 0.943952 32
-0.974554 -5.68461 1.11332 20
-0.795959 -2.20168 0.201766 2
-0.987785 -5.71424 0.70675 33
-0.811147 -2.24239 0.0410132 53
-0.393483 -2.24992 0.117887 11
-0.814811 -2.25128 -0.124055 53
-0.397289 -2.26727 -0.0395733 55
-0.815337 -2.24907 -0.289028 53
-0.398045 -2.27393 -0.198536 49
-0.814839 -2.24528 -0.456643 53
-0.396505 -2.27193 -0.360196 45
-0.820019 -2.25468 -0.633047 61
-0.392326 -2.26159 -0.521097 45
-2.0739 -5.62866 1.37462 20
-0.991772 -5.65997 1.52827 15
-2.07374 -5.63122 0.942782 27
-1.00828 -5.69617 1.11666 27
-0.80872 -2.19968 0.201983 3
-1.01565 -5.69171 0.70462 23
-0.826725 -2.24735 0.0411877 55
-0.405212 -2.2453 0.117756 9
-0.826979 -2.24684 -0.124055 52
-0.40999 -2.26754 -0.039617 53
-0.829213 -2.24928 -0.289637 55
-0.41078 -2.27419 -0.198754 49
-0.828678 -2.24544 -0.457595 53
-0.407963 -2.26739 -0.359804 45
-0.831367 -2.24794 -0.6324 61
-0.405405 -2.26423 -0.52222 45
-2.07767 -5.61169 1.37125 17
-1.0071 -5.68915 1.53667 20
-2.07744 -5.61406 0.94044 23
-1.01349 -5.66783 1.11142 18
-0.812558 -2.19827 0.201983 3
-1.0154 -5.63881 0.698231 15
-0.830646 -2.24591 0.0411877 49
-0.408297 -2.2422 0.117625 9
-0.833503 -2.25241 -0.124449 52
-0.414834 -2.27175 -0.0397042 53
-0.833609 -2.2503 -0.289941 53
-0.415191 -2.27592 -0.198971 49
-0.833451 -2.24629 -0.458072 55
-0.412356 -2.26911 -0.360196 45
-0.836132 -2.24875 -0.633047 64
-0.408533 -2.26119 -0.521659 45
-2.1053 -5.59618 1.37013 15
-1.03114 -5.65784 1.52957 15
-2.09811 -5.57999 0.936538 23
-1.03332 -5.61434 1.10189 15
-0.826304 -2.20112 0.202637 2
-1.0404 -5.60902 0.695189 17
-0.843764 -2.24635 0.0412749 52
-0.420941 -2.24495 0.117887 8
-0.845285 -2.24802 -0.124449 52
-0.425415 -2.2647 -0.039617 50
-0.844504 -2.24359 -0.289637 52
-0.427102 -2.27372 -0.198971 49
-0.846543 -2.24664 -0.459024 55
-0.424232 -2.26692 -0.360196 45
-0.848358 -2.24675 -0.633694 85
-0.420367 -2.25902 -0.521659 45
-2.10903 -5.57654 1.3662 15
-1.03535 -5.62515 1.52117 14
-2.10086 -5.55785 0.933416 23
-1.03873 -5.58339 1.09617 15
-0.828383 -2.19501 0.202201 3
-1.04837 -5.59744 0.693972 18
-0.846305 -2.24005 0.0411877 53
-0.426236 -2.25157 0.118279 4
-0.850975 -2.25121 -0.124712 52
-0.429827 -2.26641 -0.0396606 52
-0.852816 -2.25371 -0.291158 53
-0.431069 -2.27297 -0.198971 49
-0.851333 -2.24745 -0.4595 53
-0.429094 -2.27103 -0.360979 45
-0.856105 -2.25414 -0.63628 65
-0.424754 -2.26068 -0.52222 44
-2.12868 -5.53777 1.35946 15
-1.05905 -5.58387 1.51147 14
-2.12558 -5.53257 0.931075 21
-1.0629 -5.55136 1.09092 15
-0.845607 -2.20445 0.203509 3
-1.09549 -5.67941 0.704925 18
-0.860714 -2.24259 0.0413186 50
-0.438412 -2.24923 0.118279 3
-0.862751 -2.24672 -0.124712 52
-0.442557 -2.26651 -0.0397042 50
-0.86589 -2.25138 -0.291462 53
-0.442965 -2.27068 -0.198971 49
-0.861714 -2.23823 -0.458548 53
-0.440513 -2.26633 -0.360587 45
-0.865284 -2.24287 -0.63434 83
-0.437895 -2.26314 -0.523343 45
-2.13298 -5.52305 1.35665 15
-1.06382 -5.55592 1.50436 14
-2.1316 -5.52231 0.929904 24
-1.07954 -5.58564 1.09807 15
-0.848556 -2.20065 0.203291 3
-1.09733 -5.64114 0.700361 15
-0.866429 -2.24575 0.0414058 50
-0.441945 -2.24854 0.118279 3
-0.868471 -2.24987 -0.124974 52
-0.446991 -2.26819 -0.0397479 49
-0.871217 -2.25464 -0.292071 53
-0.446451 -2.26746 -0.198754 45
-0.869168 -2.24588 -0.460452 53
-0.445409 -2.2704 -0.36137 45
-0.873569 -2.25261 -0.637573 71
-0.440988 -2.26005 -0.522782 44
-2.16543 -5.52088 1.3589 14
-1.0924 -5.55283 1.50501 14
-2.16409 -5.52027 0.931465 15
-1.11065 -5.59455 1.10093 15
-0.860592 -2.19864 0.203509 3
-1.1191 -5.59638 0.695493 15
-0.878697 -2.24366 0.0414495 50
-0.452734 -2.2413 0.118018 2
-0.881672 -2.25009 -0.125237 50
-0.458465 -2.26589 -0.0397479 49
-0.884826 -2.25467 -0.292679 53
-0.458899 -2.27006 -0.199188 45
-0.881423 -2.24373 -0.460928 52
-0.45729 -2.26804 -0.36137 45
-0.884074 -2.24592 -0.636927 61
-0.453289 -2.2601 -0.523343 45
-2.19465 -5.5696 1.37181 15
-1.10864 -5.58409 1.51406 14
-2.22083 -5.63594 0.951757 26
-1.11514 -5.56613 1.09569 14
-0.868081 -2.2064 0.20438 3
-0.884445 -2.24678 0.0415367 52
-0.458619 -2.25029 0.118541 3
-0.885598 -2.24855 -0.125237 52
-0.462914 -2.26754 -0.0397915 49
-0.887847 -2.25082 -0.292375 53
-0.46286 -2.26925 -0.199188 45
-0.88624 -2.24447 -0.461405 52
-0.462223 -2.27208 -0.362153 44
-0.890662 -2.25111 -0.638867 62
-0.456755 -2.25692 -0.522782 44
-2.25103 -5.62322 1.3881 20
-1.1321 -5.54981 1.5063 14
-2.24847 -5.61965 0.950976 27
-1.15412 -5.6083 1.10522 9
-0.878697 -2.19952 0.204162 3
-0.895268 -2.23979 0.0414931 52
-0.470901 -2.25031 0.118672 2
-0.89868 -2.24604 -0.125368 50
-0.475288 -2.26753 -0.0398351 49
-0.900544 -2.24844 -0.292679 52
-0.476143 -2.27159 -0.199623 45
-0.898895 -2.24208 -0.461881 52
-0.473113 -2.26479 -0.36137 45
-0.903338 -2.24865 -0.639513 61
-0.469547 -2.25927 -0.523905 45
-2.25083 -5.59443 1.38192 17
-2.24906 -5.59281 0.947074 24
-1.20964 -5.82237 1.14812 2
-0.886251 -2.20722 0.205034 3
-0.9005 -2.24039 0.0415367 50
-0.473296 -2.24215 0.118279 3
-0.902598 -2.24447 -0.125368 50
-0.479757 -2.26915 -0.0398787 47
-0.905395 -2.24917 -0.292983 53
-0.480107 -2.27076 -0.199623 45
-0.903725 -2.24278 -0.462357 52
-0.477569 -2.26638 -0.361762 44
-0.909465 -2.25139 -0.640806 61
-0.47349 -2.25845 -0.523905 45
-2.27646 -5.57089 1.37911 15
-1.22602 -5.79916 1.57674 8
-2.27555 -5.57142 0.945513 24
-1.23756 -5.80395 1.14573 11
-0.901006 -2.20931 0.205688 2
-0.915056 -2.24259 0.0416676 52
-0.486992 -2.24688 0.118672 2
-0.917173 -2.24665 -0.125762 50
-0.492027 -2.26652 -0.0398787 47
-0.918491 -2.24653 -0.293288 52
-0.49199 -2.26821 -0.199623 44
-0.91957 -2.24694 -0.464262 52
-0.489429 -2.26385 -0.361762 42
-0.921241 -2.2466 -0.640806 61
-0.48621 -2.25823 -0.524467 45
-2.2778 -5.54928 1.37462 17
-1.23313 -5.78283 1.57286 26
-2.27585 -5.54728 0.942001 26
-1.23586 -5.74659 1.13477 14
-0.906752 -2.21234 0.206123 3
-0.919918 -2.2433 0.0417112 52
-0.48841 -2.23635 0.118148 2
-0.923939 -2.25197 -0.126156 50
-0.496512 -2.2681 -0.0399224 47
-0.924851 -2.25197 -0.2942 53
-0.496475 -2.26978 -0.199841 44
-0.92162 -2.2408 -0.463309 52
-0.492338 -2.25816 -0.360979 44
-0.927003 -2.24945 -0.6421 61
-0.489756 -2.25747 -0.524467 45
-2.30307 -5.52829 1.37237 18
-1.25262 -5.73168 1.56058 12
-2.30392 -5.533 0.941611 24
-1.25493 -5.69472 1.12572 23
-0.917938 -2.20772 0.206123 3
-0.93126 -2.23861 0.0417112 52
-0.501194 -2.23864 0.11841 3
-0.934757 -2.2448 -0.126025 50
-0.505818 -2.2558 -0.0397479 47
-0.93663 -2.2471 -0.2942 53
-0.507813 -2.26472 -0.199623 44
-0.935789 -2.2429 -0.464738 52
-0.505222 -2.26037 -0.361762 41
-0.937444 -2.2425 -0.641453 59
-0.500522 -2.25011 -0.523343 39
-2.31084 -5.51977 1.37125 18
-1.25434 -5.69174 1.55024 21
-2.30594 -5.51075 0.938489 24
-0.925636 -2.21531 0.206995 3
-0.938454 -2.24374 0.0418421 52
-0.504555 -2.23532 0.118279 3
-0.937708 -2.24086 -0.125893 50
-0.509754 -2.25491 -0.0397479 33
-0.93767 -2.23859 -0.293288 50
-0.510676 -2.25897 -0.199188 18
-0.939702 -2.24126 -0.464738 52
-0.507015 -2.24985 -0.360196 11
-0.943622 -2.24515 -0.642746 67
-0.50392 -2.24686 -0.522782 3
-2.34162 -5.50942 1.37181 14
-2.34152 -5.51183 0.940831 15
-0.938582 -2.21256 0.207213 3
-0.950189 -2.23879 0.0418421 52
-0.519431 -2.24473 0.118933 3
-0.953337 -2.24511 -0.126418 50
-0.520269 -2.24481 -0.039617 33
-0.953658 -2.24262 -0.294505 52
-0.519713 -2.24413 -0.198101 18
-0.95374 -2.24066 -0.46569 52
-0.518238 -2.24476 -0.359804 11
-0.954416 -2.23796 -0.6421 59
-0.513906 -2.2346 -0.520536 3
-2.37898 -5.57295 1.38866 14
-2.39575 -5.61488 0.959171 27
-0.944398 -2.2155 0.207649 3
-0.957041 -2.24403 0.041973 52
-0.522957 -2.24391 0.118933 4
-0.957254 -2.24344 -0.126418 50
-0.521932 -2.23416 -0.0394424 9
-0.959131 -2.24568 -0.295113 53
-0.521946 -2.23594 -0.197449 9
-0.957649 -2.23899 -0.46569 52
-0.519936 -2.23423 -0.358238 9
-0.960225 -2.24073 -0.643393 59
-0.517415 -2.23379 -0.520536 8
-2.42944 -5.60959 1.40101 20
-2.42413 -5.6 0.958781 27
-0.953621 -2.20612 0.207213 3
-0.532268 -2.23776 0.277771 2
-0.968387 -2.23915 0.041973 52
-0.531827 -2.22899 0.118279 11
-0.96998 -2.24069 -0.12655 50
-0.533809 -2.23392 -0.0394861 12
-0.971864 -2.2429 -0.295417 52
-0.53422 -2.2356 -0.197666 9
-0.971903 -2.24087 -0.467119 52
-0.53106 -2.22907 -0.357847 9
-0.974445 -2.24248 -0.645333 59
-0.529104 -2.23105 -0.520536 8
-2.43631 -5.59864 1.39933 17
-2.43292 -5.59349 0.958391 27
-0.959457 -2.20902 0.207649 3
-0.535026 -2.232 0.277163 9
-0.973682 -2.23958 0.0420167 52
-0.537452 -2.23535 0.118672 11
-0.976881 -2.24586 -0.126944 50
-0.537707 -2.23298 -0.0394861 11
-0.974786 -2.23893 -0.295113 52
-0.536965 -2.22982 -0.197231 11
-0.975812 -2.23917 -0.467119 52
-0.53495 -2.22814 -0.357847 9
-0.978749 -2.24061 -0.645333 59
-0.532997 -2.23012 -0.520536 8
-2.46558 -5.58315 1.39876 17
-2.45816 -5.56895 0.95644 24
-0.973406 -2.20835 0.208084 3
-0.548267 -2.23389 0.277771 8
-0.987414 -2.23903 0.0421039 50
-0.548947 -2.22998 0.118541 11
-0.989636 -2.243 -0.127075 50
-0.548001 -2.22276 -0.0393552 12
-0.988893 -2.23816 -0.295722 52
-0.548632 -2.22698 -0.197231 11
-0.989901 -2.23834 -0.468071 50
-0.546609 -2.22531 -0.357847 9
-0.991447 -2.23766 -0.645979 59
-0.547352 -2.23668 -0.522782 8
-2.46842 -5.56591 1.3954 15
-2.4629 -5.55606 0.954879 21
-0.981298 -2.21576 0.208956 3
-0.550595 -2.22821 0.277163 8
-0.994362 -2.24415 0.0422348 52
-0.551258 -2.22427 0.118279 11
-0.994562 -2.24355 -0.127206 50
-0.55427 -2.23151 -0.0395297 12
-0.996439 -2.24568 -0.296939 52
-0.554898 -2.23569 -0.198101 11
-0.9968 -2.24334 -0.469499 50
-0.551668 -2.22915 -0.35863 9
-0.998301 -2.24254 -0.647919 59
-0.548553 -2.22635 -0.520536 8
-2.49353 -5.54402 1.39315 15
-2.48385 -5.52507 0.951757 18
-0.996586 -2.21985 0.209827 3
-0.562254 -2.22529 0.277163 9
-1.00468 -2.23681 0.0421912 52
-0.563505 -2.22377 0.11841 11
-1.00835 -2.24286 -0.127469 49
-0.564948 -2.22625 -0.0394861 12
-1.00614 -2.2359 -0.29633 49
-0.564774 -2.22551 -0.197449 11
-1.00915 -2.2405 -0.469976 52
-0.563933 -2.22862 -0.359021 8
-1.01063 -2.23966 -0.648566 58
-0.563154 -2.23526 -0.523343 4
-2.49718 -5.52634 1.38978 15
-2.49756 -5.52973 0.953318 26
-0.998408 -2.21357 0.209392 3
-0.566137 -2.22431 0.277163 9
-1.01206 -2.24171 0.0423221 52
-0.56861 -2.22762 0.118672 11
-1.01329 -2.24337 -0.1276 50
-0.568832 -2.22526 -0.0394861 12
-1.01414 -2.24319 -0.297547 53
-0.570493 -2.23176 -0.198101 11
-1.01407 -2.24097 -0.470452 53
-0.570847 -2.2396 -0.360979 8
-1.01493 -2.23772 -0.648566 58
-0.565865 -2.22955 -0.52222 4
-2.52602 -5.51054 1.38922 15
-2.53053 -5.52287 0.954488 21
-1.01348 -2.21492 0.210045 3
-0.578783 -2.22362 0.277467 8
-1.02379 -2.23638 0.0423221 50
-0.580029 -2.2221 0.118541 9
-1.0271 -2.24258 -0.127862 49
-0.582118 -2.22699 -0.0395733 11
-1.0273 -2.23992 -0.297851 52
-0.580921 -2.22392 -0.197666 9
-1.02721 -2.23768 -0.470928 50
-0.582956 -2.23648 -0.360979 4
-1.02966 -2.23895 -0.650506 58
-0.579741 -2.23353 -0.523905 3
-2.54691 -5.53311 1.39596 14
-2.58768 -5.62161 0.972439 27
-1.02047 -2.21994 0.210699 3
-0.584536 -2.22981 0.27838 8
-1.02874 -2.23686 0.0423657 52
-0.583906 -2.22108 0.118541 9
-1.03206 -2.24305 -0.127994 50
-0.586635 -2.22839 -0.039617 11
-1.03224 -2.24038 -0.298155 52
-0.586688 -2.23013 -0.198319 9
-1.03317 -2.24034 -0.47188 49
-0.584992 -2.22829 -0.359804 4
-1.03458 -2.23934 -0.651152 58
-0.581805 -2.22544 -0.52222 3
-2.62119 -5.61683 1.42066 15
-2.61506 -5.60621 0.972049 26
-1.03064 -2.21249 0.210481 3
-0.596451 -2.22922 0.278684 4
-1.04322 -2.23842 0.0424966 52
-0.59514 -2.2181 0.118541 8
-1.0459 -2.24214 -0.128256 50
-0.597907 -2.22539 -0.039617 11
-1.04567 -2.23962 -0.298764 52
-0.597715 -2.22463 -0.198101 8
-1.0445 -2.23509 -0.47188 50
-0.594361 -2.21814 -0.35863 4
-1.04796 -2.23845 -0.652446 58
-0.593685 -2.22483 -0.522782 2
-2.62065 -5.59019 1.41505 15
-2.61121 -5.57257 0.966976 18
-1.03662 -2.2152 0.210917 3
-0.600341 -2.22817 0.278684 4
-1.04857 -2.23868 0.0425402 50
-0.599657 -2.21947 0.118672 9
-1.04981 -2.24031 -0.128256 50
-0.599846 -2.2171 -0.0394861 9
-1.04958 -2.23779 -0.298764 50
-0.601597 -2.22358 -0.198101 3
-1.05048 -2.2377 -0.472833 49
-0.597593 -2.21472 -0.358238 4
-1.05431 -2.2408 -0.653739 58
-0.595685 -2.21672 -0.521097 2
-2.62993 -5.53193 1.40382 14
-2.62648 -5.52714 0.961513 15
-1.05072 -2.21405 0.211353 3
-0.613041 -2.22729 0.278988 3
-1.06135 -2.23542 0.0425839 52
-0.613634 -2.22341 0.119064 12
-1.0626 -2.23703 -0.128388 50
-0.611833 -2.21382 -0.0394861 4
-1.06381 -2.23656 -0.299372 50
-0.611257 -2.21319 -0.197449 4
-1.06363 -2.2342 -0.473309 50
-0.609181 -2.21156 -0.358238 4
-1.06707 -2.23743 -0.654386 56
-0.60703 -2.21112 -0.520536 4
-2.63756 -5.52559 1.40326 14
-2.62877 -5.50964 0.959171 17
-1.0578 -2.21896 0.212006 3
-0.61391 -2.21675 0.277771 3
-1.06741 -2.23807 0.0426711 52
-0.611822 -2.20319 0.118018 9
-1.06758 -2.23743 -0.128519 52
-0.613701 -2.20552 -0.0393552 11
-1.06839 -2.23713 -0.299677 52
-0.61247 -2.20252 -0.196579 11
-1.07177 -2.24119 -0.475213 50
-0.610421 -2.20097 -0.356672 9
-1.07411 -2.2421 -0.656326 56
-0.611146 -2.21251 -0.521097 4
-2.65797 -5.49416 1.39876 14
-2.65543 -5.49135 0.958391 20
-1.07553 -2.22703 0.213314 3
-0.622829 -2.20395 0.276554 8
-1.0809 -2.23714 0.0427584 52
-0.623349 -2.19996 0.118018 11
-1.08107 -2.23649 -0.128781 50
-0.622824 -2.19517 -0.0392243 9
-1.08333 -2.2382 -0.300589 53
-0.622262 -2.1946 -0.196144 9
-1.07989 -2.22912 -0.473785 50
-0.626608 -2.21438 -0.359413 8
-1.08755 -2.24098 -0.657619 55
-0.618787 -2.1952 -0.517728 4
-2.66553 -5.48779 1.3982 15
-2.67257 -5.50225 0.961122 24
-1.07724 -2.22067 0.212878 3
-0.626001 -2.20047 0.27625 9
-1.0859 -2.2375 0.042802 50
-0.623789 -2.18686 0.117363 9
-1.08606 -2.23685 -0.128913 50
-0.62461 -2.18686 -0.0390934 9
-1.08833 -2.23854 -0.300894 52
-0.62677 -2.1959 -0.196362 9
-1.08807 -2.23605 -0.47569 50
-0.627114 -2.20141 -0.357455 8
-1.09358 -2.24342 -0.658912 55
-0.625257 -2.2035 -0.519974 4
-2.70272 -5.48859 1.40213 15
-2.70134 -5.48818 0.961122 26
-1.09435 -2.22617 0.213967 4
-0.638887 -2.20193 0.276859 9
-1.10091 -2.23851 0.0429329 50
-0.638001 -2.19315 0.117887 9
-1.10146 -2.23766 -0.129306 49
-0.638828 -2.19317 -0.0392679 9
-1.10113 -2.23503 -0.301198 52
-0.638641 -2.19248 -0.196362 9
-1.10194 -2.23473 -0.476642 49
-0.641368 -2.20758 -0.359021 8
-1.10745 -2.24199 -0.660205 56
-0.640148 -2.2119 -0.522782 4
-2.70797 -5.47513 1.39989 14
-2.70982 -5.48125 0.960732 23
-1.10265 -2.23319 0.214839 4
-1.1041 -2.23415 0.0428893 52
-0.641131 -2.18964 0.117756 9
-1.10647 -2.23797 -0.129438 49
-0.644051 -2.19685 -0.0393552 9
-1.10613 -2.23533 -0.301502 52
-0.648728 -2.21288 -0.198319 8
-1.10584 -2.2328 -0.476642 49
-0.649348 -2.22069 -0.36137 4
-1.11498 -2.24635 -0.662145 56
-0.649418 -2.22951 -0.527274 9
-2.75722 -5.49959 1.40999 15
-2.75715 -5.50183 0.966976 21
-1.1136 -2.22496 0.214621 4
-1.11914 -2.23504 0.0430202 52
-0.659354 -2.20768 0.118933 8
-1.12041 -2.23661 -0.1297 52
-0.66873 -2.23647 -0.0401405 11
-1.12155 -2.23597 -0.302415 52
-0.665263 -2.22617 -0.199841 14
-1.12121 -2.23336 -0.47807 50
-0.66587 -2.23383 -0.364111 18
-1.12347 -2.23401 -0.660205 56
-0.663539 -2.23297 -0.528959 29
-2.77023 -5.50396 1.41224 14
-2.77689 -5.51954 0.970878 20
-1.12308 -2.23414 0.21571 4
-1.12529 -2.23755 0.0431074 52
-0.667814 -2.22339 0.119849 15
-1.12768 -2.24134 -0.130094 50
-0.67907 -2.25685 -0.0405332 36
-1.12618 -2.23642 -0.302719 52
-0.679833 -2.2608 -0.203103 52
-1.12511 -2.2314 -0.47807 50
-0.671881 -2.23977 -0.365285 52
-1.13282 -2.24282 -0.663438 56
-0.672587 -2.25061 -0.533451 50
-2.85437 -5.59788 1.44032 18
-2.85848 -5.60832 0.989218 27
-1.13437 -2.22842 0.21571 4
-1.13773 -2.23405 0.0431511 52
-0.688155 -2.24853 0.121419 49
-1.14054 -2.23762 -0.130225 50
-0.691939 -2.25817 -0.0406205 52
-1.14126 -2.23712 -0.303632 52
-0.691661 -2.25721 -0.203103 52
-1.13974 -2.23223 -0.479499 50
-0.690052 -2.25748 -0.368809 52
-1.14415 -2.23705 -0.663438 56
-0.685772 -2.25172 -0.534574 50
-2.85858 -5.58205 1.43751 15
-2.85926 -5.58574 0.986097 24
-1.14507 -2.23974 0.217018 4
-1.14316 -2.23409 0.0431947 52
-0.694998 -2.25688 0.121943 47
-1.14558 -2.23785 -0.130357 49
-0.696611 -2.25935 -0.0406641 53
-1.14403 -2.23292 -0.303328 50
-0.697786 -2.26315 -0.203755 52
-1.14588 -2.23461 -0.480451 50
-0.695433 -2.261 -0.369592 56
-1.15066 -2.23915 -0.664732 55
-0.688992 -2.24819 -0.534012 50
-2.87752 -5.54488 1.43189 15
-2.87465 -5.5417 0.981024 20
-1.15717 -2.23351 0.217018 4
-1.74531 -5.59773 0.71466 20
-1.15715 -2.23251 0.043282 52
-0.707199 -2.25308 0.121943 47
-1.15843 -2.23404 -0.130488 49
-0.70957 -2.25793 -0.0407077 52
-1.15953 -2.2333 -0.30424 52
-0.709626 -2.25946 -0.203755 52
-1.15908 -2.23055 -0.480927 50
-0.707995 -2.25968 -0.369984 56
-1.16571 -2.23952 -0.666672 55
-0.702589 -2.24908 -0.535136 50
-2.87947 -5.52739 1.42853 15
-2.87194 -5.51527 0.977121 18
-1.75306 -5.61562 1.13572 15
-1.16337 -2.23591 0.217454 4
-1.76817 -5.63998 0.720441 21
-1.15989 -2.22827 0.0432383 52
-0.713723 -2.2615 0.122466 47
-1.16695 -2.24087 -0.131013 50
-0.714258 -2.25908 -0.0407514 49
-1.16533 -2.23587 -0.304849 52
-0.71506 -2.26297 -0.20419 52
-1.16525 -2.23288 -0.48188 50
-0.711201 -2.25609 -0.369592 52
-1.16962 -2.23748 -0.666672 56
-0.706121 -2.24798 -0.535136 49
-2.89813 -5.49285 1.42347 15
-1.77347 -5.6153 1.5664 17
-2.8881 -5.47614 0.972829 20
-1.73032 -5.44524 1.10284 1
-1.17351 -2.22779 0.217236 4
-1.80897 -5.66611 0.725005 27
-1.17465 -2.229 0.0433692 50
-0.725555 -2.25773 0.122466 47
-1.17517 -2.2281 -0.130619 49
-0.726444 -2.25781 -0.040795 49
-1.17702 -2.22974 -0.304849 50
-0.726141 -2.25682 -0.203972 65
-1.17768 -2.22912 -0.482356 49
-0.723754 -2.25469 -0.369984 53
-1.18093 -2.23153 -0.666672 56
-0.720094 -2.25121 -0.53682 49
-2.95792 -5.58248 1.44818 11
-1.72929 -5.44182 1.51858 1
-2.99941 -5.6631 1.00717 35
-1.80937 -5.65702 1.14669 20
-1.18206 -2.23454 0.218107 4
-1.81885 -5.66294 0.725005 26
-1.17893 -2.22674 0.0433692 52
-0.729494 -2.25646 0.122466 47
-1.18373 -2.23487 -0.131144 50
-0.729619 -2.25416 -0.0407514 49
-1.18324 -2.23207 -0.305457 50
-0.731603 -2.2603 -0.204407 53
-1.18272 -2.22923 -0.482832 50
-0.728442 -2.25577 -0.370375 55
-1.18862 -2.23565 -0.668611 55
-0.72328 -2.24763 -0.536259 49
-3.04917 -5.68015 1.47794 15
-1.82993 -5.65302 1.58062 21
-3.04519 -5.67507 1.01224 15
-1.83821 -5.64513 1.14621 20
-1.19413 -2.22811 0.218107 4
-1.84716 -5.64594 0.724092 23
-1.1953 -2.22935 0.0435437 50
-0.743244 -2.25723 0.122728 49
-1.19896 -2.23524 -0.131538 50
-0.744137 -2.25731 -0.0408823 50
-1.19882 -2.23219 -0.30637 49
-0.743428 -2.25643 -0.204407 49
-1.19709 -2.22712 -0.483784 49
-0.740243 -2.25192 -0.370375 52
-1.20374 -2.23578 -0.670551 55
-0.736938 -2.24832 -0.537382 56
-3.03497 -5.63246 1.46671 15
-1.83755 -5.64293 1.57868 15
-3.03301 -5.63115 1.00522 15
-1.78405 -5.44596 1.10617 1
-1.85216 -5.63125 0.722571 23
-1.19919 -2.22726 0.0435437 50
-0.747568 -2.25843 0.122859 50
-1.20523 -2.23754 -0.131801 49
-0.748076 -2.25601 -0.0408823 49
-1.20468 -2.23467 -0.306978 49
-0.748922 -2.25986 -0.204842 52
-1.20214 -2.22718 -0.484261 50
-0.743402 -2.24828 -0.369984 53
-1.20879 -2.2358 -0.671198 55
-0.739711 -2.24484 -0.53682 49
-3.06442 -5.61649 1.46671 32
-1.86155 -5.6198 1.5748 15
-3.06127 -5.61303 1.00483 38
-1.8704 -5.61386 1.1424 17
-1.87926 -5.61441 0.721658 21
-1.21404 -2.22775 0.0436746 50
-0.757799 -2.24975 0.122597 42
-1.21893 -2.23579 -0.132063 49
-0.761073 -2.25693 -0.0409695 52
-1.21875 -2.23269 -0.307587 47
-0.761142 -2.25841 -0.20506 52
-1.21576 -2.22538 -0.485213 49
-0.758294 -2.25373 -0.37155 61
-1.22125 -2.23177 -0.671844 55
-0.752225 -2.24325 -0.537382 49
-3.07675 -5.61808 1.46839 38
-1.86907 -5.60966 1.57286 15
-3.07581 -5.61634 1.00639 39
-1.81874 -5.4267 1.10475 1
-1.88195 -5.58995 0.71892 20
-1.22153 -2.2322 0.0438055 50
-0.765706 -2.26025 0.123251 47
-1.22164 -2.23147 -0.131932 47
-0.765011 -2.2556 -0.0409695 49
-1.22264 -2.23056 -0.307587 49
-0.765877 -2.25944 -0.205277 53
-1.22436 -2.23186 -0.487118 49
-0.762226 -2.2524 -0.37155 50
-1.2298 -2.2381 -0.674431 55
-0.75846 -2.24886 -0.539066 49
-3.10592 -5.59922 1.46783 23
-1.89455 -5.58836 1.56963 15
-3.09799 -5.5872 1.00405 21
-1.84634 -5.41478 1.10427 1
-1.89836 -5.54245 0.714052 20
-1.23562 -2.23014 0.0438928 50
-0.77753 -2.25621 0.123251 47
-1.23573 -2.22941 -0.132195 47
-0.777621 -2.25393 -0.0410132 49
-1.23792 -2.23063 -0.3085 47
-0.779311 -2.26011 -0.205712 52
-1.23723 -2.22756 -0.487594 49
-0.774009 -2.24838 -0.37155 52
-1.24151 -2.23163 -0.674431 56
-0.770225 -2.24486 -0.539066 49
-3.12775 -5.61775 1.47401 33
-1.90119 -5.5759 1.56705 14
-3.12336 -5.60983 1.00912 33
-1.90741 -5.56249 1.13525 15
-1.91045 -5.54617 0.714965 20
-1.23951 -2.22798 0.0438928 50
-0.782279 -2.25721 0.123382 47
-1.23961 -2.22725 -0.132195 45
-0.783183 -2.25729 -0.0411004 49
-1.24423 -2.2328 -0.309108 49
-0.783255 -2.25874 -0.205712 50
-1.24351 -2.22968 -0.488546 49
-0.779539 -2.25169 -0.372333 50
-1.24776 -2.23367 -0.675724 55
-0.774932 -2.24582 -0.539628 49
-3.16409 -5.61135 1.47682 33
-1.92562 -5.55218 1.56317 14
-3.1539 -5.59555 1.00951 33
-1.87926 -5.38785 1.10141 1
-1.88216 -5.37211 0.693668 1
-1.25362 -2.22582 0.0439801 49
-0.795738 -2.2578 0.123644 47
-1.25862 -2.23378 -0.132982 47
-0.795818 -2.25552 -0.041144 50
-1.25469 -2.2241 -0.308804 47
-0.796718 -2.25931 -0.206147 52
-1.25758 -2.22741 -0.489498 49
-0.791318 -2.24758 -0.372333 50
-1.26182 -2.23131 -0.677018 55
-0.787482 -2.24403 -0.540189 49
-3.1765 -5.61273 1.4785 33
-1.93927 -5.56021 1.5664 15
-3.17096 -5.60293 1.01185 35
-1.95511 -5.57452 1.14049 15
-1.90717 -5.4133 0.699448 1
-1.25996 -2.22798 0.0440673 49
-0.798019 -2.25169 0.123382 47
-1.26129 -2.22941 -0.132851 45
-0.799754 -2.25413 -0.041144 49
-1.26591 -2.23485 -0.310629 49
-0.80066 -2.25792 -0.206147 59
-1.26268 -2.22735 -0.489975 49
-0.796878 -2.25086 -0.373116 50
-1.26929 -2.2354 -0.678957 55
-0.792204 -2.24495 -0.540751 49
-3.21409 -5.60815 1.48187 33
-1.97964 -5.58186 1.57545 14
-3.2113 -5.60553 1.01536 33
-1.99661 -5.59889 1.14764 15
-1.93966 -5.41492 0.70097 1
-1.27285 -2.22352 0.044111 49
-0.812322 -2.25454 0.123775 47
-1.27581 -2.22688 -0.133113 45
-0.814076 -2.25697 -0.0412749 50
-1.27759 -2.22819 -0.310629 49
-0.813705 -2.2559 -0.206364 90
-1.27921 -2.22922 -0.491879 49
-0.809484 -2.24898 -0.373507 52
-1.28218 -2.23082 -0.679604 55
-0.806401 -2.24766 -0.542435 50
-3.22874 -5.61097 1.48412 33
-1.99666 -5.59887 1.58126 14
-3.22847 -5.61276 1.0177 33
-2.02472 -5.64357 1.15765 20
-1.95162 -5.41853 0.701882 1
-1.28086 -2.22757 0.0442418 49
-0.817947 -2.25781 0.124036 47
-1.28344 -2.23114 -0.133507 47
-0.815471 -2.24849 -0.041144 49
-1.28396 -2.23026 -0.311238 49
-0.81933 -2.25916 -0.206799 52
-1.28187 -2.22486 -0.491403 49
-0.812572 -2.24524 -0.373116 50
-1.28888 -2.23253 -0.680897 55
-0.811145 -2.24854 -0.542997 50
-3.26886 -5.61026 1.48861 36
-2.04582 -5.64022 1.59613 15
-3.26377 -5.60374 1.01927 35
-2.06263 -5.65595 1.16241 24
-1.9775 -5.39857 0.700665 1
-1.29628 -2.22731 0.0443727 49
-0.830151 -2.25336 0.124036 47
-1.29887 -2.23086 -0.133901 49
-0.829345 -2.24874 -0.0412313 49
-1.29851 -2.22757 -0.311846 49
-0.832004 -2.25718 -0.207017 52
-1.30008 -2.22849 -0.493784 47
-0.827708 -2.25023 -0.374682 50
-1.30177 -2.22784 -0.681544 55
-0.824133 -2.24641 -0.543558 50
-3.27767 -5.60512 1.48861 30
-2.06061 -5.65026 1.6 17
-3.26509 -5.58582 1.01692 15
-2.06997 -5.64543 1.16098 21
-1.98342 -5.38847 0.699753 1
-1.30143 -2.2272 0.0444164 49
-0.83369 -2.25205 0.124036 41
-1.30403 -2.23074 -0.134032 47
-0.834997 -2.25198 -0.0413186 50
-1.30326 -2.22767 -0.312151 49
-0.835082 -2.25338 -0.206799 50
-1.30645 -2.23045 -0.494736 47
-0.831634 -2.24878 -0.374682 49
-1.30932 -2.23181 -0.683484 53
-0.828499 -2.2474 -0.54412 50
-3.28836 -5.55643 1.48019 3
-2.08668 -5.63296 1.59806 15
-3.24901 -5.49214 1.00288 1
-2.09424 -5.62338 1.1586 18
-2.0064 -5.36406 0.697927 1
-1.31141 -2.21844 0.0443727 47
-0.848967 -2.25701 0.12456 47
-1.31569 -2.22389 -0.134032 47
-0.847261 -2.25006 -0.0413622 49
-1.31364 -2.21868 -0.311846 47
-0.850361 -2.25831 -0.207669 59
-1.31647 -2.2217 -0.49426 49
-0.845989 -2.25133 -0.375856 49
-1.31814 -2.221 -0.682191 53
-0.841955 -2.2476 -0.545243 49
-3.29307 -5.54231 1.47794 2
-2.09146 -5.61573 1.59419 15
-3.21065 -5.4058 0.988048 1
-2.09473 -5.59176 1.15288 17
-2.01314 -5.35358 0.697014 1
-1.32206 -2.22666 0.0445909 49
-0.851148 -2.25085 0.124298 47
-1.32084 -2.22373 -0.134164 45
-0.849426 -2.2439 -0.0412749 47
-1.32386 -2.22704 -0.313367 47
-0.852547 -2.25216 -0.207234 56
-1.32537 -2.22783 -0.496165 47
-0.848181 -2.24523 -0.375073 47
-1.32735 -2.22676 -0.684777 53
-0.845876 -2.24612 -0.545243 50
-3.32678 -5.53067 1.47962 4
-2.11584 -5.58851 1.58966 15
-3.28059 -5.45606 1.00053 3
-2.11701 -5.56236 1.14907 15
-2.11899 -5.54433 0.723483 21
-1.33628 -2.22399 0.0446782 47
-0.863314 -2.24621 0.124298 45
-1.33891 -2.22748 -0.13482 47
-0.864233 -2.24628 -0.0414058 47
-1.33717 -2.22197 -0.313672 47
-0.863438 -2.24534 -0.207017 49
-1.33867 -2.22273 -0.496641 47
-0.861686 -2.24537 -0.375856 49
-1.34274 -2.22598 -0.686717 52
-0.858883 -2.24379 -0.545805 49
-3.31657 -5.49416 1.4712 12
-2.12045 -5.57126 1.58579 14
-3.23938 -5.36845 0.985316 2
-2.12234 -5.54719 1.14669 15
-2.12148 -5.52478 0.721354 21
-1.34274 -2.22593 0.0447654 47
-0.867736 -2.24718 0.124429 45
-1.34408 -2.22728 -0.134951 47
-0.869049 -2.2471 -0.0414495 47
-1.34451 -2.22624 -0.314584 47
-0.869142 -2.24848 -0.207452 49
-1.34636 -2.22669 -0.498069 47
-0.866487 -2.24617 -0.376248 47
-1.34787 -2.2257 -0.687364 52
-0.863276 -2.24471 -0.546366 50
-3.33513 -5.46009 1.46671 12
-2.13993 -5.53793 1.57932 14
-3.39231 -5.55582 1.02317 9
-2.14329 -5.51807 1.14287 15
-2.15488 -5.52516 0.722875 18
-1.35659 -2.22337 0.0448527 47
-0.87949 -2.24261 0.124429 45
-1.35833 -2.22447 -0.135214 47
-0.882229 -2.24733 -0.0415367 50
-1.35744 -2.22129 -0.314889 47
-0.881809 -2.24622 -0.207669 49
-1.3589 -2.22194 -0.498546 47
-0.880028 -2.24621 -0.377031 49
-1.36291 -2.22503 -0.689303 53
-0.875017 -2.24016 -0.546366 49
-3.31917 -5.41273 1.45548 12
-2.14698 -5.52743 1.57739 14
-3.3878 -5.52674 1.01888 12
-2.17794 -5.57569 1.15574 15
-3.40267 -5.55313 0.56673 11
-2.20971 -5.63693 0.738087 23
-1.36217 -2.2229 0.0448963 47
-0.885225 -2.24572 0.12469 45
-1.36482 -2.22635 -0.135476 47
-0.887063 -2.24811 -0.0415804 49
-1.36521 -2.22526 -0.315801 47
-0.886637 -2.24699 -0.207887 47
-1.36663 -2.22583 -0.499974 47
-0.883047 -2.24237 -0.376639 50
-1.37097 -2.22858 -0.691243 53
-0.880697 -2.24317 -0.547489 47
-3.3317 -5.36779 1.44818 12
-2.19631 -5.56517 1.5916 14
-3.40594 -5.48945 1.01536 12
-2.23691 -5.63951 1.17147 23
-3.35256 -5.40555 0.553439 1
-2.23743 -5.61798 0.737174 32
-1.37774 -2.2221 0.0450272 47
-0.898286 -2.24321 0.124821 45
-1.37646 -2.21917 -0.135476 47
-0.898288 -2.24096 -0.0415367 47
-1.37723 -2.21784 -0.315801 47
-0.902077 -2.25158 -0.208756 50
-1.38125 -2.22257 -0.500926 47
-0.896992 -2.24215 -0.377422 49
-1.3839 -2.22342 -0.69189 53
-0.893719 -2.24064 -0.548051 47
-3.31823 -5.3274 1.43863 12
-2.23179 -5.62645 1.61034 15
-3.42204 -5.49397 1.01731 14
-2.23949 -5.61736 1.16766 20
-3.34883 -5.37855 0.55126 1
-2.23894 -5.59332 0.734436 27
-1.38294 -2.22182 0.0450708 45
-0.904055 -2.24628 0.125083 45
-1.38694 -2.22736 -0.136133 47
-0.904057 -2.24403 -0.041624 47
-1.38373 -2.21964 -0.31641 47
-0.904154 -2.24537 -0.208322 47
-1.38772 -2.22432 -0.501879 45
-0.902737 -2.24516 -0.378206 49
-1.39034 -2.22509 -0.693183 53
-0.89853 -2.24134 -0.548612 47
-3.32361 -5.27228 1.42853 12
-2.25762 -5.60572 1.60776 15
-3.46657 -5.50105 1.022 12
-2.26244 -5.58963 1.16432 18
-3.43537 -5.45365 0.560847 12
-2.26354 -5.57003 0.732915 27
-1.39322 -2.21243 0.0450272 44
-0.915804 -2.24151 0.125083 45
-1.40257 -2.2264 -0.136527 47
-0.918619 -2.24621 -0.0417549 47
-1.40063 -2.22076 -0.317627 45
-0.917774 -2.24522 -0.208756 49
-1.40197 -2.22118 -0.502831 45
-0.915017 -2.24285 -0.378597 47
-1.40326 -2.21982 -0.69383 53
-0.913909 -2.24563 -0.550858 49
-3.31625 -5.24235 1.42179 12
-2.25926 -5.58162 1.60194 15
-3.49369 -5.52481 1.02746 12
-2.26573 -5.56975 1.16098 18
-3.51412 -5.55709 0.572177 12
-2.26948 -5.55957 0.732002 27
-1.4051 -2.22267 0.045289 47
-0.922154 -2.24701 0.125475 45
-1.40779 -2.22606 -0.136658 47
-0.923484 -2.24692 -0.0417985 47
-1.40412 -2.21855 -0.317627 47
-0.923575 -2.24823 -0.209191 49
-1.40848 -2.22287 -0.503783 47
-0.920795 -2.24582 -0.37938 47
-1.41232 -2.22552 -0.696416 53
-0.917435 -2.2442 -0.550858 52
-3.32133 -5.19004 1.41224 12
-2.28657 -5.56788 1.60129 15
-3.52789 -5.51476 1.02902 12
-2.29015 -5.54914 1.15908 18
-3.5422 -5.53923 0.572177 11
-2.29287 -5.53385 0.730177 29
-1.42038 -2.22185 0.0454199 47
-0.933906 -2.24215 0.125475 45
-1.42308 -2.22521 -0.137052 45
-0.934845 -2.24221 -0.0417985 47
-1.42375 -2.22371 -0.319452 47
-0.936849 -2.24813 -0.209626 49
-1.41839 -2.21365 -0.503307 45
-0.934429 -2.24554 -0.380163 49
-1.42878 -2.22647 -0.699003 52
-0.930102 -2.24161 -0.55142 52
-3.30577 -5.14793 1.40213 12
-2.28801 -5.54378 1.59548 15
-3.54685 -5.52314 1.03175 9
-2.29702 -5.53833 1.15765 18
-3.54917 -5.52885 0.571742 11
-2.29871 -5.52068 0.72896 30
-1.42695 -2.22357 0.0455071 47
-0.940696 -2.24743 0.125868 45
-1.42696 -2.22273 -0.137052 47
-0.940679 -2.24519 -0.0418858 45
-1.43031 -2.22539 -0.320061 47
-0.942686 -2.25109 -0.210061 47
-1.42623 -2.21736 -0.504736 45
-0.939295 -2.24618 -0.380555 49
-1.43398 -2.22601 -0.699649 53
-0.934013 -2.23999 -0.55142 47
-3.31631 -5.10341 1.39483 12
-2.31607 -5.5295 1.59483 15
-3.56092 -5.48172 1.02746 9
-2.32219 -5.51717 1.15574 15
-3.56993 -5.49766 0.570434 11
-2.33241 -5.52 0.730481 24
-1.44266 -2.22235 0.045638 47
-0.952451 -2.24247 0.125868 47
-1.44266 -2.2215 -0.137446 47
-0.954369 -2.24484 -0.041973 45
-1.44195 -2.21787 -0.320061 45
-0.95543 -2.24841 -0.210279 49
-1.44586 -2.2222 -0.507593 44
-0.952963 -2.24578 -0.381338 49
-1.44825 -2.22251 -0.700943 53
-0.948563 -2.2418 -0.553104 49
-3.30037 -5.06147 1.38473 11
-2.32572 -5.52544 1.59483 14
-3.58128 -5.49204 1.03058 9
-2.35376 -5.56511 1.1667 14
-3.58224 -5.49559 0.57087 11
-2.38463 -5.61645 0.743867 27
-1.44791 -2.22193 0.0456817 47
-0.958314 -2.2454 0.12613 47
-1.44927 -2.22317 -0.137708 47
-0.959263 -2.24547 -0.0420167 45
-1.44989 -2.22158 -0.320973 47
-0.959353 -2.24674 -0.210279 47
-1.44571 -2.21351 -0.506164 45
-0.956881 -2.24412 -0.381338 47
-1.4561 -2.22604 -0.702883 52
-0.954372 -2.24463 -0.554227 50
-3.31428 -5.02321 1.37911 9
-2.38018 -5.57318 1.61228 12
-3.60046 -5.45878 1.02785 8
-2.41185 -5.6204 1.181 18
-3.64114 -5.52249 0.575664 8
-2.41597 -5.60845 0.744476 30
-1.45952 -2.21431 0.0456817 47
-0.97302 -2.24723 0.126522 45
-1.46364 -2.21971 -0.137971 47
-0.971997 -2.24272 -0.0420603 45
-1.4656 -2.22017 -0.321886 47
-0.972089 -2.24398 -0.210496 47
-1.4654 -2.21819 -0.509021 45
-0.971546 -2.24588 -0.382512 47
-1.4704 -2.22241 -0.704176 52
-0.967072 -2.24184 -0.554789 50
-3.31141 -5.00175 1.37462 4
-2.40987 -5.61564 1.62585 14
-3.68362 -5.56366 1.04892 9
-2.41874 -5.60942 1.17957 20
-3.69339 -5.5805 0.582418 11
-2.42181 -5.59511 0.743259 27
-1.46752 -2.21802 0.0458126 45
-0.97595 -2.24324 0.126391 47
-1.47165 -2.2234 -0.138365 45
-0.97591 -2.24102 -0.0420603 45
-1.47085 -2.21968 -0.32219 45
-0.978972 -2.24913 -0.211148 49
-1.47198 -2.21972 -0.509974 45
-0.975464 -2.24418 -0.382512 47
-1.47695 -2.22387 -0.705469 52
-0.971947 -2.24239 -0.55535 50
-2.44501 -5.61623 1.62973 15
-3.73195 -5.57302 1.05439 9
-2.44612 -5.59218 1.17862 17
-3.72256 -5.56109 0.582418 11
-2.4461 -5.57099 0.741738 26
-1.48051 -2.21238 0.0458562 47
-0.988685 -2.24039 0.126522 47
-1.48644 -2.21955 -0.138627 45
-0.990647 -2.24274 -0.0421912 45
-1.4866 -2.21813 -0.323103 45
-0.992129 -2.24608 -0.211366 50
-1.48906 -2.22013 -0.511878 45
-0.989185 -2.24356 -0.383295 47
-1.49127 -2.22011 -0.706762 52
-0.984651 -2.2395 -0.555912 50
-2.44515 -5.58982 1.62327 14
-3.73202 -5.55215 1.05165 9
-2.45488 -5.58297 1.17766 17
-3.72809 -5.54838 0.581765 11
-2.45282 -5.5599 0.740825 23
-1.48894 -2.21575 0.0459871 45
-0.993601 -2.24094 0.126653 45
-1.49449 -2.22317 -0.139021 47
-0.995569 -2.2433 -0.0422348 45
-1.48908 -2.21347 -0.322799 45
-0.999065 -2.25118 -0.212018 49
-1.4943 -2.21957 -0.512354 45
-0.994095 -2.24409 -0.383687 47
-1.49823 -2.22125 -0.708056 52
-0.990519 -2.24224 -0.557035 50
-2.47438 -5.5743 1.62262 14
-3.75784 -5.52575 1.05048 8
-2.47709 -5.55435 1.17433 15
-3.74545 -5.5096 0.579804 11
-2.47376 -5.52615 0.738087 23
-1.50333 -2.21206 0.0460743 45
-1.00877 -2.24237 0.127046 45
-1.50751 -2.21738 -0.139152 45
-1.00871 -2.24016 -0.0422784 47
-1.50523 -2.21154 -0.323712 44
-1.01186 -2.24819 -0.212236 50
-1.50906 -2.2155 -0.513307 45
-1.00925 -2.24544 -0.384861 47
-1.51393 -2.21935 -0.709995 52
-1.00462 -2.2413 -0.558158 49
-2.48116 -5.56336 1.62068 14
-3.76191 -5.51103 1.04892 4
-2.48077 -5.53657 1.17147 15
-3.74243 -5.48454 0.577843 9
-2.48848 -5.53315 0.739608 26
-1.51142 -2.21563 0.0462052 45
-1.01371 -2.24288 0.127176 45
-1.5142 -2.21886 -0.139415 45
-1.01467 -2.24295 -0.0423657 45
-1.51189 -2.213 -0.32432 41
-1.01373 -2.24188 -0.211801 47
-1.51569 -2.21692 -0.514259 45
-1.01114 -2.23917 -0.384078 49
-1.5219 -2.22268 -0.711935 52
-1.01152 -2.24621 -0.559843 49
-2.50333 -5.53752 1.6168 14
-3.77572 -5.4716 1.04502 8
-2.50775 -5.52171 1.17099 17
-3.75882 -5.44913 0.576099 11
-2.5257 -5.54081 0.742346 24
-1.52546 -2.21206 0.0462925 45
-1.02505 -2.23772 0.127176 45
-1.52863 -2.21501 -0.139677 45
-1.02601 -2.23779 -0.0423657 47
-1.53012 -2.21553 -0.325841 45
-1.03063 -2.24787 -0.212888 49
-1.53388 -2.21931 -0.51664 45
-1.02451 -2.23852 -0.384861 47
-1.5345 -2.21694 -0.712582 52
-1.02388 -2.24328 -0.560404 50
-2.509 -5.52434 1.61422 14
-3.8134 -5.50559 1.05282 8
-2.53869 -5.56155 1.18052 17
-3.81229 -5.50603 0.582854 9
-2.57559 -5.62441 0.754212 30
-1.53397 -2.21529 0.0464234 47
-1.03207 -2.24274 0.127569 45
-1.53534 -2.21644 -0.13994 45
-1.03304 -2.24281 -0.0424966 47
-1.53682 -2.21693 -0.32645 45
-1.03559 -2.24834 -0.213106 49
-1.53775 -2.21663 -0.51664 45
-1.03149 -2.24347 -0.386036 47
-1.54289 -2.21993 -0.714522 50
-1.02678 -2.23927 -0.559843 49
-2.54692 -5.52824 1.61939 14
-3.88423 -5.54352 1.06414 8
-2.59453 -5.60611 1.19292 18
-3.8749 -5.53223 0.587865 11
-2.60494 -5.60814 0.753907 27
-1.54842 -2.21132 0.0465107 45
-1.04419 -2.23712 0.127569 45
-1.55123 -2.21451 -0.140334 45
-1.04516 -2.23719 -0.0424966 47
-1.04839 -2.24514 -0.213323 49
-1.55677 -2.21832 -0.519021 45
-1.0453 -2.24252 -0.386819 47
-1.56005 -2.21972 -0.717108 52
-1.04093 -2.23811 -0.560966 50
-2.57277 -5.55887 1.62973 14
-3.90004 -5.54751 1.06609 9
-2.61257 -5.61939 1.19673 18
-3.89028 -5.53361 0.588737 11
-2.60223 -5.5793 0.750561 18
-1.55515 -2.21271 0.0465979 44
-1.04981 -2.24001 0.127831 44
-1.55653 -2.21384 -0.140465 44
-1.05118 -2.23989 -0.0425839 45
-1.05126 -2.24105 -0.213106 47
-1.56064 -2.2156 -0.519021 47
-1.05026 -2.24293 -0.38721 47
-1.56532 -2.21897 -0.717755 50
-1.04342 -2.23426 -0.560404 49
-3.35623 -4.71988 1.32689 3
-2.62954 -5.60702 1.64782 14
-3.92331 -5.51896 1.06453 8
-2.62219 -5.56611 1.18815 15
-3.91102 -5.5037 0.587648 11
-2.60917 -5.51847 0.744172 15
-1.57068 -2.21092 0.0467288 45
-1.06366 -2.23899 0.128092 44
-1.06464 -2.23906 -0.0426711 45
-1.06617 -2.24227 -0.213758 45
-1.57468 -2.21167 -0.519973 45
-1.06621 -2.24633 -0.388776 47
-1.57934 -2.21495 -0.719048 50
-1.05822 -2.23538 -0.562089 49
-3.39136 -4.75168 1.33756 4
-2.62699 -5.5762 1.64007 14
-3.92289 -5.49804 1.0618 8
-2.62134 -5.53666 1.18291 15
-3.90326 -5.47253 0.585033 9
-2.61667 -5.50942 0.743563 20
-1.07078 -2.2439 0.128485 45
-1.07069 -2.24171 -0.0427584 45
-1.07222 -2.2449 -0.214193 45
-1.58283 -2.2149 -0.521402 45
-1.07012 -2.24446 -0.388776 47
-1.58781 -2.2178 -0.720988 50
-1.06316 -2.23573 -0.56265 49
-3.4484 -4.77671 1.34991 9
-2.64465 -5.53574 1.63231 14
-3.93379 -5.45071 1.05673 4
-2.64393 -5.50958 1.18005 15
-3.92261 -5.4372 0.583508 9
-2.64859 -5.49966 0.744172 23
-1.0829 -2.23807 0.128485 45
-1.08606 -2.24264 -0.0428893 47
-1.08612 -2.24375 -0.214628 45
-1.08293 -2.24105 -0.389168 49
-1.60223 -2.21337 -0.722281 50
-1.07524 -2.22994 -0.56265 49
-3.4802 -4.80482 1.35946 11
-2.66056 -5.54419 1.63619 14
-2.65248 -5.50275 1.17957 15
-2.65615 -5.49326 0.743867 23
-1.0875 -2.23862 0.128616 44
-1.08997 -2.24074 -0.0428893 47
-1.15888 -1.59978 -0.237916 3
-1.09004 -2.24185 -0.214628 45
-1.08899 -2.24361 -0.389951 49
-1.61319 -2.22034 -0.725514 49
-1.08191 -2.23484 -0.564335 49
-3.35413 -4.5802 1.3005 2
-2.67489 -5.5024 1.62779 14
-2.6846 -5.49807 1.18148 17
-2.69141 -5.49265 0.745693 26
-1.10031 -2.23513 0.128746 44
-1.1057 -2.24418 -0.0430638 47
-1.1555 -1.57768 -0.235482 3
-1.10356 -2.24077 -0.215063 47
-1.10181 -2.24009 -0.390343 47
-1.62584 -2.21409 -0.726161 50
-1.09467 -2.23133 -0.564896 49
-3.31948 -4.518 1.28421 2
-2.69083 -5.51075 1.63167 15
-2.69311 -5.49118 1.181 18
-2.69881 -5.48349 0.745084 24
-1.10751 -2.23993 0.129139 44
-1.16289 -1.58369 -0.101476 12
-1.10962 -2.24224 -0.0430638 45
-1.11077 -2.24555 -0.215715 49
-1.10789 -2.2426 -0.391126 47
-1.634 -2.21708 -0.728101 49
-1.10071 -2.23379 -0.56602 49
-3.32207 -4.47065 1.27579 4
-2.71965 -5.49659 1.63167 14
-2.73709 -5.50778 1.18767 18
-3.28132 -4.41901 0.478485 4
-2.74075 -5.49594 0.748735 21
-1.22151 -1.64589 0.0351666 11
-1.12034 -2.23633 0.12927 44
-1.16372 -1.56756 -0.10082 14
-1.12246 -2.23864 -0.0431074 45
-1.12585 -2.24639 -0.216367 49
-1.12182 -2.24119 -0.391909 47
-1.64703 -2.21043 -0.728748 49
-1.11347 -2.23018 -0.566581 47
-3.30433 -4.43223 1.26624 4
-2.73997 -5.51347 1.63813 14
-2.77296 -5.55571 1.19911 18
-3.28903 -4.41328 0.478485 3
-2.77031 -5.5311 0.754212 21
-1.21392 -1.62973 0.0348612 11
-1.1276 -2.24107 0.129662 44
-1.16645 -1.56553 -0.10082 14
-1.12861 -2.24115 -0.0431947 45
-1.1618 -1.5576 -0.233961 3
-1.12977 -2.24442 -0.216367 49
-1.16158 -1.55618 -0.369981 12
-1.12684 -2.24143 -0.3923 49
-1.65668 -2.21528 -0.731334 49
-1.11845 -2.23041 -0.567143 47
-2.77422 -5.50983 1.64136 14
-2.80201 -5.54112 1.19911 15
-2.84856 -5.61392 0.767598 33
-1.14044 -2.23736 0.129793 44
-1.17163 -1.55541 -0.100557 15
-1.14485 -2.24412 -0.0433692 47
-1.17442 -1.55743 -0.234873 4
-1.14151 -2.23847 -0.216367 49
-1.16379 -1.54224 -0.368076 15
-1.13856 -2.2355 -0.3923 47
-1.67263 -2.21235 -0.733274 49
-1.13341 -2.23105 -0.568827 49
-2.82192 -5.58044 1.66398 14
-2.85384 -5.6194 1.21722 21
-2.85048 -5.59346 0.765469 26
-1.14775 -2.24204 0.130186 44
-1.16982 -1.54739 -0.100163 15
-1.14763 -2.23989 -0.0433256 45
-1.16815 -1.54352 -0.233048 8
-1.14993 -2.24535 -0.217237 49
-1.14358 -2.23571 -0.392692 47
-1.13951 -2.23341 -0.56995 47
-2.87089 -5.6043 1.67561 15
-2.86865 -5.576 1.21103 18
-2.86836 -5.5564 0.762426 24
-1.2383 -1.62073 0.0349921 11
-1.16176 -2.24044 0.130447 44
-1.17791 -1.54125 -0.100163 15
-1.15934 -2.23385 -0.0433256 45
-1.17772 -1.53935 -0.233352 14
-1.16168 -2.2393 -0.217237 45
-1.15753 -2.23408 -0.393475 47
-1.1523 -2.22958 -0.570512 49
-2.86302 -5.5649 1.66527 14
-2.87276 -5.56008 1.20864 17
-2.86551 -5.52714 0.759079 21
-1.24569 -1.62452 0.035123 11
-1.16452 -2.23619 0.130317 44
-1.18516 -1.54513 -0.100557 15
-1.16554 -2.23626 -0.0434129 45
-1.18343 -1.54122 -0.233961 24
-1.16673 -2.23948 -0.217455 45
-1.15625 -1.5048 -0.36141 17
-1.1637 -2.23644 -0.394258 47
-1.15843 -2.23189 -0.571635 49
-2.88877 -5.54341 1.66333 14
-2.88706 -5.51668 1.20245 15
-2.8852 -5.49448 0.756646 21
-1.25265 -1.616 0.0350793 11
-1.17853 -2.23449 0.130578 44
-1.19017 -1.53496 -0.100295 14
-1.18072 -2.23677 -0.0435437 44
-1.18692 -1.52913 -0.233048 18
-1.18191 -2.23996 -0.218107 45
-1.15658 -1.48904 -0.359029 18
-1.17425 -2.22813 -0.393866 45
-1.17235 -2.23011 -0.572758 47
-2.88726 -5.51695 1.65687 14
-2.89554 -5.50946 1.20197 15
-2.92483 -5.54653 0.764556 23
-1.25854 -1.61775 0.0351666 11
-1.1836 -2.23463 0.130709 44
-1.19898 -1.54076 -0.10082 14
-1.18463 -2.2347 -0.0435437 44
-1.18653 -1.52314 -0.23244 15
-1.18814 -2.2423 -0.218542 45
-1.15918 -1.48702 -0.359029 18
-1.18159 -2.23264 -0.395041 45
-1.17738 -2.23022 -0.573319 47
-2.92175 -5.51243 1.6601 14
-3.03604 -5.70445 1.2482 14
-1.72738 -2.19656 0.241421 11
-3.03204 -5.67785 0.78494 15
-1.27627 -1.62293 0.0354284 11
-1.19998 -2.23722 0.131232 44
-1.21194 -1.54013 -0.101214 14
-1.19984 -2.23509 -0.0436746 45
-1.19603 -1.51886 -0.232744 14
-1.20143 -2.23803 -0.218759 47
-1.15934 -1.47129 -0.356648 18
-1.19559 -2.23077 -0.395824 45
-1.19018 -2.22618 -0.573881 45
-3.03901 -5.70994 1.72149 20
-3.03427 -5.6748 1.24296 15
-1.73121 -2.19354 0.241421 12
-3.02086 -5.63317 0.779464 15
-1.28093 -1.62243 0.035472 11
-1.20507 -2.23732 0.131363 44
-1.21463 -1.53801 -0.101214 14
-1.20374 -2.23299 -0.0436746 44
-1.20176 -1.52066 -0.233352 14
-1.20534 -2.23593 -0.218759 47
-1.15886 -1.46542 -0.355696 17
-1.20181 -2.23304 -0.396607 44
-1.19407 -2.2241 -0.573881 44
-3.04811 -5.65301 1.70921 14
-3.04177 -5.61781 1.2339 18
-3.05012 -5.61456 0.779159 35
-1.28941 -1.6157 0.035472 11
-1.21835 -2.23296 0.131494 44
-1.23357 -1.54528 -0.102132 14
-1.21819 -2.23083 -0.0437619 44
-1.21152 -1.51607 -0.233657 14
-1.21941 -2.23397 -0.219194 44
-1.15757 -1.44763 -0.352839 15
-1.21466 -2.22888 -0.396998 45
-1.21072 -2.22617 -0.576127 45
-3.04534 -5.62431 1.7021 24
-3.0586 -5.62544 1.23676 33
-3.06486 -5.62066 0.780681 35
-1.30318 -1.6271 0.0357774 11
-1.22424 -2.23543 0.131756 44
-1.23471 -1.54118 -0.102001 14
-1.22209 -2.2287 -0.0437619 44
-1.22011 -1.52191 -0.234873 14
-1.2245 -2.23402 -0.219412 44
-1.15548 -1.43987 -0.35141 15
-1.22091 -2.2311 -0.397781 44
-1.21538 -2.22641 -0.576689 45
-3.08073 -5.62153 1.70598 32
-3.09176 -5.61849 1.23867 36
-3.09066 -5.59802 0.779768 21
-1.31297 -1.62243 0.0358211 12
-1.23714 -2.23117 0.131887 44
-1.2535 -1.54848 -0.10292 14
-1.23698 -2.22905 -0.0438928 44
-1.22806 -1.5155 -0.234873 14
-1.2382 -2.23215 -0.219847 44
-1.15811 -1.42829 -0.349982 15
-1.23496 -2.229 -0.398564 44
-1.22937 -2.22428 -0.577812 45
-3.09402 -5.6225 1.70792 30
-3.09919 -5.60879 1.23772 21
-3.11124 -5.61216 0.782506 33
-1.32053 -1.62595 0.035952 12
-1.24224 -2.23119 0.132017 44
-1.25777 -1.54823 -0.103051 14
-1.24208 -2.22908 -0.0439364 44
-1.23697 -1.52105 -0.23609 14
-1.2445 -2.23435 -0.220282 44
-1.14975 -1.41295 -0.346649 15
-1.24244 -2.23332 -0.399739 44
-1.23561 -2.2264 -0.578935 44
-3.12459 -5.60833 1.70856 27
-3.13808 -5.60962 1.24153 32
-3.14664 -5.60661 0.784027 33
-1.32903 -1.61901 0.035952 12
-1.25635 -2.22901 0.132279 44
-1.27882 -1.55683 -0.104102 14
-1.25741 -2.22908 -0.0440673 44
-1.24492 -1.51455 -0.23609 14
-1.2578 -2.22975 -0.220499 44
-1.15713 -1.40691 -0.346649 15
-1.25532 -2.22894 -0.40013 44
-1.25082 -2.22628 -0.580619 45
-3.1438 -5.61974 1.71373 32
-3.15965 -5.62285 1.24582 32
-3.16129 -5.60976 0.785244 33
-1.34327 -1.62995 0.0362574 12
-1.26269 -2.23117 0.132541 44
-1.28789 -1.56229 -0.104627 14
-1.26252 -2.22906 -0.044111 44
-1.25388 -1.52003 -0.237307 14
-1.26291 -2.22972 -0.220716 44
-1.1549 -1.39921 -0.34522 14
-1.26164 -2.23105 -0.400914 44
-1.25708 -2.22834 -0.581742 45
-3.17772 -5.60895 1.71567 32
-3.19753 -5.62117 1.24915 33
-3.19897 -5.60551 0.78707 32
-1.35339 -1.62482 0.036301 12
-1.27722 -2.22864 0.132802 44
-1.30245 -1.5632 -0.105152 14
-1.27828 -2.22871 -0.0442418 44
-1.26845 -1.52084 -0.238524 14
-1.27827 -2.22957 -0.221369 44
-1.16245 -1.39295 -0.34522 14
-1.27575 -2.2287 -0.401697 44
-1.83798 -2.19806 -0.757846 11
-1.26912 -2.2215 -0.581742 45
-4.56213 -5.45264 1.63068 12
-3.19108 -5.6097 1.71761 32
-4.56291 -5.45548 1.11838 11
-3.21099 -5.62198 1.25058 33
-3.21269 -5.6091 0.788287 32
-1.36424 -1.63204 0.0365192 12
-1.28071 -2.22663 0.132802 44
-1.30838 -1.56475 -0.105414 14
-1.28217 -2.22648 -0.0442418 44
-1.27243 -1.52075 -0.238829 14
-1.2834 -2.22949 -0.221586 44
-1.16172 -1.38715 -0.344268 12
-1.28331 -2.2329 -0.402871 44
-1.84026 -2.193 -0.757199 11
-1.27744 -2.22797 -0.583988 45
-4.64096 -5.48819 1.64864 9
-3.22545 -5.60394 1.72084 30
-4.65838 -5.51071 1.13477 12
-3.24799 -5.62053 1.25392 32
-4.6569 -5.51089 0.628175 14
-3.2445 -5.5965 0.788895 30
-1.37571 -1.62893 0.0366064 12
-1.29486 -2.22421 0.133064 44
-1.31656 -1.55788 -0.105414 14
-1.29844 -2.22861 -0.0444164 44
-1.29 -1.52543 -0.240654 14
-1.29755 -2.22705 -0.222021 44
-1.16714 -1.37938 -0.343792 14
-1.29499 -2.22615 -0.402871 44
-1.86383 -2.19839 -0.762372 9
-1.29031 -2.22336 -0.58455 44
-4.68522 -5.52094 1.661 12
-3.24488 -5.61504 1.72601 29
-4.67598 -5.51198 1.13672 12
-3.25508 -5.60792 1.25249 32
-4.67134 -5.50845 0.628829 14
-3.23681 -5.56079 0.784636 26
-1.38854 -1.63772 0.0368682 12
-1.30125 -2.22626 0.133326 44
-1.33059 -1.5689 -0.106333 14
-1.30484 -2.23066 -0.0445036 44
-1.29748 -1.52884 -0.241567 14
-1.3052 -2.23124 -0.222674 44
-1.1616 -1.368 -0.341411 14
-1.30259 -2.23029 -0.404046 44
-1.86962 -2.19665 -0.763019 8
-1.29785 -2.22743 -0.586235 44
-4.71026 -5.48996 1.65931 11
-3.2813 -5.60783 1.72924 29
-4.70895 -5.49035 1.1375 14
-3.28688 -5.59503 1.25344 12
-4.68973 -5.46986 0.627303 12
-3.27944 -5.56458 0.787678 2
-1.40198 -1.63612 0.0369991 12
-1.31708 -2.22564 0.133718 44
-1.33878 -1.56191 -0.106333 14
-1.31816 -2.22572 -0.0445473 42
-1.31544 -1.53309 -0.243392 14
-1.31939 -2.22867 -0.223109 44
-1.16738 -1.35983 -0.340935 14
-1.31425 -2.22344 -0.404046 44
-1.88897 -2.19598 -0.766252 9
-1.31112 -2.22247 -0.586796 44
-4.72683 -5.49179 1.66212 11
-3.28131 -5.58543 1.72407 8
