# .PCD v0.7 - Point Cloud Data file format
VERSION 0.7
FIELDS x y z intensity
SIZE 4 4 4 4
TYPE F F F F
COUNT 1 1 1 1
WIDTH 1590
HEIGHT 1
VIEWPOINT 0 0 0 1 0 0 0
POINTS 1590
DATA ascii
-1.34912 -2.22777 -0.68801 52
-0.863276 -2.24471 -0.546366 52
-3.32846 -5.44704 1.46334 14
-2.1409 -5.53755 1.57932 14
-3.39328 -5.55523 1.02317 9
-2.14426 -5.5177 1.14287 15
-2.16214 -5.54097 0.725005 17
-1.35307 -2.21674 0.0447218 45
-0.880789 -2.24478 0.12456 45
-1.36224 -2.23086 -0.135608 47
-0.881712 -2.24485 -0.0414931 47
-1.35653 -2.21893 -0.314584 47
-0.881809 -2.24622 -0.207669 49
-1.36057 -2.22379 -0.499022 47
-0.880421 -2.24605 -0.377031 49
-1.36203 -2.22273 -0.688657 53
-0.877173 -2.24455 -0.547489 49
-3.32299 -5.41896 1.45716 12
-2.14707 -5.5248 1.57674 14
-3.39006 -5.52825 1.01927 12
-2.17972 -5.58026 1.15669 15
-3.40494 -5.55466 0.566948 11
-2.21069 -5.63655 0.738087 23
-1.36217 -2.2229 0.0448963 47
-0.886528 -2.24789 0.124821 45
-1.36743 -2.23061 -0.135739 47
-0.887456 -2.24796 -0.0415804 49
-1.3656 -2.22502 -0.315801 47
-0.885728 -2.24468 -0.207669 47
-1.36702 -2.22559 -0.499974 47
-0.884339 -2.24451 -0.377031 49
-1.37097 -2.22858 -0.691243 53
-0.881975 -2.24529 -0.548051 47
-3.33042 -5.36572 1.44762 12
-2.19631 -5.56517 1.5916 14
-3.40984 -5.49574 1.01653 12
-2.23871 -5.64408 1.17242 23
-3.34731 -5.39708 0.552567 1
-2.23743 -5.61798 0.737174 30
-1.37774 -2.2221 0.0450272 47
-0.899209 -2.24553 0.124952 45
-1.37817 -2.22105 -0.135608 47
-0.901065 -2.24792 -0.0416676 49
-1.37854 -2.21994 -0.316106 45
-0.90247 -2.25142 -0.208756 50
-1.38125 -2.22257 -0.500926 47
-0.898817 -2.24673 -0.378206 49
-1.3839 -2.22342 -0.69189 53
-0.893719 -2.24064 -0.548051 47
-3.31529 -5.32062 1.43695 12
-2.23268 -5.62869 1.61099 15
-3.42335 -5.49607 1.0177 14
-2.24138 -5.61925 1.16813 20
-3.41598 -5.48636 0.562372 12
-2.24263 -5.60254 0.735653 27
-1.38333 -2.22158 0.0450708 47
-0.904982 -2.2486 0.125214 45
-1.38336 -2.22076 -0.135739 47
-0.905916 -2.24867 -0.0417112 47
-1.38504 -2.22175 -0.316714 47
-0.905472 -2.24753 -0.208539 49
-1.38642 -2.22224 -0.501403 45
-0.903654 -2.24745 -0.378597 49
-1.39201 -2.2269 -0.69383 53
-0.89853 -2.24134 -0.548612 47
-3.32973 -5.27994 1.43077 12
-2.2577 -5.60309 1.60711 15
-3.47411 -5.51088 1.02395 12
-2.26433 -5.59151 1.1648 18
-3.43499 -5.45094 0.560629 12
-2.26358 -5.56733 0.732611 26
-1.39628 -2.21642 0.0451145 47
-0.916195 -2.24135 0.125083 45
-1.40163 -2.22405 -0.136395 47
-0.919011 -2.24605 -0.0417549 47
-1.40102 -2.22051 -0.317627 47
-0.918166 -2.24506 -0.208756 47
-1.39843 -2.21471 -0.501403 45
-0.917266 -2.24727 -0.37938 47
-1.40365 -2.21958 -0.69383 53
-0.913386 -2.24322 -0.550297 49
-3.31326 -5.2356 1.4201 12
-2.26114 -5.58346 1.60259 15
-3.49861 -5.53046 1.02863 12
-2.26947 -5.57618 1.16241 18
-3.51243 -5.55226 0.571742 12
-2.27045 -5.55917 0.732002 27
-1.40817 -2.22665 0.0453763 47
-0.923489 -2.24916 0.125606 45
-1.40685 -2.22371 -0.136527 47
-0.921984 -2.24213 -0.0417112 47
-1.40583 -2.22041 -0.317931 47
-0.923967 -2.24807 -0.209191 49
-1.40755 -2.22055 -0.503307 47
-0.921187 -2.24566 -0.37938 47
-1.414 -2.22731 -0.697063 53
-0.918744 -2.24629 -0.55142 52
-3.31829 -5.18331 1.41056 12
-2.28571 -5.56301 1.6 15
-3.53418 -5.52246 1.03058 12
-2.29393 -5.55554 1.16051 18
-3.53914 -5.53232 0.571524 11
-2.29478 -5.53575 0.730481 29
-1.41942 -2.21949 0.0453763 47
-0.934298 -2.24199 0.125475 45
-1.42078 -2.22076 -0.136789 47
-0.935236 -2.24205 -0.0417985 47
-1.4228 -2.22137 -0.319148 47
-0.936288 -2.24566 -0.209409 47
-1.42142 -2.21753 -0.50426 45
-0.934429 -2.24554 -0.380163 49
-1.42917 -2.22622 -0.699003 52
-0.931423 -2.2437 -0.551981 52
-3.3093 -5.15145 1.40326 12
-2.28806 -5.54115 1.59483 15
-3.55486 -5.5356 1.03409 11
-2.29705 -5.53566 1.15717 18
-3.5461 -5.52194 0.571088 11
-2.29967 -5.52297 0.729264 30
-1.42599 -2.22122 0.0454635 47
-0.939737 -2.24512 0.125737 45
-1.42735 -2.22248 -0.137052 47
-0.942033 -2.24734 -0.0419294 45
-1.42897 -2.2233 -0.319757 45
-0.941164 -2.24632 -0.209626 47
-1.42529 -2.21505 -0.50426 45
-0.937399 -2.24162 -0.379772 49
-1.43306 -2.22373 -0.699003 52
-0.935879 -2.24449 -0.552543 47
-3.31233 -5.09729 1.39315 12
-2.31514 -5.52727 1.59419 15
-3.56899 -5.49414 1.0298 9
-2.32219 -5.51717 1.15574 15
-3.58486 -5.52063 0.572831 11
-2.32952 -5.51314 0.729568 23
-1.43994 -2.21816 0.0455508 49
-0.953422 -2.24477 0.125999 45
-1.4413 -2.21941 -0.137314 47
-0.952422 -2.24024 -0.0418858 47
-1.44059 -2.21579 -0.319757 45
-0.95543 -2.24841 -0.210279 49
-1.4405 -2.21397 -0.505688 44
-0.952003 -2.24351 -0.380946 49
-1.44825 -2.22251 -0.700943 52
-0.949508 -2.24405 -0.553666 49
-3.30303 -5.06555 1.38585 11
-2.32385 -5.52099 1.59354 14
-3.58398 -5.49617 1.03136 9
-2.35758 -5.57416 1.16861 14
-3.58088 -5.4935 0.570652 11
-2.3856 -5.61873 0.744172 29
-1.44654 -2.21983 0.045638 47
-0.958314 -2.2454 0.12613 47
-1.45063 -2.22526 -0.137839 47
-0.958286 -2.24317 -0.041973 45
-1.44989 -2.22158 -0.320973 47
-0.959353 -2.24674 -0.210279 47
-1.44705 -2.21556 -0.50664 44
-0.958809 -2.24866 -0.382121 47
-1.45742 -2.22806 -0.703529 52
-0.954372 -2.24463 -0.554227 50
-3.31697 -5.02728 1.38023 9
-2.37923 -5.57096 1.61163 12
-3.6127 -5.47733 1.03136 8
-2.40991 -5.61588 1.18005 18
-3.63839 -5.51834 0.575228 8
-2.41499 -5.60617 0.744172 29
-1.4609 -2.2164 0.0457253 47
-0.972033 -2.24494 0.126391 45
-1.46501 -2.2218 -0.138102 45
-0.971997 -2.24272 -0.0420603 45
-1.46287 -2.21603 -0.321278 47
-0.973074 -2.24626 -0.210714 49
-1.4654 -2.21819 -0.509021 45
-0.97057 -2.24361 -0.382121 47
-1.47173 -2.22443 -0.704822 53
-0.967072 -2.24184 -0.554789 50
-3.30872 -4.99769 1.3735 4
-2.41177 -5.62008 1.62714 14
-3.68635 -5.56778 1.0497 9
-2.41874 -5.60942 1.17957 20
-3.68789 -5.5722 0.581547 11
-2.42083 -5.59283 0.742955 27
-1.46752 -2.21802 0.0458126 45
-0.976941 -2.24553 0.126522 47
-1.47303 -2.22548 -0.138496 45
-0.976903 -2.24331 -0.0421039 45
-1.47222 -2.22175 -0.322495 45
-0.977983 -2.24685 -0.210931 47
-1.47063 -2.21768 -0.509497 45
-0.976444 -2.24645 -0.382904 47
-1.47963 -2.22789 -0.706762 52
-0.971947 -2.24239 -0.55535 50
-2.44212 -5.60959 1.62779 15
-3.72782 -5.56686 1.05322 9
-2.44612 -5.59218 1.17862 17
-3.71979 -5.55695 0.581982 11
-2.4461 -5.57099 0.741738 26
-1.4819 -2.21445 0.0458998 45
-0.989689 -2.24267 0.126653 45
-1.48466 -2.21774 -0.138496 45
-0.990647 -2.24274 -0.0421912 45
-1.48522 -2.21607 -0.322799 45
-0.991737 -2.24626 -0.211366 50
-1.48769 -2.2181 -0.511402 45
-0.990177 -2.24583 -0.383687 47
-1.49262 -2.22211 -0.707409 52
-0.986604 -2.24396 -0.557035 49
-2.44805 -5.59646 1.6252 14
-3.7334 -5.5542 1.05204 9
-2.45292 -5.58115 1.17719 17
-3.73087 -5.55252 0.5822 11
-2.44982 -5.55308 0.739912 23
-1.48855 -2.21601 0.0459871 45
-0.995616 -2.24551 0.126915 45
-1.49271 -2.22136 -0.13889 47
-0.996579 -2.24558 -0.0422784 45
-1.49324 -2.21965 -0.323712 45
-0.998672 -2.25136 -0.212018 49
-1.49568 -2.2216 -0.512831 45
-0.99509 -2.24635 -0.384078 47
-1.50055 -2.22551 -0.709349 52
-0.991498 -2.24447 -0.557597 50
-2.47341 -5.57474 1.62262 14
-3.75549 -5.52437 1.05009 8
-2.47712 -5.55702 1.1748 15
-3.74729 -5.51437 0.580239 11
-2.47178 -5.52432 0.737783 23
-1.50435 -2.21439 0.046118 47
-1.00736 -2.24027 0.126915 45
-1.50853 -2.2197 -0.139283 45
-1.00832 -2.24033 -0.0422784 45
-1.50763 -2.2159 -0.32432 45
-1.01146 -2.24837 -0.212236 49
-1.50729 -2.21374 -0.512831 45
-1.00785 -2.24337 -0.38447 47
-1.51218 -2.21762 -0.709349 52
-1.00324 -2.23925 -0.557597 49
-2.48313 -5.57041 1.62262 14
-3.76234 -5.51372 1.04931 4
-2.4788 -5.53477 1.17099 15
-3.74287 -5.48725 0.57806 9
-2.48548 -5.52905 0.739 26
-1.51103 -2.21589 0.0462052 45
-1.01229 -2.24078 0.127046 45
-1.51804 -2.22531 -0.139809 45
-1.01531 -2.24541 -0.0424093 45
-1.5129 -2.21531 -0.324624 44
-1.01436 -2.24433 -0.212018 47
-1.51531 -2.21718 -0.514259 45
-1.01277 -2.24386 -0.384861 49
-1.52151 -2.22295 -0.711935 50
-1.00913 -2.24194 -0.55872 49
-2.50529 -5.53928 1.61745 14
-3.77527 -5.46891 1.04463 8
-2.5077 -5.51904 1.17052 18
-3.76826 -5.46077 0.577407 9
-2.52666 -5.54037 0.742346 24
-1.52868 -2.21591 0.0463798 45
-1.02647 -2.23982 0.127307 45
-1.53147 -2.21912 -0.13994 45
-1.02952 -2.24443 -0.0424966 47
-1.53051 -2.21526 -0.325841 45
-1.03063 -2.24787 -0.212888 45
-1.53147 -2.215 -0.515688 45
-1.02694 -2.24284 -0.385644 47
-1.53764 -2.22064 -0.713875 50
-1.02326 -2.24088 -0.559843 50
-2.50697 -5.51731 1.61228 14
-3.81717 -5.50899 1.05361 8
-2.53564 -5.55485 1.17909 15
-3.81751 -5.5115 0.583508 9
-2.57554 -5.62171 0.753907 32
-1.53255 -2.21324 0.0463798 45
-1.0335 -2.24483 0.1277 45
-1.53819 -2.22055 -0.140202 45
-1.03343 -2.24263 -0.0424966 47
-1.53862 -2.2187 -0.326754 44
-1.03455 -2.24607 -0.212888 45
-1.53953 -2.21838 -0.517116 45
-1.03188 -2.24329 -0.386036 47
-1.54427 -2.22192 -0.715168 50
-1.02717 -2.23909 -0.559843 49
-2.54894 -5.53263 1.62068 14
-3.88707 -5.54756 1.06492 9
-2.59453 -5.60611 1.19292 18
-3.87347 -5.53019 0.587648 11
-2.60598 -5.61039 0.754212 27
-1.54842 -2.21132 0.0465107 44
-1.04419 -2.23712 0.127569 45
-1.55123 -2.21451 -0.140334 44
-1.04727 -2.24172 -0.0425839 45
-1.04839 -2.24514 -0.213323 50
-1.55395 -2.2143 -0.518068 45
-1.0453 -2.24252 -0.386819 45
-1.55866 -2.21775 -0.716462 52
-1.03991 -2.23589 -0.560404 50
-2.57581 -5.56545 1.63167 14
-3.90004 -5.54751 1.06609 9
-2.61361 -5.62161 1.1972 18
-3.88311 -5.52342 0.587648 11
-2.60327 -5.58155 0.750865 18
-1.55659 -2.21475 0.0466416 45
-1.04981 -2.24001 0.127831 44
-1.55796 -2.21588 -0.140596 44
-1.05224 -2.24216 -0.0426275 47
-1.05442 -2.24782 -0.213758 49
-1.56064 -2.2156 -0.519021 47
-1.0513 -2.24516 -0.387602 45
-1.56393 -2.217 -0.717108 52
-1.04547 -2.23868 -0.561527 49
-3.35765 -4.72186 1.32745 3
-2.62646 -5.60046 1.64588 14
-3.92331 -5.51896 1.06453 9
-2.62741 -5.57722 1.19053 15
-3.90958 -5.50167 0.58743 11
-2.61128 -5.52296 0.74478 15
-1.57068 -2.21092 0.0467288 45
-1.06473 -2.24125 0.128223 44
-1.06571 -2.24132 -0.0427148 45
-1.06511 -2.24002 -0.21354 45
-1.57326 -2.20967 -0.519497 45
-1.0641 -2.24186 -0.387993 47
-1.58214 -2.21888 -0.720341 50
-1.05822 -2.23538 -0.562089 49
-3.37862 -4.73384 1.3325 4
-2.62288 -5.56745 1.63748 14
-3.92863 -5.50608 1.06336 8
-2.62134 -5.53666 1.18291 14
-3.91194 -5.4847 0.58634 9
-2.61773 -5.51167 0.743867 20
-1.06971 -2.24164 0.128354 45
-1.07177 -2.24397 -0.042802 47
-1.07115 -2.24266 -0.213975 45
-1.58425 -2.2169 -0.521878 45
-1.07118 -2.24669 -0.389168 47
-1.5864 -2.21584 -0.720341 50
-1.0642 -2.23793 -0.563212 49
-3.44555 -4.77276 1.34879 9
-2.64049 -5.52702 1.62973 14
-3.94102 -5.46072 1.05868 4
-2.64499 -5.51179 1.18052 15
-3.92407 -5.43922 0.583726 11
-2.65074 -5.50413 0.74478 23
-1.08398 -2.24032 0.128616 44
-1.08715 -2.2449 -0.0429329 47
-1.08504 -2.2415 -0.21441 45
-1.084 -2.24328 -0.38956 49
-1.60365 -2.21533 -0.722928 50
-1.0784 -2.23653 -0.564335 49
-3.47735 -4.80088 1.35833 11
-2.65222 -5.52676 1.63102 14
-2.65354 -5.50496 1.18005 15
-2.65722 -5.49549 0.744172 23
-1.08642 -2.23637 0.128485 44
-1.09106 -2.24299 -0.0429329 47
-1.09221 -2.24633 -0.215063 47
-1.08791 -2.24138 -0.38956 49
-1.61035 -2.21643 -0.724221 50
-1.08191 -2.23484 -0.564335 49
-3.34406 -4.56644 1.29657 2
-2.67067 -5.49371 1.6252 14
-2.68567 -5.50028 1.18195 15
-2.68923 -5.48819 0.745084 26
-1.10141 -2.23738 0.128877 44
-1.1013 -2.2352 -0.0428893 45
-1.10505 -2.24282 -0.21528 47
-1.10398 -2.24453 -0.391126 47
-1.62727 -2.21603 -0.726808 50
-1.09574 -2.23352 -0.565458 49
-3.31738 -4.5135 1.28309 2
-2.68872 -5.50641 1.63037 15
-2.69623 -5.49511 1.18195 17
-2.6999 -5.48572 0.745389 24
-1.10751 -2.23993 0.129139 44
-1.16465 -1.5855 -0.101607 12
-1.10851 -2.24 -0.0430202 45
-1.11226 -2.24759 -0.215932 49
-1.10898 -2.24481 -0.391517 47
-1.63439 -2.21679 -0.728101 49
-1.09963 -2.2316 -0.565458 49
-3.31558 -4.4603 1.27298 3
-2.71954 -5.49395 1.63102 14
-3.31704 -4.46386 0.873322 1
-2.73587 -5.5029 1.18672 18
-3.28506 -4.42244 0.478921 8
-2.74281 -5.49768 0.74904 21
-1.22627 -1.6517 0.0352975 11
-1.12073 -2.23614 0.12927 44
-1.16548 -1.56936 -0.100951 14
-1.12285 -2.23844 -0.0431074 45
-1.12624 -2.24619 -0.216367 49
-1.11962 -2.23677 -0.391126 47
-1.64886 -2.21207 -0.729394 49
-1.11386 -2.22998 -0.566581 49
-3.30947 -4.43751 1.26793 4
-2.74093 -5.51299 1.63813 15
-3.31076 -4.44083 0.86981 1
-2.75532 -5.51789 1.19101 18
-3.29426 -4.41869 0.479139 3
-2.76698 -5.52444 0.753299 20
-1.2157 -1.63152 0.0349048 11
-1.12536 -2.23661 0.129401 44
-1.16822 -1.56732 -0.100951 14
-1.13012 -2.24318 -0.0432383 47
-1.13128 -2.24645 -0.216585 49
-1.16773 -1.56384 -0.371886 12
-1.12684 -2.24143 -0.3923 49
-1.65417 -2.21113 -0.730041 50
-1.11736 -2.22823 -0.566581 49
-2.78181 -5.52494 1.64588 14
-2.7998 -5.53674 1.19816 15
-2.84744 -5.61171 0.767294 33
-1.13931 -2.23514 0.129662 44
-1.1734 -1.5572 -0.100688 15
-1.14485 -2.24412 -0.0433692 47
-1.14302 -2.24049 -0.216585 49
-1.16675 -1.54616 -0.369029 14
-1.13967 -2.2377 -0.392692 47
-1.67117 -2.21043 -0.732627 49
-1.13231 -2.22887 -0.568266 49
-2.81757 -5.57182 1.66139 14
-2.85815 -5.62547 1.21865 21
-2.8516 -5.59567 0.765773 26
-1.14661 -2.23982 0.130055 44
-1.17311 -1.55117 -0.100426 15
-1.14649 -2.23767 -0.043282 45
-1.15033 -2.24515 -0.217237 49
-1.16351 -1.5363 -0.367124 14
-1.14246 -2.23351 -0.3923 47
-1.13951 -2.23341 -0.56995 47
-2.87077 -5.60165 1.67496 15
-2.87299 -5.58205 1.21246 18
-2.86836 -5.5564 0.762426 24
-1.23554 -1.61655 0.0349048 11
-1.15986 -2.2358 0.130186 44
-1.17969 -1.54302 -0.100295 15
-1.16203 -2.23809 -0.0434129 45
-1.15864 -2.23246 -0.216585 45
-1.16434 -1.52024 -0.364743 15
-1.15527 -2.22969 -0.392692 47
-1.1523 -2.22958 -0.570512 47
-2.86288 -5.56226 1.66462 14
-2.87373 -5.55958 1.20864 17
-2.86665 -5.52935 0.759384 21
-1.24293 -1.62034 0.0350357 11
-1.16682 -2.24063 0.130578 44
-1.18543 -1.54492 -0.100557 15
-1.16784 -2.2407 -0.0435001 45
-1.16558 -2.23727 -0.217237 47
-1.15924 -1.50869 -0.362362 15
-1.16256 -2.23425 -0.393866 45
-1.15954 -2.23406 -0.572196 47
-2.88892 -5.54606 1.66398 14
-2.88723 -5.51936 1.20292 15
-2.88654 -5.49938 0.757254 21
-1.2539 -1.61819 0.035123 11
-1.17814 -2.23469 0.130578 44
-1.19143 -1.53714 -0.100426 14
-1.18149 -2.23919 -0.0435874 44
-1.18208 -1.52346 -0.232135 15
-1.18152 -2.24016 -0.218107 45
-1.15933 -1.49311 -0.359981 17
-1.17501 -2.23053 -0.394258 45
-1.17084 -2.22816 -0.572196 47
-2.8863 -5.51746 1.65687 14
-2.89116 -5.50345 1.20054 15
-2.91578 -5.53167 0.762426 21
-1.25672 -1.616 0.035123 11
-1.18437 -2.23705 0.13084 44
-1.19718 -1.539 -0.100688 14
-1.18657 -2.23933 -0.043631 44
-1.18627 -1.52335 -0.23244 15
-1.18775 -2.2425 -0.218542 47
-1.15892 -1.48722 -0.359029 18
-1.18005 -2.23066 -0.394649 45
-1.17699 -2.23043 -0.573319 47
-2.92531 -5.52148 1.66268 14
-3.03274 -5.70065 1.24725 14
-1.72392 -2.19295 0.240986 12
-3.03105 -5.67838 0.78494 15
-1.27289 -1.61922 0.0353411 11
-1.19842 -2.23522 0.131102 44
-1.21295 -1.54251 -0.101345 14
-1.19945 -2.23529 -0.0436746 45
-1.1973 -1.52101 -0.233048 14
-1.20065 -2.23845 -0.218759 47
-1.15453 -1.46572 -0.35522 17
-1.1952 -2.23098 -0.395824 45
-1.1898 -2.22638 -0.573881 45
-3.04141 -5.71687 1.72343 20
-3.03345 -5.67802 1.24343 15
-1.73237 -2.1958 0.241639 12
-3.01403 -5.62276 0.777942 15
-1.28192 -1.62484 0.0355156 11
-1.20586 -2.23973 0.131494 44
-1.21873 -1.54431 -0.101607 14
-1.20453 -2.2354 -0.0437183 44
-1.19995 -1.51892 -0.233048 14
-1.20809 -2.24294 -0.219412 47
-1.15556 -1.46177 -0.354744 17
-1.20025 -2.23107 -0.396215 44
-1.19597 -2.2286 -0.575004 45
-3.05415 -5.66896 1.71373 14
-3.04448 -5.62751 1.23581 18
-3.04697 -5.61345 0.778855 33
-1.29353 -1.62201 0.0356029 11
-1.21876 -2.23558 0.131625 44
-1.23175 -1.54354 -0.102001 14
-1.21622 -2.22906 -0.0437183 44
-1.20944 -1.51456 -0.233352 14
-1.21902 -2.23418 -0.219194 44
-1.154 -1.44421 -0.351887 15
-1.21545 -2.23127 -0.39739 45
-1.20763 -2.22231 -0.575004 45
-3.04453 -5.62749 1.70275 23
-3.05527 -5.62166 1.23581 33
-3.06151 -5.61684 0.780072 35
-1.29977 -1.62343 0.0356902 11
-1.22385 -2.23564 0.131756 44
-1.23444 -1.54139 -0.102001 14
-1.22131 -2.22913 -0.0437619 45
-1.21829 -1.52018 -0.234569 14
-1.2253 -2.23642 -0.219629 44
-1.1519 -1.43645 -0.350458 15
-1.22052 -2.23131 -0.397781 45
-1.21616 -2.22876 -0.57725 45
-3.08073 -5.62153 1.70598 32
-3.08939 -5.61419 1.23772 35
-3.08946 -5.59584 0.779464 21
-1.3114 -1.62048 0.0357774 12
-1.23714 -2.23117 0.131887 44
-1.2535 -1.54848 -0.10292 14
-1.23819 -2.23124 -0.0439364 44
-1.22963 -1.51742 -0.235178 14
-1.2382 -2.23215 -0.219847 44
-1.15657 -1.42639 -0.349506 15
-1.23496 -2.229 -0.398564 44
-1.23054 -2.22642 -0.578373 45
-3.09053 -5.61615 1.70598 30
-3.098 -5.60664 1.23724 21
-3.11124 -5.61216 0.782506 33
-1.32053 -1.62595 0.035952 12
-1.24103 -2.22901 0.131887 44
-1.26092 -1.5521 -0.103314 14
-1.24329 -2.23126 -0.0439801 44
-1.23071 -1.51335 -0.234873 14
-1.2433 -2.23217 -0.220064 44
-1.1544 -1.41866 -0.348077 15
-1.24244 -2.23332 -0.399739 44
-1.23443 -2.22427 -0.578373 45
-3.12459 -5.60833 1.70856 26
-3.14167 -5.61605 1.24296 32
-3.14664 -5.60661 0.784027 33
-1.33379 -1.62481 0.0360828 12
-1.2539 -2.22466 0.132017 44
-1.27379 -1.55126 -0.103708 14
-1.25741 -2.22908 -0.0440673 44
-1.24808 -1.51838 -0.236699 14
-1.25863 -2.23214 -0.220716 44
-1.16337 -1.41449 -0.348553 14
-1.25532 -2.22894 -0.40013 44
-1.24963 -2.22415 -0.580058 45
-3.14144 -5.61552 1.71244 32
-3.15627 -5.61912 1.24486 32
-3.16129 -5.60976 0.785244 32
-1.33821 -1.6244 0.0361265 12
-1.26024 -2.22682 0.132279 44
-1.28285 -1.55674 -0.104233 14
-1.26252 -2.22906 -0.044111 44
-1.2523 -1.51811 -0.237003 14
-1.2613 -2.22777 -0.220499 44
-1.1549 -1.39921 -0.34522 14
-1.26285 -2.2332 -0.401305 44
-1.25708 -2.22834 -0.581742 45
-3.17912 -5.61371 1.71697 32
-3.19413 -5.61746 1.2482 33
-3.19553 -5.60176 0.786461 32
-1.3531 -1.62505 0.036301 12
-1.27435 -2.22452 0.132541 44
-1.29898 -1.55959 -0.104889 14
-1.27665 -2.22676 -0.0441982 44
-1.26342 -1.51535 -0.237612 14
-1.27912 -2.23195 -0.221586 44
-1.16063 -1.39127 -0.344744 14
-1.27575 -2.2287 -0.401697 44
-1.84379 -2.20579 -0.760432 11
-1.26994 -2.22384 -0.582304 44
-4.55336 -5.44409 1.62787 11
-3.1913 -5.61236 1.71826 32
-4.56766 -5.46116 1.11955 11
-3.21122 -5.62467 1.25106 33
-3.21023 -5.60479 0.787678 30
-1.36235 -1.63036 0.0364755 12
-1.2832 -2.23096 0.133064 44
-1.30811 -1.56498 -0.105414 14
-1.28427 -2.23104 -0.0443291 44
-1.27562 -1.52455 -0.239437 14
-1.28301 -2.22972 -0.221586 44
-1.1599 -1.38548 -0.343792 12
-1.28086 -2.22861 -0.402088 44
-1.84609 -2.20072 -0.759786 11
-1.27503 -2.22374 -0.582865 45
-4.62837 -5.47331 1.64415 9
-3.22665 -5.60604 1.72149 30
-4.65997 -5.51259 1.13516 12
-3.24553 -5.61628 1.25297 32
-4.65368 -5.50709 0.627739 14
-3.24575 -5.59864 0.789199 32
-1.38217 -1.63656 0.0367809 12
-1.29736 -2.22853 0.133326 45
-1.31817 -1.55978 -0.105546 14
-1.29593 -2.22428 -0.0443291 44
-1.2884 -1.52353 -0.24035 14
-1.29755 -2.22705 -0.222021 44
-1.16714 -1.37938 -0.343792 14
-1.29746 -2.23042 -0.403654 44
-1.8654 -2.20023 -0.763019 9
-1.29031 -2.22336 -0.58455 45
-4.67891 -5.51351 1.65875 11
-3.24488 -5.61504 1.72601 29
-4.67598 -5.51198 1.13672 12
-3.26123 -5.61853 1.25487 32
-4.67295 -5.51035 0.629047 14
-3.25801 -5.59726 0.789808 26
-1.38854 -1.63772 0.0368682 12
-1.30251 -2.22842 0.133457 42
-1.32412 -1.56129 -0.105808 14
-1.30359 -2.2285 -0.04446 44
-1.3007 -1.53263 -0.242175 14
-1.3052 -2.23124 -0.222674 44
-1.16001 -1.36613 -0.340935 14
-1.30135 -2.22815 -0.403654 44
-1.87275 -2.20032 -0.764312 8
-1.29663 -2.22532 -0.585673 44
-4.71185 -5.49181 1.65987 12
-3.28252 -5.60992 1.72989 29
-4.70573 -5.4866 1.13672 14
-3.29185 -5.6035 1.25535 14
-4.69621 -5.47742 0.628175 14
-3.27944 -5.56458 0.787678 2
-1.40035 -1.63422 0.0369555 12
-1.31581 -2.22349 0.133588 44
-1.33878 -1.56191 -0.106333 14
-1.31816 -2.22572 -0.0445473 42
-1.31382 -1.53121 -0.243088 14
-1.31686 -2.22438 -0.222674 44
-1.16578 -1.35797 -0.340459 14
-1.31425 -2.22344 -0.404046 44
-1.88582 -2.19232 -0.764959 9
-1.31235 -2.22457 -0.587358 45
-4.72206 -5.48625 1.66044 11
-3.28498 -5.59168 1.72601 8
-4.71595 -5.48108 1.13711 12
-3.30785 -5.60832 1.25773 1
-4.69602 -5.45789 0.626868 12
-3.23392 -5.46754 0.774596 1
-1.4081 -1.63746 0.0370864 12
-1.32439 -2.23002 0.134111 45
-1.35128 -1.57092 -0.107121 14
-1.32459 -2.22771 -0.0446345 42
-1.32756 -1.5423 -0.245218 14
-1.32455 -2.2285 -0.223326 44
-1.16174 -1.3485 -0.338554 12
-1.32316 -2.22964 -0.405612 44
-1.88964 -2.18902 -0.764959 9
-1.31585 -2.22251 -0.587358 44
-4.74432 -5.4541 1.65819 11
-3.29475 -5.54383 1.71632 1
-4.74297 -5.45445 1.13672 11
-3.3387 -5.59572 1.25869 1
-4.72685 -5.43781 0.627303 12
-3.29687 -5.50805 0.78281 1
-1.42293 -1.63785 0.0372609 12
-1.33348 -2.21877 0.133849 41
-1.36113 -1.56571 -0.107252 15
-1.33842 -2.22527 -0.0447218 42
-1.33725 -1.5372 -0.245522 14
-1.34004 -2.22795 -0.223978 42
-1.17016 -1.34445 -0.33903 14
-1.33608 -2.2248 -0.406003 44
-1.90387 -2.18307 -0.766252 11
-1.33121 -2.22186 -0.589042 44
-4.76025 -5.45315 1.66044 9
-3.3106 -5.54844 1.71955 2
-4.7606 -5.45546 1.13867 11
-3.34062 -5.57456 1.25535 2
-4.73797 -5.43143 0.627521 12
-3.2835 -5.46398 0.777334 2
-1.42936 -1.63888 0.0373481 12
-1.34507 -2.22928 0.134634 44
-1.3655 -1.56521 -0.107383 14
-1.34488 -2.22721 -0.0448091 42
-1.3481 -1.54421 -0.247043 14
-1.34906 -2.23414 -0.224848 42
-1.34377 -2.22882 -0.407178 44
-1.90647 -2.17759 -0.765605 11
-1.33634 -2.22163 -0.589604 44
-4.79129 -5.42914 1.661 9
-3.33933 -5.52838 1.7189 14
-4.79332 -5.43333 1.13945 9
-3.38374 -5.58008 1.26059 2
-4.78706 -5.42813 0.630136 8
-3.3903 -5.57339 0.795588 11
-1.43958 -1.63325 0.0373918 12
-1.35841 -2.2241 0.134765 42
-1.38194 -1.56739 -0.10804 14
-1.35951 -2.22418 -0.0448963 42
-1.35972 -1.54061 -0.247652 14
-1.35944 -2.22492 -0.224631 42
-1.35671 -2.22386 -0.407569 42
-1.91945 -2.16939 -0.766252 12
-1.3496 -2.21645 -0.590165 44
-4.79981 -5.42161 1.661 4
-3.32771 -5.48742 1.70792 14
-4.81658 -5.44243 1.14297 4
-3.40112 -5.58675 1.26345 11
-4.82955 -5.45706 0.634494 8
-3.38484 -5.54475 0.792242 12
-1.44242 -1.63073 0.0373918 12
-1.3671 -2.23049 0.135288 42
-1.38799 -1.56872 -0.108302 14
-1.366 -2.22607 -0.0449836 42
-1.37366 -1.55147 -0.249781 14
-1.36592 -2.2268 -0.225066 42
-1.36316 -2.22571 -0.408352 42
-1.92163 -2.16423 -0.765605 11
-1.35561 -2.21849 -0.591288 44
-4.88013 -5.45449 1.67897 3
-3.33653 -5.43961 1.69823 12
-4.93886 -5.52203 1.16521 8
-3.41522 -5.54647 1.25821 11
-4.9202 -5.50309 0.642774 9
-3.40732 -5.51639 0.79072 12
-1.45399 -1.62714 0.037479 12
-1.37614 -2.21905 0.135027 38
-1.39757 -1.56353 -0.108434 14
-1.37856 -2.22125 -0.0450272 42
-1.38673 -1.5498 -0.250694 14
-1.38241 -2.22833 -0.225935 42
-1.37739 -2.22274 -0.409135 42
-1.93901 -2.16166 -0.768192 11
-1.36977 -2.21551 -0.592411 44
-4.97658 -5.5447 1.70929 12
-3.32578 -5.40086 1.68789 11
-4.98314 -5.55199 1.1734 9
-3.40943 -5.51544 1.25249 12
-4.98136 -5.55195 0.649528 11
-3.40257 -5.48723 0.787374 14
-1.46685 -1.63576 0.0377408 12
-1.38527 -2.22513 0.13555 39
-1.40864 -1.57038 -0.10909 14
-1.38507 -2.22309 -0.0451145 41
-1.38944 -1.54738 -0.250694 14
-1.38499 -2.2238 -0.225718 42
-1.38516 -2.22663 -0.41031 42
-1.94763 -2.16366 -0.770132 9
-1.37875 -2.2214 -0.594657 45
-5.01305 -5.52491 1.71154 11
-3.33488 -5.35262 1.67819 11
-5.02043 -5.53496 1.17536 11
-3.44086 -5.50167 1.25344 12
-5.01706 -5.53317 0.6504 11
-3.43126 -5.46934 0.787374 12
-1.47204 -1.62435 0.0376536 12
-1.40221 -2.22631 0.136073 39
-1.42047 -1.56643 -0.109353 14
-1.40068 -2.22216 -0.0452454 41
-1.40253 -1.54559 -0.251607 14
-1.40362 -2.22682 -0.226805 42
-1.39812 -2.22144 -0.410701 42
-1.96056 -2.15522 -0.770778 8
-1.39166 -2.21622 -0.595219 44
-5.03581 -5.53056 1.71603 12
-3.32631 -5.31811 1.66915 11
-5.04339 -5.5408 1.17848 9
-3.5153 -5.59694 1.2768 11
-5.03677 -5.53545 0.651707 11
-3.51344 -5.57888 0.804107 12
-1.47852 -1.62522 0.0377408 12
-1.40875 -2.22809 0.136335 36
-1.42321 -1.56395 -0.109353 14
-1.41122 -2.23028 -0.0454635 41
-1.41149 -2.23068 -0.227458 42
-1.40988 -2.23154 -0.413051 42
-1.97284 -2.16036 -0.774011 3
-1.39941 -2.21998 -0.596904 42
-5.08216 -5.52115 1.72164 9
-3.33052 -5.26124 1.65687 11
-5.09503 -5.53705 1.18355 11
-3.54456 -5.57846 1.2768 11
-5.08856 -5.53194 0.65454 11
-3.54224 -5.55769 0.803803 12
-1.49716 -1.62849 0.0380026 12
-1.42347 -2.22464 0.136597 33
-1.44152 -1.56749 -0.11014 14
-1.42326 -2.22261 -0.0454635 41
-1.42315 -2.22326 -0.227458 42
-1.42022 -2.22204 -0.412659 42
-1.98904 -2.15532 -0.775951 2
-1.41401 -2.21649 -0.598027 44
-5.10736 -5.53106 1.72726 9
-3.32288 -5.22891 1.64847 11
-5.10875 -5.53448 1.18472 11
-3.54638 -5.55984 1.27394 9
-5.10835 -5.53403 0.655847 12
-3.54563 -5.54376 0.802586 9
-1.5 -1.62587 0.0380026 12
-1.42965 -2.22661 0.136859 30
-1.44426 -1.56498 -0.11014 14
-1.43253 -2.22855 -0.045638 42
-1.43374 -2.23126 -0.228545 42
-1.42676 -2.22372 -0.413442 42
-2.00101 -2.1607 -0.779185 2
-1.42011 -2.21837 -0.59915 44
-5.16285 -5.53273 1.73624 9
-3.32714 -5.17747 1.63748 11
-5.16124 -5.53293 1.19018 11
-3.57182 -5.53769 1.27298 9
-5.15668 -5.52996 0.658462 12
-3.57191 -5.52095 0.801977 9
-1.51674 -1.6274 0.0382208 12
-1.44265 -2.22119 0.136989 29
-1.46095 -1.56652 -0.110797 14
-1.44108 -2.21707 -0.0455508 41
-1.44405 -2.22164 -0.228327 42
-1.43704 -2.21415 -0.413051 42
-2.02512 -2.16465 -0.784357 2
-1.43303 -2.21295 -0.599711 44
-5.18249 -5.53438 1.73961 11
-3.31656 -5.1412 1.62779 11
-5.18102 -5.53473 1.19253 9
-3.57711 -5.52258 1.27108 8
-5.17483 -5.53004 0.659551 4
-3.57074 -5.49805 0.799543 9
-1.51645 -1.62084 0.0381335 12
-1.44924 -2.22285 0.137251 26
-1.45515 -1.55485 -0.11014 14
-1.45448 -2.22922 -0.0458562 42
-1.45335 -2.22747 -0.229197 42
-1.44762 -2.22199 -0.415008 42
-2.03424 -2.16604 -0.786297 2
-1.44218 -2.21863 -0.601957 44
-5.19393 -5.4868 1.73343 1
-3.31927 -5.08473 1.61551 11
-5.29068 -5.5909 1.21087 1
-3.59255 -5.48324 1.26631 4
-5.1927 -5.4893 0.658026 9
-3.59812 -5.4772 0.799239 8
-1.46125 -2.21498 0.137251 23
-1.46652 -2.22132 -0.0458562 42
-1.4691 -2.22607 -0.22985 42
-1.46059 -2.21645 -0.4154 42
-2.05719 -2.16761 -0.790824 2
-1.45378 -2.21104 -0.601957 42
-5.21764 -5.49453 1.73849 8
-3.3136 -5.0567 1.6084 11
-5.21783 -5.49664 1.19213 9
-3.61289 -5.49337 1.27012 4
-5.18931 -5.46849 0.656501 11
-3.68272 -5.58491 0.815972 8
-1.4661 -2.21477 0.137382 20
-1.47138 -2.2211 -0.0458998 42
-1.47396 -2.22584 -0.230067 42
-1.46582 -2.21595 -0.415791 42
-1.46031 -2.21258 -0.60308 42
-5.23021 -5.45224 1.73343 9
-3.31829 -5.01023 1.59871 11
-5.22507 -5.44877 1.18745 11
-3.70483 -5.5738 1.293 8
-3.70544 -5.55793 0.814755 9
-1.48006 -2.21147 0.137644 18
-1.48677 -2.21986 -0.0460307 41
-1.48798 -2.22249 -0.230502 42
-1.48112 -2.21467 -0.416966 42
-1.47959 -2.21733 -0.606449 44
-3.30834 -4.97626 1.58966 11
-3.72407 -5.58162 1.29634 4
-3.7179 -5.55558 0.815364 9
-1.4867 -2.21304 0.137905 15
-1.49064 -2.21727 -0.0460307 42
-1.49324 -2.22196 -0.230719 42
-1.18023 -1.22546 -0.323317 14
-1.48635 -2.21414 -0.417357 41
-1.48616 -2.2188 -0.607573 44
-3.31232 -4.9242 1.57868 11
-3.74324 -5.54511 1.29252 8
-3.73678 -5.51894 0.81293 9
-1.50285 -2.21116 0.138298 15
-1.50682 -2.21538 -0.0461616 41
-1.50803 -2.21797 -0.231154 42
-1.18513 -1.2173 -0.32284 12
-1.50108 -2.21015 -0.41814 42
-1.50087 -2.21476 -0.608696 44
-3.30472 -4.89438 1.57092 12
-3.75154 -5.53654 1.29205 4
-3.74362 -5.5083 0.812321 8
-1.5067 -2.20854 0.138298 14
-1.51209 -2.21481 -0.0462052 41
-1.5133 -2.2174 -0.231372 41
-1.18553 -1.21347 -0.322364 9
-1.5091 -2.21366 -0.419315 41
-1.50473 -2.21214 -0.608696 41
-3.19313 -3.23665 1.03995 2
-3.30853 -4.84508 1.56058 12
-3.20459 -3.24937 0.715671 2
-3.77909 -5.51479 1.29157 4
-3.2295 -3.27574 0.399391 4
-3.75276 -5.45998 0.808062 8
-2.14449 -2.1751 0.0527063 38
-1.52107 -2.20473 0.138559 14
-1.52933 -2.2151 -0.0463798 41
-1.52771 -2.21355 -0.231807 41
-1.19705 -1.21248 -0.323793 9
-1.52486 -2.21183 -0.420489 41
-1.52042 -2.21026 -0.61038 42
-3.2205 -3.25413 1.04725 3
-3.30335 -4.81937 1.55412 12
-3.2259 -3.25957 0.719183 8
-3.7776 -5.49201 1.28776 4
-3.20367 -3.23824 0.395469 12
-3.79325 -5.49838 0.814755 8
-2.16939 -2.19267 0.0532298 39
-1.53201 -2.21235 0.139214 14
-1.5344 -2.21498 -0.232242 41
-1.19571 -1.20691 -0.32284 8
-1.53432 -2.2173 -0.422055 41
-1.52566 -2.20961 -0.610942 42
-3.24323 -3.24183 1.04893 3
-3.30655 -4.77023 1.54378 12
-3.24991 -3.24961 0.720744 8
-3.8469 -5.53061 1.30158 4
-3.23644 -3.23727 0.39743 9
-3.85461 -5.52528 0.821753 9
-2.18792 -2.18835 0.0534044 39
-1.54214 -2.20225 0.139083 12
-1.55025 -2.21304 -0.232894 41
-1.20201 -1.20063 -0.32284 8
-1.55015 -2.21531 -0.42323 41
-1.54277 -2.20959 -0.613188 42
-3.29972 -4.74263 1.53667 12
-3.88462 -5.56415 1.31111 9
-3.87846 -5.53888 0.824795 9
-2.19705 -2.18982 0.0535353 39
-1.55314 -2.20978 0.139737 12
-1.55697 -2.21441 -0.233329 41
-1.20933 -1.20372 -0.324269 8
-1.55401 -2.2126 -0.42323 41
-1.55081 -2.21289 -0.614872 44
-3.30091 -4.69169 1.52569 12
-3.90945 -5.53772 1.30968 9
-3.90741 -5.51849 0.824795 9
-2.2156 -2.1853 0.0537098 38
-1.56325 -2.19958 0.139606 11
-1.55736 -1.53451 -0.263776 15
-1.21561 -1.19737 -0.324269 8
-1.57128 -2.2125 -0.424796 41
-1.5694 -2.21469 -0.61768 45
-5.49742 -5.4005 1.76825 12
-3.29518 -4.66618 1.51923 12
-5.49458 -5.3977 1.21165 12
-3.9177 -5.52888 1.3092 8
-5.4907 -5.39576 0.670446 14
-3.90842 -5.49952 0.82297 8
-2.22833 -2.19019 0.0539279 38
-1.56998 -2.20092 0.139868 11
-1.56535 -1.537 -0.264689 15
-1.21244 -1.1901 -0.32284 4
-1.57185 -2.20996 -0.617118 42
-5.61392 -5.45555 1.79633 11
-3.30695 -4.63117 1.51341 12
-5.60777 -5.45146 1.23038 11
-3.93802 -5.49632 1.30634 8
-5.61709 -5.46241 0.682429 12
-3.92704 -5.46487 0.82084 8
-2.24515 -2.18372 0.0540588 38
-1.58294 -2.19469 0.139999 9
-1.16823 -1.61639 -0.0342067 11
-1.57694 -1.53224 -0.265298 15
-1.22042 -1.18544 -0.323317 4
-1.59334 -2.21556 -0.621049 44
-5.64699 -5.47045 1.80419 12
-3.29114 -4.592 1.50243 11
-5.65098 -5.4743 1.23779 12
-3.93616 -5.47349 1.30253 4
-5.52466 -5.35383 0.67001 1
-2.25793 -2.18849 0.054277 38
-1.59261 -2.20003 0.140522 9
-1.16374 -1.60421 -0.0339886 12
-1.58318 -1.53293 -0.265906 14
-1.22072 -1.1816 -0.32284 4
-1.59862 -2.21475 -0.621611 44
-5.69585 -5.45836 1.81036 12
-3.30098 -4.55514 1.49596 11
-5.6867 -5.45147 1.23935 12
-5.67487 -5.44202 0.684826 14
-2.27838 -2.18528 0.0544951 38
-1.61146 -2.20175 0.141176 8
-1.17359 -1.60011 -0.0340322 12
-1.59119 -1.52462 -0.265906 15
-1.23398 -1.18198 -0.324745 4
-1.61449 -2.21226 -0.623295 44
-5.6948 -5.43832 1.80699 12
-3.299 -4.53569 1.49144 4
-5.69977 -5.44495 1.24013 12
-5.68796 -5.43555 0.685262 14
-2.29162 -2.18954 0.0547133 36
-1.61825 -2.20296 0.141438 4
-1.17343 -1.59403 -0.0339449 12
-1.60103 -1.52869 -0.267123 14
-1.23249 -1.17644 -0.323793 8
-1.62266 -2.21534 -0.62498 44
-5.73831 -5.4208 1.81149 12
-3.30777 -4.49636 1.48433 4
-5.72915 -5.41403 1.24013 12
-5.72453 -5.41154 0.686134 14
-3.29297 -4.44699 0.674196 1
-2.3085 -2.18266 0.0548442 36
-1.62717 -2.19016 0.141176 3
-1.18204 -1.58766 -0.0339449 14
-1.2442 -1.1748 -0.325221 9
-1.15778 -1.55769 -0.302251 12
-1.63462 -2.20653 -0.62498 44
-5.7415 -5.40678 1.8098 11
-3.29412 -4.46142 1.47464 2
-5.73225 -5.39995 1.23896 12
-5.72671 -5.39471 0.685262 12
-3.29699 -4.43782 0.673588 1
-2.31777 -2.18376 0.0549751 36
-1.64103 -2.20163 0.142092 2
-1.18182 -1.58158 -0.0338577 14
-1.25519 -1.18103 -0.327602 8
-1.1605 -1.55567 -0.302251 14
-2.27367 -2.13482 -0.825742 11
-1.64534 -2.21375 -0.627787 44
-5.77864 -5.38494 1.81261 9
-3.30511 -4.42919 1.46947 3
-5.78032 -5.38838 1.24325 9
-5.78673 -5.39622 0.689184 9
-2.34159 -2.18393 0.0552805 36
-1.65404 -2.195 0.142223 2
-1.19282 -1.57958 -0.0339449 14
-1.25935 -1.17299 -0.327126 9
-1.16715 -1.54759 -0.30186 14
-2.27029 -2.11014 -0.820569 8
-1.6569 -2.20511 -0.627787 44
-5.87099 -5.45377 1.839 8
-3.28681 -4.3886 1.45784 14
-5.87838 -5.46062 1.26238 11
-5.8892 -5.47256 0.700296 11
-2.34906 -2.18325 0.0553678 36
-1.66237 -2.19809 0.142615 2
-1.19557 -1.57749 -0.0339449 14
-1.2632 -1.17246 -0.327602 9
-1.16688 -1.54161 -0.301077 15
-2.26865 -2.10125 -0.818629 8
-1.66514 -2.20805 -0.629472 42
-5.92015 -5.44005 1.84518 9
-3.29664 -4.35399 1.45202 12
-5.92508 -5.44647 1.26628 9
-5.91044 -5.43491 0.699425 11
-2.3715 -2.18106 0.0556295 36
-1.68294 -2.20128 0.143401 2
-1.20533 -1.5732 -0.0339886 14
-1.27113 -1.16749 -0.328078 9
-1.17643 -1.53744 -0.301468 15
-2.27784 -2.08771 -0.817982 8
-1.68257 -2.20706 -0.631718 42
-5.93228 -5.43404 1.8463 9
-3.2911 -4.33091 1.44621 14
-5.92547 -5.42778 1.26433 9
-5.91992 -5.42458 0.699425 11
-2.38452 -2.18536 0.0558477 36
-1.21111 -1.57506 -0.0340758 14
-1.2786 -1.17023 -0.329507 11
-1.17911 -1.53539 -0.301468 14
-2.28505 -2.08699 -0.819275 8
-5.95798 -5.39859 1.84518 9
-5.94649 -5.39005 1.26277 9
-5.93163 -5.37846 0.697464 11
-2.40334 -2.17956 0.0560222 36
-0.600524 -0.545628 -0.0408267 9
-1.22546 -1.57661 -0.0342503 14
-2.40593 -2.17886 -0.393687 36
-1.28107 -1.16023 -0.328554 11
-1.19015 -1.5331 -0.302251 14
-2.29415 -2.07338 -0.818629 4
-5.97101 -5.39145 1.8463 9
-5.94489 -5.36973 1.26042 9
-5.94471 -5.37144 0.6979 9
-2.4168 -2.18332 0.0562404 36
-0.594061 -0.537889 -0.0403016 9
-1.22668 -1.57249 -0.0342067 14
-2.4171 -2.1813 -0.394904 36
-1.28674 -1.16128 -0.329507 11
-1.19131 -1.52907 -0.30186 14
-2.29992 -2.07058 -0.819275 4
-5.99464 -5.35419 1.84462 8
-2.43379 -2.17563 0.0563713 35
-0.59687 -0.534771 -0.0403016 8
-1.24597 -1.5796 -0.0345121 14
-2.43813 -2.17645 -0.396425 36
-1.28934 -1.15104 -0.328554 11
-1.20235 -1.5267 -0.302643 14
-2.31253 -2.06012 -0.819922 8
-1.73467 -2.21312 0.743135 9
-2.44506 -2.17802 0.0565458 35
-0.595937 -0.532069 -0.0401703 9
-1.25337 -1.58331 -0.034643 14
-2.4434 -2.17427 -0.396729 36
-1.30052 -1.15693 -0.330935 9
-1.20806 -1.52848 -0.303426 14
-2.3089 -2.04967 -0.817335 8
-6.47703 -5.70613 1.98163 2
-1.75782 -2.21948 0.748305 8
-6.55733 -5.78088 0.761741 3
-2.46918 -2.17719 0.0568512 35
-0.598622 -0.529046 -0.0401703 8
-1.26448 -1.58086 -0.0347303 14
-2.47152 -2.17619 -0.399467 36
-1.30083 -1.14547 -0.329507 9
-1.21912 -1.526 -0.304209 14
-2.32832 -2.04592 -0.820569 8
-6.41642 -5.63487 1.96029 3
-6.34032 -5.56805 1.32793 2
-6.6011 -5.79901 0.765663 3
-2.47861 -2.17782 0.0569821 35
-1.27504 -1.58841 -0.0349484 14
-2.47904 -2.17515 -0.400076 36
-1.3139 -1.1529 -0.332364 9
-1.23102 -1.53545 -0.306558 14
-2.32462 -2.0355 -0.817982 8
-6.46337 -5.61445 1.96535 3
-6.36379 -5.52991 1.32676 2
-6.60317 -5.73986 0.762395 3
-2.49753 -2.17137 0.0571566 35
-1.28805 -1.58755 -0.0350793 14
-2.50539 -2.17515 -0.40251 36
-1.31436 -1.14119 -0.330935 9
-1.23439 -1.52322 -0.305383 14
-2.33889 -2.02646 -0.819275 8
-6.42061 -5.55965 1.94962 3
-6.39397 -5.53658 1.33105 2
-6.61318 -5.72833 0.762395 3
-2.51076 -2.17519 0.0573748 33
-0.588113 -0.510733 -0.0391201 9
-1.29396 -1.58918 -0.0351666 14
-2.51482 -2.17564 -0.403423 36
-1.32192 -1.1437 -0.332364 9
-1.24637 -1.53258 -0.307732 12
-2.3406 -2.02079 -0.818629 9
-6.47095 -5.54225 1.9558 2
-6.45101 -5.52712 1.33691 1
-6.61093 -5.66608 0.758691 3
-2.53199 -2.1697 0.0575929 35
-0.592765 -0.509167 -0.0392514 8
-1.30413 -1.58409 -0.0352102 14
-2.53749 -2.17212 -0.405248 35
-1.33182 -1.13972 -0.333316 9
-1.2575 -1.52985 -0.308515 12
-2.35885 -2.01437 -0.821215 9
-6.49729 -5.54518 1.96085 2
-6.49542 -5.54357 1.34393 3
-6.57444 -5.61295 0.753244 2
-2.54566 -2.17295 0.0578111 33
-0.595641 -0.509648 -0.0393827 8
-1.31828 -1.5951 -0.0355156 14
-2.54921 -2.17368 -0.406465 35
-1.34335 -1.14512 -0.335697 9
-1.27297 -1.5427 -0.311648 12
-2.36087 -2.00827 -0.820569 9
-6.57665 -5.54578 1.97489 8
-6.53479 -5.51244 1.34549 1
-6.54765 -5.52522 0.746489 2
-2.57113 -2.16997 0.0581165 35
-0.592752 -0.501486 -0.0389889 9
-1.32557 -1.58579 -0.035472 14
-2.57118 -2.16695 -0.407986 36
-1.34973 -1.1376 -0.335697 11
-1.28342 -1.53724 -0.312039 12
-2.37944 -2.00127 -0.823155 9
-1.17485 -1.40951 -0.414969 4
-6.62265 -5.56679 1.98612 12
-6.57276 -5.52485 1.35135 1
-6.56872 -5.52339 0.747796 2
-4.55593 -5.46069 0.867693 12
-2.57683 -2.16709 0.0581601 35
-0.591714 -0.498845 -0.0388576 9
-1.33474 -1.59115 -0.0356465 14
-2.58256 -2.16884 -0.409203 35
-1.35359 -1.13682 -0.336173 11
-1.294 -1.54448 -0.313997 12
-2.37738 -1.99247 -0.821215 8
-1.17575 -1.40559 -0.414407 4
-6.69577 -5.56669 1.99904 14
-6.66616 -5.54404 1.36461 11
-4.59474 -5.46439 1.37974 11
-6.67797 -5.55581 0.756948 12
-4.64999 -5.51459 0.880167 11
-2.60544 -2.16795 0.0585528 35
-1.835 -2.16863 0.147064 9
-0.592398 -0.494144 -0.0387263 9
-1.34628 -1.58796 -0.0357338 14
-2.60724 -2.16639 -0.411333 35
-1.36708 -1.13598 -0.338078 11
-1.30499 -1.54169 -0.31478 14
-2.39336 -1.98461 -0.823155 8
-1.17683 -1.39195 -0.412161 8
-6.71201 -5.56238 2.00128 15
-6.69007 -5.54616 1.36774 14
-4.65171 -5.51267 1.39404 9
-6.68574 -5.54256 0.75673 14
-4.66345 -5.51296 0.88108 12
-2.62077 -2.17297 0.0588146 35
-1.85292 -2.1829 0.148242 4
-0.599028 -0.497887 -0.0391201 9
-1.35228 -1.58942 -0.0358211 14
-2.62211 -2.17178 -0.413158 35
-1.36339 -1.1289 -0.336649 12
-1.31564 -1.54884 -0.316737 14
-2.39495 -1.97889 -0.822508 8
-1.17273 -1.38265 -0.409915 8
-6.65625 -5.45767 1.97601 12
-6.70565 -5.5001 1.365 14
-4.7066 -5.52082 1.40214 11
-6.69638 -5.49443 0.754769 14
-4.69064 -5.48658 0.880776 12
-2.63753 -2.16443 0.0589455 35
-1.86594 -2.17506 0.148372 4
-0.597679 -0.491683 -0.0388576 9
-1.37331 -1.59775 -0.0361701 14
-2.64305 -2.16588 -0.414679 35
-1.37668 -1.1282 -0.338554 11
-1.32988 -1.54967 -0.318303 14
-2.40307 -1.96522 -0.821862 8
-1.16889 -1.36352 -0.405984 9
-6.61766 -5.40867 1.96198 11
-6.64927 -5.43643 1.35174 12
-4.70985 -5.50513 1.40023 11
-6.69053 -5.47013 0.753026 12
-4.69925 -5.47921 0.880776 12
-2.65679 -2.17248 0.0592945 33
-1.86773 -2.17023 0.148242 3
-0.604337 -0.495377 -0.0392514 9
-1.37935 -1.59914 -0.0362574 14
-2.65991 -2.17271 -0.416809 35
-1.32874 -1.54073 -0.174616 12
-1.38055 -1.12735 -0.33903 12
-1.33258 -1.54735 -0.318303 14
-2.4065 -1.96102 -0.821862 8
-1.16786 -1.35798 -0.404861 9
-6.63262 -5.36323 1.95805 9
-6.63349 -5.36582 1.34276 12
-4.73766 -5.48122 1.40023 9
-6.67553 -5.40174 0.748232 12
-4.72625 -5.45265 0.880471 11
-2.67358 -2.16372 0.0594254 33
-0.602953 -0.489173 -0.0389889 9
-1.39234 -1.59781 -0.0363883 14
-2.67897 -2.16499 -0.418026 36
-1.34631 -1.54527 -0.175921 14
-1.39006 -1.12343 -0.339982 11
-1.3501 -1.55178 -0.320653 14
-2.41827 -1.95033 -0.822508 8
-1.16699 -1.34263 -0.402054 9
-6.63535 -5.34822 1.95636 9
-6.62652 -5.343 1.33964 12
-4.74882 -5.4748 1.40071 8
-6.65586 -5.36663 0.744964 14
-4.73807 -5.44897 0.88108 11
-2.68709 -2.16689 0.0596436 33
-0.597973 -0.483422 -0.038595 9
-1.39841 -1.59914 -0.0364755 14
-2.69396 -2.17011 -0.419852 35
-1.35391 -1.54855 -0.176573 14
-1.39202 -1.121 -0.339982 12
-1.35604 -1.55315 -0.321436 14
-2.4292 -1.95216 -0.825095 8
-1.15314 -1.32239 -0.396438 9
-6.6785 -5.32555 1.96085 9
-6.65634 -5.30977 1.34003 12
-4.77809 -5.45254 1.40119 8
-6.65568 -5.31113 0.741913 14
-4.76817 -5.42595 0.881384 9
-2.7117 -2.16417 0.059949 33
-0.602365 -0.481945 -0.0387263 9
-1.40814 -1.59392 -0.0365192 14
-2.715 -2.16371 -0.421373 35
-1.39191 -1.10936 -0.338554 12
-1.36714 -1.54998 -0.322219 14
-1.15523 -1.31084 -0.394754 4
-6.71928 -5.34082 1.9704 9
-6.6956 -5.32389 1.34627 12
-4.7876 -5.44419 1.40119 8
-6.68249 -5.31345 0.743874 12
-4.79472 -5.43894 0.884731 4
-2.72526 -2.16721 0.0601672 33
-0.603205 -0.480893 -0.0387263 9
-1.41588 -1.59709 -0.0366501 14
-2.72811 -2.16715 -0.422894 35
-1.37311 -1.55129 -0.323002 14
-1.14924 -1.29987 -0.391946 3
-6.79312 -5.34169 1.98388 8
-3.30743 -3.73362 1.32537 2
-6.74862 -5.30861 1.35135 12
-4.83952 -5.44743 1.40834 4
-6.77585 -5.33192 0.751283 11
-4.88746 -5.48606 0.896596 4
-2.74602 -2.16111 0.0603853 35
-0.605631 -0.477834 -0.0387263 9
-1.4306 -1.59736 -0.0368246 14
-2.76089 -2.16969 -0.426241 32
-1.13824 -1.2738 -0.385769 4
-6.97025 -5.46324 2.03329 9
-3.27387 -3.68268 1.30921 3
-6.92893 -5.43084 1.38569 11
-4.93388 -5.53429 1.43312 8
-4.95983 -5.54786 0.908157 11
-2.76159 -2.16557 0.0606471 33
-0.606464 -0.476776 -0.0387263 9
-1.43672 -1.59859 -0.0369118 14
-2.76858 -2.16793 -0.426849 15
-1.13397 -1.26454 -0.383523 3
-3.3044 -3.67807 1.31373 4
-4.98741 -5.53574 1.44027 11
-5.00211 -5.53655 0.910591 9
-2.78474 -2.16027 0.0609089 33
-0.612982 -0.476545 -0.0389889 9
-1.4501 -1.59661 -0.0370427 14
-1.14058 -1.25859 -0.383523 4
-3.28497 -3.64357 1.30339 4
-5.01613 -5.54619 1.44551 11
-5.02509 -5.54253 0.913025 9
-2.79482 -2.1595 0.0610398 35
-0.605907 -0.469373 -0.0384638 9
-1.45456 -1.59592 -0.0370864 14
-1.14277 -1.2566 -0.383523 4
-3.28513 -3.60431 1.29564 4
-2.86664 -2.19109 0.564654 3
-5.0633 -5.53979 1.45075 11
-2.85098 -2.1799 0.310928 9
-5.06673 -5.52807 0.915155 9
-2.82794 -2.16152 0.0615197 44
-0.612326 -0.469224 -0.0387263 9
-1.46993 -1.5954 -0.0372609 14
-1.1512 -1.25219 -0.384085 3
-2.84381 -2.16582 0.815899 9
-3.28165 -3.58787 1.29176 8
-2.84257 -2.16564 0.559191 9
-5.08456 -5.54361 1.45409 11
-2.83892 -2.16286 0.309185 11
-5.09387 -5.54021 0.918501 9
-2.83171 -2.15658 0.0615197 38
-0.603209 -0.460597 -0.0380699 8
-1.47441 -1.59467 -0.0373045 14
-1.1581 -1.25577 -0.385769 4
-2.86289 -2.15676 0.818145 9
-2.85387 -2.15073 0.559191 11
-5.13423 -5.54122 1.46028 9
-2.84188 -2.14246 0.308313 14
-5.13125 -5.52256 0.920023 9
-2.85058 -2.14824 0.0616943 24
-0.605612 -0.457433 -0.0380699 9
-1.48757 -1.59268 -0.0374354 14
-1.1597 -1.24433 -0.384085 12
-2.8686 -2.15322 0.818707 8
-2.86552 -2.15167 0.560752 15
-5.15655 -5.54394 1.46362 9
-2.85756 -2.14647 0.309621 18
-5.16286 -5.5372 0.923978 9
-2.8427 -2.13376 0.0614325 11
-0.602414 -0.45338 -0.0378074 9
-1.49546 -1.59556 -0.0375663 14
-1.16021 -1.24052 -0.383523 12
-2.88608 -2.14202 0.820391 2
-2.89497 -2.14938 0.564264 1
-5.19726 -5.52939 1.46696 8
-2.89113 -2.14731 0.312018 1
-5.18424 -5.50015 0.922457 1
-2.88394 -2.14119 0.0620869 2
-0.602775 -0.448732 -0.0376761 9
-1.50236 -1.58563 -0.0375227 14
-1.15522 -1.2218 -0.379592 14
-2.89728 -2.14328 0.822637 2
-2.87488 -2.12671 0.559582 2
-5.20354 -5.51674 1.466 1
-2.87285 -2.12597 0.309621 2
-5.20065 -5.49831 0.923673 11
-2.88165 -2.1317 0.061956 2
-0.609581 -0.45213 -0.0380699 9
-1.51371 -1.59208 -0.0377408 14
-0.869276 -0.641942 -0.279989 44
-1.15568 -1.21801 -0.379031 14
-2.89703 -2.11895 0.819268 2
-2.88997 -2.11454 0.560362 2
-5.2222 -5.47875 1.46314 8
-2.9141 -2.13295 0.312889 2
-5.20881 -5.44947 0.920023 8
-2.92909 -2.14313 0.0627414 1
-0.609924 -0.447459 -0.0379387 9
-1.52376 -1.58594 -0.0377845 14
-0.871176 -0.637694 -0.128085 41
-0.864132 -0.632097 -0.200942 41
-0.872625 -0.637382 -0.279989 42
-1.15532 -1.20489 -0.376785 14
-2.94899 -2.14979 0.0630904 18
-0.61474 -0.449333 -0.0382012 9
-1.52479 -1.58147 -0.0377408 14
-0.87017 -0.634865 -0.127781 41
-0.857292 -0.624816 -0.199037 41
-0.873737 -0.635858 -0.279989 42
-1.15048 -1.19603 -0.374539 14
-2.9862 -2.15384 0.0636576 21
-0.608981 -0.440273 -0.0376761 8
-1.538 -1.57912 -0.0378717 14
-0.865426 -0.624503 -0.126564 41
-0.858451 -0.619036 -0.198561 41
-0.867136 -0.624385 -0.276756 41
-1.15334 -1.18648 -0.373416 14
-3.00454 -2.1583 0.0639631 20
-0.609749 -0.439209 -0.0376761 9
-1.54598 -1.58181 -0.0380026 14
-0.864498 -0.621545 -0.12626 41
-0.857535 -0.616107 -0.198085 41
-0.866368 -0.621314 -0.276109 42
-1.15371 -1.18272 -0.372854 14
-3.20535 -3.25835 0.556151 3
-3.02191 -2.14688 0.064094 18
-0.605932 -0.431676 -0.0372823 9
-1.55627 -1.5752 -0.0380462 14
-0.865824 -0.615424 -0.125955 41
-1.51901 -1.53785 -0.185706 15
-0.858854 -0.61004 -0.197609 41
-0.865667 -0.61398 -0.274816 42
-1.15668 -1.17298 -0.371731 14
-3.08672 -2.18482 0.863629 2
-3.20213 -3.26406 1.21422 2
-3.09179 -2.1892 0.593141 3
-3.21114 -3.26191 0.882176 1
-3.07126 -2.17466 0.32618 9
-3.21395 -3.25685 0.55676 9
-3.0481 -2.15748 0.0645739 27
-0.604646 -0.429177 -0.037151 9
-1.56253 -1.57604 -0.0381335 14
-0.864763 -0.612631 -0.125651 42
-1.52519 -1.53874 -0.186141 15
-0.855907 -0.60571 -0.196656 42
-1.53036 -1.54609 -0.339445 14
-0.866737 -0.612468 -0.274816 42
-1.15511 -1.16769 -0.370608 14
-3.10211 -2.17142 0.864752 8
-3.21861 -3.24781 1.21422 1
-3.0931 -2.16591 0.59119 9
-3.19303 -3.21078 0.872644 1
-3.08018 -2.15766 0.325962 11
-3.24671 -3.25581 0.559498 8
-3.06923 -2.14919 0.0647921 29
-0.602793 -0.423144 -0.0368885 9
-1.57578 -1.57342 -0.0382644 14
-0.86389 -0.605253 -0.125043 42
-1.53674 -1.53426 -0.186576 15
-0.858961 -0.60137 -0.196656 41
-1.53843 -1.53806 -0.339445 14
-0.869826 -0.608074 -0.274816 42
-1.16292 -1.16335 -0.37117 14
-3.08191 -2.14929 0.858014 9
-3.24299 -3.26104 1.22133 4
-3.09485 -2.15909 0.590799 9
-3.07782 -2.14801 0.325309 12
-3.0713 -2.14186 0.0647484 12
-0.605579 -0.423518 -0.0370197 9
-1.57852 -1.57067 -0.0382644 14
-0.864945 -0.603744 -0.125043 42
-1.54294 -1.53509 -0.187011 15
-0.85598 -0.597067 -0.195704 42
-1.54635 -1.54061 -0.34062 14
-0.86504 -0.602271 -0.272876 42
-1.15979 -1.15615 -0.369485 14
-3.09751 -2.13535 0.859137 8
-3.10445 -2.14092 0.590409 8
-3.09349 -2.13415 0.325745 12
-3.09893 -2.1371 0.0650975 11
-0.607788 -0.420341 -0.0370197 9
-0.864007 -0.596393 -0.124434 42
-1.5545 -1.5305 -0.187446 15
-0.86122 -0.593818 -0.19618 42
-1.55966 -1.53771 -0.341794 14
-0.862209 -0.593633 -0.270936 42
-1.16064 -1.14491 -0.3678 14
-3.11291 -2.13875 0.862506 2
-3.1017 -2.13184 0.589239 2
-3.10711 -2.13634 0.326834 2
-5.48732 -5.41204 0.940711 12
-3.10678 -2.13452 0.0651847 1
-0.608521 -0.41928 -0.0370197 9
-0.85686 -0.589271 -0.123217 41
-1.56045 -1.53155 -0.187881 15
-0.858103 -0.58969 -0.195228 41
-1.57288 -1.54539 -0.344144 14
-0.867127 -0.595005 -0.27223 42
-1.16264 -1.14288 -0.3678 14
-3.12369 -2.12297 0.862506 2
-5.49778 -5.40145 2.05299 11
-3.11654 -2.11889 0.590019 2
-3.12612 -2.12618 0.327706 3
-5.54658 -5.41542 0.946187 12
-3.12338 -2.12352 0.0653156 2
-0.616832 -0.420401 -0.0374136 9
-0.859832 -0.584926 -0.123217 42
-1.57201 -1.52684 -0.188316 15
-0.859045 -0.583962 -0.194752 42
-1.57186 -1.52878 -0.342186 12
-0.868127 -0.589255 -0.271583 42
-1.16841 -1.13698 -0.3678 15
-3.14354 -2.12844 0.866998 2
-5.53134 -5.41552 2.06204 11
-3.13864 -2.1259 0.593531 2
-3.13601 -2.12491 0.328359 4
-5.63779 -5.48538 0.960182 14
-3.14194 -2.12733 0.065621 11
-0.613429 -0.416527 -0.037151 9
-0.858796 -0.582035 -0.122913 42
-1.57646 -1.52583 -0.188533 15
-0.860063 -0.582462 -0.194752 42
-1.56921 -1.52087 -0.341011 11
-0.865252 -0.584888 -0.27029 42
-1.17388 -1.13834 -0.368923 15
-3.15906 -2.11411 0.868121 3
-5.66112 -5.48302 2.09952 8
-3.16856 -2.12125 0.597043 4
-5.67555 -5.47792 1.5251 12
-3.15988 -2.11622 0.329667 11
-5.67453 -5.46169 0.961399 14
-3.15511 -2.11224 0.0656647 15
-0.6073 -0.407758 -0.0366259 9
-0.851615 -0.570489 -0.121392 41
-1.58981 -1.52273 -0.189186 15
-0.857078 -0.573713 -0.193323 42
-1.57208 -1.50722 -0.339837 11
-0.862274 -0.576332 -0.26835 42
-1.18177 -1.13367 -0.369485 15
-3.17251 -2.1159 0.870929 3
-5.69673 -5.49831 2.10921 11
-3.17637 -2.11845 0.597824 3
-5.69394 -5.47651 1.52748 12
-3.16564 -2.11209 0.329884 3
-5.68226 -5.45006 0.961095 14
-3.17336 -2.11643 0.0659701 2
-0.612166 -0.409466 -0.0368885 11
-0.852609 -0.569002 -0.121392 41
-1.59966 -1.52685 -0.190055 15
-0.851947 -0.568139 -0.191895 41
-1.56046 -1.49079 -0.336705 11
-0.857243 -0.570819 -0.26641 42
-1.1855 -1.13329 -0.370046 15
-3.19408 -2.1054 0.873736 3
-5.73068 -5.47341 2.11115 11
-3.18742 -2.10179 0.597824 3
-5.72431 -5.44832 1.52796 12
-3.16626 -2.08863 0.328795 4
-5.71612 -5.42536 0.962008 12
-3.15935 -2.08328 0.0654465 9
-0.610132 -0.403509 -0.0366259 11
-2.31014 -2.18413 -0.0548878 38
-0.851431 -0.561802 -0.120783 41
-1.60944 -1.52017 -0.190273 15
-0.856961 -0.565019 -0.192371 42
-1.56108 -1.4758 -0.335139 11
-0.862238 -0.567648 -0.267057 42
-1.18966 -1.12539 -0.369485 15
-5.74372 -5.46673 2.11244 11
-5.72492 -5.42987 1.52558 12
-3.17406 -2.08584 0.329231 3
-5.72738 -5.41708 0.962312 11
-3.17134 -2.08325 0.065621 3
-0.610835 -0.402443 -0.0366259 11
-2.32122 -2.18696 -0.0550623 36
-0.85241 -0.560315 -0.120783 41
-1.61571 -1.52078 -0.190708 15
-0.855892 -0.562178 -0.191895 42
-1.56724 -1.47647 -0.335922 11
-0.863228 -0.566142 -0.267057 44
-1.19162 -1.12331 -0.369485 15
-5.77578 -5.4399 2.11374 9
-5.75863 -5.40486 1.52701 11
-3.15988 -2.05292 0.326616 3
-5.77558 -5.40568 0.965659 9
-3.16543 -2.05573 0.065272 2
-0.610839 -0.397881 -0.0364946 11
-2.33629 -2.17819 -0.0551496 36
