# .PCD v0.7 - Point Cloud Data file format
VERSION 0.7
FIELDS x y z intensity
SIZE 4 4 4 4
TYPE F F F F
COUNT 1 1 1 1
WIDTH 1656
HEIGHT 1
VIEWPOINT 0 0 0 1 0 0 0
POINTS 1656
DATA ascii
2.06936 -1.75562 -0.140859 42
1.36021 -0.797825 -0.0269203 23
2.0734 -1.76028 -0.329188 42
2.25603 -1.91684 -0.56759 35
2.02325 -1.18219 -0.366068 21
2.13782 -1.8195 -0.742327 9
2.0146 -1.17438 -0.52952 21
2.49158 -2.13671 0.748516 1
3.42864 -2.0084 1.05396 56
2.48809 -2.13297 0.512364 2
1.24892 -0.738052 0.274995 29
2.52275 -2.16196 0.287614 1
1.35771 -0.804368 0.189237 35
2.15021 -1.84308 0.0488231 11
2.06583 -1.7713 -0.141253 42
1.36879 -0.812791 -0.0271821 18
2.06761 -1.77471 -0.329796 42
2.23074 -1.91622 -0.56378 35
2.00426 -1.18525 -0.363719 21
2.13376 -1.8354 -0.744267 11
1.99771 -1.1791 -0.526713 23
2.4993 -2.15015 0.751885 1
3.43138 -2.01805 1.0559 56
2.48474 -2.13688 0.512364 3
2.49821 -2.14849 0.285217 4
2.11858 -1.82237 0.0481686 15
2.06841 -1.7798 -0.141646 42
2.07422 -1.78605 -0.331318 41
2.21996 -1.9137 -0.561876 36
1.98944 -1.18121 -0.36137 21
2.12872 -1.83754 -0.74362 9
1.98747 -1.17729 -0.524467 23
2.48066 -2.15681 0.749639 3
3.42528 -2.03785 1.05719 56
2.49028 -2.16444 0.515876 9
2.4873 -2.1611 0.285217 9
2.0669 -1.7968 -0.142172 42
2.07045 -1.80178 -0.33223 41
2.201 -1.91684 -0.559495 36
1.96839 -1.18274 -0.35863 23
2.12121 -1.84988 -0.744267 9
1.96663 -1.17894 -0.520536 24
2.47176 -2.1559 0.747954 9
3.43416 -2.05124 1.06107 56
2.46604 -2.15092 0.511584 14
2.46476 -2.14907 0.283038 14
2.06941 -1.80533 -0.142565 42
1.95945 -1.18386 -0.0393552 21
2.07291 -1.81029 -0.333143 41
2.18656 -1.91099 -0.556638 35
1.9515 -1.17728 -0.355889 21
2.1198 -1.85517 -0.744913 11
1.94994 -1.17361 -0.516605 24
2.46371 -2.17247 0.749077 9
3.42545 -2.07044 1.06171 56
2.464 -2.17197 0.513535 9
2.46094 -2.16853 0.28391 14
3.43814 -2.09602 0.209213 61
2.06554 -1.82109 -0.142959 41
1.94254 -1.18761 -0.039137 23
2.07084 -1.82769 -0.33436 42
2.16917 -1.91591 -0.554733 36
1.94109 -1.18491 -0.355106 23
2.10644 -1.86304 -0.74362 11
1.93543 -1.17875 -0.514359 24
2.47307 -2.18764 0.753008 9
3.42596 -2.07892 1.06301 56
2.45836 -2.17463 0.513145 9
2.4814 -2.19428 0.286742 14
3.44513 -2.10852 0.209867 65
2.06423 -1.82635 -0.14309 42
1.9298 -1.18448 -0.0389189 23
2.07136 -1.83459 -0.334969 42
1.92946 -1.18382 -0.194622 23
2.15848 -1.91318 -0.552828 36
1.92427 -1.1793 -0.352365 21
2.10499 -1.86832 -0.744267 11
1.92089 -1.17453 -0.51099 26
2.45756 -2.19774 0.751885 1
3.42738 -2.1044 1.06688 58
2.42347 -2.16573 0.281295 9
3.44042 -2.13047 0.21026 77
2.06766 -1.84879 -0.144009 42
1.91294 -1.188 -0.0387007 23
2.06727 -1.85038 -0.335881 42
1.91264 -1.18736 -0.193535 24
2.13565 -1.91298 -0.549495 36
1.90546 -1.18158 -0.350016 23
2.09518 -1.87931 -0.744267 12
1.90434 -1.17818 -0.508182 26
3.42988 -2.11417 1.06882 58
2.56425 -2.29972 0.298291 12
3.44067 -2.13563 0.492261 77
2.21605 -1.98788 0.0513537 15
3.44094 -2.1391 0.210521 74
2.06629 -1.85406 -0.144141 42
1.89812 -1.18343 -0.0384389 23
2.07326 -1.86228 -0.337402 42
2.12683 -1.91178 -0.548067 36
2.0919 -1.88297 -0.744267 12
1.89192 -1.1751 -0.505375 27
3.42696 -2.1372 1.07141 67
3.3606 -3.04746 0.711379 12
2.53373 -2.29638 0.296112 12
3.41893 -2.14703 0.49074 42
2.23523 -2.02633 0.0520518 14
3.41277 -2.14647 0.209475 35
2.06547 -1.87361 -0.144797 42
1.8792 -1.18537 -0.0381771 26
2.06716 -1.87645 -0.338011 35
2.10771 -1.91464 -0.545686 36
2.08379 -1.89552 -0.744913 12
3.35138 -3.05083 1.03658 12
3.43347 -2.14957 1.07464 61
3.37354 -3.06995 0.715281 12
2.44868 -2.22704 0.286525 11
3.38787 -2.13582 0.486784 21
2.22579 -2.02557 0.0519209 14
3.38789 -2.13912 0.208166 20
2.07327 -1.8873 -0.145585 53
1.87501 -1.18732 -0.0381335 33
2.07488 -1.89009 -0.339836 45
2.09893 -1.91335 -0.544258 36
2.07659 -1.89626 -0.74362 12
3.34916 -3.08212 1.04107 12
3.40138 -2.15522 1.06818 29
3.35688 -3.08815 0.715281 11
2.38895 -2.19641 0.280859 9
3.35742 -2.14213 0.484046 18
2.21332 -2.03551 0.0518773 15
3.36364 -2.14937 0.207381 18
2.0707 -1.90489 -0.14611 67
2.07739 -1.91306 -0.341966 61
2.07953 -1.91636 -0.541877 38
2.0684 -1.90875 -0.744267 12
3.35863 -3.1006 1.04556 12
3.37314 -2.14563 1.06042 18
3.36055 -3.10238 0.717232 12
3.37388 -2.15431 0.770653 14
2.37962 -2.1955 0.280206 9
3.33067 -2.1333 0.4807 21
2.23363 -2.06141 0.0524445 11
3.34306 -2.14448 0.206335 26
2.06554 -1.90681 -0.145978 71
2.07041 -1.91331 -0.341358 56
2.06717 -1.91165 -0.539496 38
2.05798 -1.90579 -0.74168 12
3.35304 -3.12811 1.04893 12
3.34191 -2.14963 1.05396 17
3.35564 -3.12946 0.719573 11
3.32785 -2.14877 0.762551 23
2.31566 -2.15825 0.273887 8
3.31567 -2.14743 0.480091 36
3.32587 -2.1573 0.205942 17
2.061 -1.92271 -0.146372 53
2.05526 -1.91868 -0.340445 41
2.04851 -1.91371 -0.537115 38
2.05184 -1.91948 -0.742973 11
3.34935 -3.13563 1.04949 12
3.31581 -2.14108 1.04685 29
3.36099 -3.14544 0.721915 11
3.3196 -2.15249 0.761597 23
2.31008 -2.16059 0.273669 8
3.32857 -2.16402 0.482525 2
3.31791 -2.16038 0.20568 12
2.04853 -1.91777 -0.145716 38
2.04286 -1.91378 -0.338924 36
2.08338 -1.35971 -0.214193 42
2.03622 -1.90888 -0.534734 38
2.04639 -1.92176 -0.742327 12
3.34472 -3.16543 1.05343 11
3.30621 -2.16031 1.0475 12
3.3493 -3.16867 0.723085 11
3.32061 -2.1779 0.764457 1
2.2875 -2.16279 0.272362 8
3.31889 -2.18336 0.482829 8
2.04672 -1.93561 0.0485613 14
3.31452 -2.18379 0.206204 3
2.02759 -1.91817 -0.144928 38
2.02167 -1.91456 -0.337098 36
2.08455 -1.37607 -0.215063 42
2.01874 -1.91311 -0.53283 38
2.02229 -1.91914 -0.737154 14
2.67336 -1.75721 -0.729424 9
3.34328 -3.17403 1.05455 11
3.32062 -2.17797 1.05331 1
3.35809 -3.18812 0.726207 11
3.32706 -2.19043 0.76684 3
2.26927 -2.15305 0.270619 4
3.30678 -2.18369 0.481612 3
2.0379 -1.93401 0.0484304 12
3.30237 -2.18407 0.20568 12
2.017 -1.91483 -0.144403 36
2.01473 -1.91467 -0.33649 36
2.00473 -1.90648 -0.529973 36
2.08376 -1.37923 -0.390734 41
2.0067 -1.91101 -0.732627 24
2.67029 -1.76188 -0.729424 11
3.3366 -3.2022 1.05792 11
3.30111 -2.19 1.05073 2
3.34491 -3.20908 0.726988 11
3.29919 -2.19695 0.763027 4
2.25078 -2.15801 0.269747 4
3.3015 -2.2051 0.482525 8
2.00611 -1.92389 0.0479069 11
3.28466 -2.19717 0.205288 18
2.07175 -1.389 -0.0429329 42
1.99752 -1.91831 -0.335273 36
1.98588 -1.90844 -0.527592 36
2.07675 -1.38976 -0.390734 41
1.99319 -1.91814 -0.731334 36
2.66711 -1.77988 -0.731109 9
3.34911 -3.22434 1.06353 11
3.29729 -2.19576 1.05073 4
3.35587 -3.22975 0.7305 11
3.30352 -2.20815 0.764934 4
3.2939 -2.20752 0.481917 1
2.00635 -1.93085 0.0479941 11
3.26876 -2.194 0.204503 18
2.0797 -1.39957 -0.0431511 42
1.98379 -1.91111 -0.333447 36
2.08488 -1.40252 -0.216367 42
1.98078 -1.9102 -0.527116 38
2.08048 -1.39751 -0.391909 41
1.97595 -1.90818 -0.726161 42
2.65824 -1.78001 -0.729424 9
3.33916 -3.24863 1.06578 11
3.29215 -2.21646 1.05267 3
3.34776 -3.25588 0.732451 11
3.31061 -2.23719 0.769223 1
3.3008 -2.23725 0.484655 11
1.98043 -1.92529 0.0476014 9
3.23862 -2.19849 0.203325 17
2.07466 -1.41148 -0.0431947 41
1.97197 -1.91974 -0.333143 38
2.07751 -1.41342 -0.216367 41
1.96054 -1.90992 -0.524259 39
2.07518 -1.40976 -0.3923 39
1.95936 -1.91141 -0.723575 44
2.661 -1.80208 -0.732793 9
3.34743 -3.26807 1.07027 11
3.33633 -2.25459 1.06818 1
3.35091 -3.27035 0.734402 11
3.3307 -2.26005 0.774942 11
3.32358 -2.26112 0.48861 14
1.9803 -1.93259 0.0476887 12
3.21413 -2.1901 0.202017 18
2.07219 -1.4151 -0.0431947 39
1.95798 -1.91277 -0.331318 38
2.07916 -1.41985 -0.216802 41
1.95194 -1.90819 -0.52283 39
2.0768 -1.41616 -0.393083 39
1.95223 -1.91179 -0.722281 44
2.65381 -1.80399 -0.73167 9
3.33663 -3.29298 1.07252 11
3.34205 -2.28486 1.07399 14
3.34547 -3.30057 0.737134 11
3.35528 -2.30241 0.783521 15
3.34813 -2.30435 0.494086 4
1.96482 -1.93766 0.0475578 12
3.18783 -2.19756 0.201101 21
2.06863 -1.42912 -0.043282 39
1.94054 -1.91636 -0.330101 38
2.0799 -1.43636 -0.217672 41
1.93461 -1.91182 -0.520925 39
2.07342 -1.42981 -0.393866 41
1.9319 -1.91179 -0.718402 44
2.64401 -1.81832 -0.73167 9
3.3453 -3.31193 1.07701 11
3.36595 -2.30978 1.08304 20
3.35432 -3.31972 0.740255 11
3.39778 -2.34022 0.794482 15
3.33428 -2.30257 0.492565 11
1.95788 -1.93757 0.0474705 11
3.16177 -2.18697 0.199662 18
2.07024 -1.43557 -0.0433692 41
1.93048 -1.91241 -0.328884 39
2.08149 -1.44282 -0.218107 42
1.9243 -1.90828 -0.519021 39
2.07499 -1.43623 -0.394649 41
1.92342 -1.91005 -0.716462 44
2.63513 -1.81833 -0.729985 9
3.33308 -3.33457 1.07869 11
3.38997 -2.35152 1.09467 12
3.34736 -3.34772 0.742597 11
3.39395 -2.36299 0.796389 11
3.37309 -2.35545 0.500171 12
1.93038 -1.92977 0.0470342 11
3.13799 -2.19492 0.198877 18
2.07115 -1.45175 -0.0435437 42
1.91343 -1.91547 -0.327667 38
2.07799 -1.45655 -0.218542 42
1.90769 -1.91104 -0.517116 39
2.07352 -1.45131 -0.395824 41
1.90521 -1.9112 -0.713229 45
2.62958 -1.83489 -0.731109 9
3.34272 -3.35592 1.08375 11
3.39776 -2.3657 1.09855 9
3.35371 -3.36581 0.745328 11
3.40149 -2.37793 0.799248 11
3.3527 -2.34996 0.497737 12
1.92668 -1.93347 0.0470342 18
3.11575 -2.18751 0.197699 18
2.06861 -1.45537 -0.0435437 41
2.07749 -1.4616 -0.218759 42
1.90089 -1.91089 -0.516164 39
2.07503 -1.45776 -0.396607 39
1.89644 -1.90971 -0.711289 45
2.62437 -1.83808 -0.730547 9
3.3399 -3.38958 1.0888 11
3.38096 -2.38127 1.09726 11
3.34585 -3.39446 0.74767 11
3.39099 -2.39712 0.799725 11
3.36627 -2.38669 0.501692 11
1.90425 -1.93107 0.0467288 3
3.08553 -2.19135 0.196522 18
2.06275 -1.46798 -0.0435874 41
2.0759 -1.47678 -0.219412 41
1.88192 -1.91239 -0.513783 41
2.07745 -1.47573 -0.398564 39
1.87795 -1.911 -0.708056 45
2.61439 -1.85225 -0.730547 11
3.33798 -3.3983 1.08992 11
3.38864 -2.39552 1.10113 11
3.35435 -3.41381 0.750791 11
3.39882 -2.41154 0.802585 11
3.37871 -2.40346 0.504126 11
1.89562 -1.92904 0.0465979 3
3.06784 -2.18607 0.195606 18
2.06833 -1.47738 -0.0437619 41
2.07129 -1.47896 -0.219194 39
1.87514 -1.91217 -0.512831 41
2.07688 -1.48078 -0.398956 39
1.86955 -1.9091 -0.706116 47
2.61346 -1.85776 -0.731109 11
3.33712 -3.43321 1.09554 11
3.3804 -2.41545 1.10243 11
3.33988 -3.43486 0.751572 11
3.38658 -2.42871 0.802585 11
3.38019 -2.43125 0.506256 11
1.87015 -1.92248 0.0462052 21
3.04013 -2.19045 0.194559 17
1.862 -1.91543 -0.138627 38
2.06894 -1.49366 -0.0439364 41
2.07363 -1.49705 -0.220282 41
1.85519 -1.91106 -0.509974 41
2.07512 -1.49596 -0.40013 39
1.85146 -1.90986 -0.702883 47
2.59974 -1.86858 -0.729985 11
3.3362 -3.44428 1.09722 11
3.3919 -2.43258 1.10759 11
3.3459 -3.4531 0.754303 11
3.39586 -2.44523 0.805921 11
3.40011 -2.45455 0.509907 11
1.86124 -1.92068 0.0460743 23
3.01201 -2.17822 0.192989 20
1.85345 -1.91329 -0.138233 39
2.0643 -1.49581 -0.0438928 39
2.07303 -1.50213 -0.220499 39
1.84674 -1.909 -0.508545 41
2.08452 -1.50824 -0.40248 39
1.84444 -1.90994 -0.701589 45
2.5945 -1.8717 -0.729424 11
3.33774 -3.48339 1.10396 11
3.3826 -2.45373 1.10889 11
3.334 -3.47829 0.755864 11
3.39691 -2.47307 0.809257 11
3.38477 -2.47144 0.509602 11
1.85116 -1.93039 0.0460743 20
2.99211 -2.1886 0.192465 20
1.83822 -1.91756 -0.137839 39
2.06426 -1.51285 -0.0440673 39
2.07319 -1.51883 -0.221369 41
1.8296 -1.91187 -0.50664 41
2.0766 -1.51913 -0.40248 38
2.58236 -1.88427 -0.728862 11
3.33731 -3.49392 1.10565 11
3.37831 -2.45963 1.10889 11
3.349 -3.50495 0.760547 11
3.39457 -2.48044 0.809733 11
3.39291 -2.48554 0.511428 11
1.83398 -1.91916 0.0457253 9
2.97053 -2.18003 0.191288 20
1.82626 -1.91173 -0.137183 39
2.06161 -1.51645 -0.0440673 38
2.07053 -1.52245 -0.221369 38
1.8161 -1.9044 -0.503783 41
2.08789 -1.53296 -0.40522 38
2.5794 -1.88833 -0.728862 11
3.33068 -3.52374 1.10958 11
3.37166 -2.48099 1.11083 11
3.34417 -3.5368 0.763669 11
3.39383 -2.50633 0.812593 11
3.38783 -2.50917 0.512645 11
1.82424 -1.92842 0.0457253 17
2.94503 -2.18516 0.190372 20
1.81622 -1.92127 -0.137183 38
2.06195 -1.53282 -0.0442418 41
2.06653 -1.53623 -0.221804 38
1.7997 -1.90643 -0.501879 41
2.08976 -1.55121 -0.407178 38
2.5734 -1.9047 -0.729985 11
3.33955 -3.54551 1.11463 11
3.37316 -2.49116 1.11276 11
3.34476 -3.54982 0.76523 11
3.39493 -2.51722 0.814023 11
3.38942 -2.51952 0.513558 11
1.8154 -1.92645 0.0455944 20
2.93119 -2.18285 0.189718 20
1.80089 -1.91171 -0.136264 39
2.0693 -1.54387 -0.04446 41
2.07584 -1.54875 -0.223109 39
2.09697 -1.56221 -0.409135 38
2.56224 -1.90339 -0.727739 11
3.32862 -3.57244 1.11744 11
3.37512 -2.52092 1.11793 11
3.34066 -3.58413 0.768742 11
3.38563 -2.5379 0.814976 11
3.38765 -2.54675 0.515383 11
1.80188 -1.93228 0.0455071 45
2.89938 -2.18369 0.188409 20
1.78575 -1.91563 -0.13587 39
2.06291 -1.55655 -0.0445036 41
2.07567 -1.56558 -0.223978 41
2.10456 -1.58503 -0.412268 36
2.55385 -1.91869 -0.728301 11
3.33461 -3.59016 1.12137 11
3.37458 -2.5297 1.11923 11
3.34342 -3.59842 0.770693 11
3.39494 -2.55411 0.818312 11
3.39158 -2.55804 0.5166 11
1.7968 -1.93359 0.0454635 30
2.878 -2.17472 0.187232 20
1.77731 -1.91326 -0.135476 39
2.06019 -1.56014 -0.0445036 38
2.07492 -1.5707 -0.224196 41
2.11757 -1.60058 -0.4154 35
2.53915 -1.91391 -0.724932 12
3.32565 -3.61834 1.12474 11
3.36944 -2.55257 1.12181 11
3.33289 -3.62497 0.772644 11
3.38197 -2.57127 0.818312 11
3.38406 -2.58027 0.517513 11
1.79376 -1.95002 0.045638 29
2.85267 -2.17917 0.186316 20
1.76929 -1.92407 -0.135608 39
2.0642 -1.57964 -0.0447654 39
2.06893 -1.58269 -0.224413 39
2.13274 -1.62959 -0.420098 35
2.51357 -1.91539 -0.72044 14
3.33148 -3.63613 1.12867 11
3.37653 -2.56721 1.12569 11
3.3449 -3.65081 0.776936 11
3.39114 -2.58757 0.821648 11
3.38942 -2.5937 0.519034 11
1.79373 -1.95683 0.0457253 29
2.83696 -2.17504 0.185531 20
1.76425 -1.92531 -0.135476 39
2.06938 -1.58932 -0.0449399 41
2.0721 -1.59084 -0.225066 39
2.1554 -1.6528 -0.425188 33
2.4986 -1.91092 -0.71707 15
3.32093 -3.66552 1.13204 11
3.37025 -2.59132 1.12827 11
3.3367 -3.68167 0.779668 11
3.38876 -2.61486 0.824508 11
3.38123 -2.61655 0.519947 11
1.78647 -1.97021 0.0458126 29
2.80935 -2.17814 0.184484 20
2.05877 -1.59896 -0.0448963 39
2.06937 -1.6066 -0.225718 39
2.18775 -1.69576 -0.433409 33
2.47279 -1.91251 -0.712578 20
3.32986 -3.68701 1.13709 11
3.37147 -2.60162 1.13021 11
3.34912 -3.70706 0.78396 11
3.38419 -2.62077 0.824508 11
3.38888 -2.63097 0.521772 11
1.78805 -1.9789 0.0459435 29
2.79606 -2.1749 0.18383 21
2.0698 -1.61329 -0.0452017 39
2.07443 -1.61632 -0.226588 39
2.23358 -1.73739 -0.443197 32
2.45437 -1.90447 -0.708086 24
3.32998 -3.72619 1.14383 11
3.36398 -2.6231 1.13215 11
3.3346 -3.73007 0.785131 11
3.38056 -2.64542 0.826891 11
3.37897 -2.65174 0.522381 11
1.78634 -1.99724 0.0461616 29
2.77089 -2.17873 0.182914 21
1.93313 -2.16305 -0.150704 33
2.06947 -1.62991 -0.0453763 41
2.0679 -1.62869 -0.226805 38
2.26526 -1.78104 -0.451419 30
2.43669 -1.91129 -0.70584 27
3.32995 -3.73928 1.14608 11
3.37462 -2.64085 1.13732 11
3.34615 -3.75617 0.789424 11
3.3774 -2.65342 0.827367 11
3.38994 -2.6699 0.524814 11
1.78583 -2.0044 0.0462489 29
2.75334 -2.17276 0.181998 23
1.92271 -2.15896 -0.150179 33
2.07055 -1.63662 -0.0454635 41
2.07679 -1.64155 -0.22811 39
2.31067 -1.82315 -0.461207 30
2.41993 -1.90501 -0.701909 27
3.32255 -3.77187 1.15057 11
3.37166 -2.66805 1.1412 11
3.33394 -3.78349 0.791375 11
3.37693 -2.68173 0.830704 11
3.3871 -2.69746 0.52664 11
1.78027 -2.01935 0.0463798 30
2.73178 -2.17985 0.181344 23
1.90148 -2.15775 -0.149392 35
2.06949 -1.65402 -0.045638 41
2.07791 -1.66015 -0.229197 39
2.33396 -1.86134 -0.467863 29
2.40577 -1.91505 -0.700786 27
3.33108 -3.79356 1.15562 11
3.37267 -2.67843 1.14314 11
3.34428 -3.80728 0.795277 11
3.38377 -2.69679 0.833563 11
3.38674 -2.70587 0.527248 11
1.78168 -2.02809 0.0465107 30
2.70884 -2.16856 0.180036 21
1.88948 -2.15168 -0.148735 35
2.06855 -1.65919 -0.0456817 41
2.07307 -1.66222 -0.22898 39
2.35001 -1.88081 -0.471778 29
2.38751 -1.90669 -0.696294 29
3.32076 -3.82199 1.15899 11
3.36473 -2.7 1.14507 11
3.33078 -3.83219 0.796838 11
3.37199 -2.71542 0.83404 11
3.38606 -2.73447 0.529378 11
1.75992 -2.02387 0.0462052 30
2.68579 -2.17331 0.179251 21
1.87655 -2.15966 -0.148604 35
2.06985 -1.67749 -0.0458998 41
2.07596 -1.68244 -0.230285 41
2.34782 -1.89929 -0.473344 29
2.36801 -1.91153 -0.693486 29
3.33002 -3.8462 1.16461 9
3.36378 -2.70889 1.14637 11
3.34186 -3.85854 0.80113 11
3.37823 -2.73113 0.836899 11
3.38514 -2.74349 0.529987 11
2.67229 -2.17014 0.178596 21
1.86298 -2.15161 -0.147816 33
2.06886 -1.68268 -0.0459435 41
1.1371 -1.31335 -0.208709 8
2.07496 -1.68763 -0.230502 41
2.34066 -1.90028 -0.472561 29
2.3514 -1.90495 -0.689556 29
3.32184 -3.87897 1.1691 11
3.36219 -2.73771 1.15089 11
3.33057 -3.88782 0.803472 11
3.3772 -2.75964 0.840235 11
3.37217 -2.76334 0.530291 11
2.64892 -2.17507 0.177811 23
1.8452 -2.15374 -0.147291 33
2.06553 -1.6986 -0.0460743 41
1.1332 -1.32326 -0.209317 4
2.07187 -1.70321 -0.231154 41
2.32685 -1.90938 -0.471778 29
2.3354 -1.91302 -0.687871 30
3.33313 -3.90457 1.17528 9
3.36677 -2.7512 1.15412 11
3.3421 -3.9137 0.807764 11
3.37618 -2.76864 0.841189 11
3.37549 -2.77493 0.531508 11
2.63586 -2.17131 0.177157 23
1.83658 -2.15126 -0.146897 33
2.06642 -1.70538 -0.0461616 41
1.13273 -1.32693 -0.209622 8
2.07467 -1.71156 -0.231807 41
2.31588 -1.90717 -0.470212 30
2.32108 -1.90742 -0.684502 30
3.32679 -3.93872 1.18033 9
3.36398 -2.77742 1.158 11
3.32952 -3.94058 0.809715 11
3.37158 -2.79351 0.843572 9
3.37238 -2.80207 0.533333 11
2.61101 -2.17392 0.176241 23
1.81922 -2.1529 -0.146372 33
2.05969 -1.71741 -0.0462052 39
1.12736 -1.33473 -0.209926 8
2.07364 -1.72841 -0.232677 41
2.30016 -1.91454 -0.469038 29
2.2998 -1.91023 -0.681133 29
3.33471 -3.96072 1.18538 9
3.36844 -2.79098 1.16123 11
3.34172 -3.96906 0.814398 9
3.37425 -2.80565 0.845478 9
1.80999 -2.14881 0.0484304 36
2.57652 -2.1529 0.174148 15
1.81386 -2.15416 -0.146241 35
2.06628 -1.72901 -0.0464234 41
1.12823 -1.3405 -0.210534 8
2.07254 -1.73362 -0.232894 41
2.28354 -1.90749 -0.466297 29
1.58915 -1.89301 -0.652446 3
2.28148 -1.90178 -0.67664 29
3.32258 -3.98993 1.18875 11
3.37231 -2.82407 1.16769 11
3.33037 -3.99789 0.816739 9
1.76551 -2.11762 0.238153 2
1.79232 -2.15057 0.0482559 36
2.51938 -2.12777 0.171008 1
1.79457 -2.15403 -0.145585 35
2.06294 -1.74463 -0.0465543 41
1.11961 -1.34448 -0.21023 8
2.07105 -1.75087 -0.233764 41
1.5745 -1.89297 -0.470928 3
2.26785 -1.91465 -0.465122 30
1.56996 -1.89015 -0.648566 3
2.26402 -1.90744 -0.674394 30
3.32876 -4.01015 1.19325 9
3.336 -4.0189 0.819861 9
2.51527 -2.12885 0.399772 2
1.78218 -2.146 0.0480814 35
2.40888 -2.04192 0.163681 2
1.78284 -2.14755 -0.144928 35
2.06561 -1.75307 -0.0466852 41
1.11884 -1.34834 -0.210534 8
2.0737 -1.7593 -0.234416 41
1.5712 -1.89571 -0.470928 3
2.2513 -1.90746 -0.462382 29
1.56512 -1.89103 -0.647919 3
2.25324 -1.90511 -0.672148 30
3.32401 -4.04882 1.19942 9
3.33528 -4.06113 0.824934 9
2.50032 -2.13279 0.631487 1
2.48144 -2.12266 0.396121 2
2.44751 -2.09666 0.167083 2
2.06211 -1.76874 -0.0468161 41
1.11019 -1.35226 -0.21023 8
2.06983 -1.77535 -0.235069 41
1.55814 -1.90011 -0.469976 3
2.23377 -1.91281 -0.460816 30
1.54602 -1.88798 -0.64404 3
2.23211 -1.9074 -0.668779 29
3.32773 -4.06781 1.20335 9
2.49576 -2.12898 0.868499 1
3.3407 -4.08223 0.828056 9
2.48503 -2.12802 0.628628 2
2.50601 -2.15119 0.400684 8
2.40404 -2.06681 0.164335 14
2.06471 -1.77722 -0.046947 41
1.11097 -1.35804 -0.210838 4
2.0724 -1.78382 -0.235721 39
1.54706 -1.89332 -0.467595 3
2.21918 -1.90707 -0.458467 30
1.53935 -1.8872 -0.642746 3
2.21951 -1.90338 -0.665971 30
3.32099 -4.1047 1.20897 9
2.48421 -2.14245 0.868499 2
2.49429 -2.15864 0.63387 3
2.48307 -2.15498 0.398859 11
2.46263 -2.14028 0.169176 14
2.06262 -1.79491 -0.0471215 41
1.10361 -1.36403 -0.210838 4
2.06679 -1.79791 -0.236156 39
1.53371 -1.89785 -0.466643 3
2.20169 -1.9122 -0.456901 32
1.5249 -1.8896 -0.640806 4
2.20181 -1.90899 -0.663725 32
2.47681 -2.14363 0.867207 2
2.49052 -2.16299 0.63387 9
2.47406 -2.154 0.397946 15
2.46115 -2.14579 0.169307 14
2.06325 -1.80179 -0.0472088 39
1.10146 -1.36577 -0.210838 4
2.07117 -1.80806 -0.237026 39
1.52578 -1.89478 -0.465214 4
2.18903 -1.90794 -0.454943 33
1.52311 -1.89414 -0.641453 8
2.18408 -1.89968 -0.659233 30
2.48231 -2.17042 0.873022 8
2.46661 -2.16426 0.630534 9
2.45902 -2.16365 0.397338 11
2.45926 -2.16688 0.169961 24
2.05974 -1.81716 -0.0473396 29
1.08811 -1.36375 -0.209622 4
2.06915 -1.82545 -0.237895 39
1.51617 -1.90248 -0.465214 4
2.17159 -1.91286 -0.453377 32
1.50599 -1.89237 -0.63822 11
2.16861 -1.90627 -0.657548 32
2.47125 -2.16839 0.870438 8
2.46429 -2.17061 0.631011 9
2.47014 -2.18105 0.399772 4
2.44611 -2.16292 0.169307 24
2.06031 -1.82406 -0.0474269 38
1.0919 -1.37342 -0.210838 4
2.07157 -1.834 -0.238548 39
1.51285 -1.90513 -0.465214 11
2.15898 -1.90848 -0.451419 32
1.50085 -1.89336 -0.637573 11
2.15613 -1.90201 -0.654741 32
2.44862 -2.17213 0.86656 9
2.45656 -2.18674 0.631964 2
2.42692 -2.16947 0.168783 24
1.02841 -1.30651 -0.0855917 12
2.05974 -1.8435 -0.0476451 38
1.07679 -1.36955 -0.209317 3
2.07495 -1.85643 -0.24007 41
1.49798 -1.90749 -0.463785 11
2.1379 -1.90991 -0.44907 32
1.49539 -1.9069 -0.639513 11
2.13306 -1.90232 -0.65081 32
2.44483 -2.1764 0.86656 2
2.4142 -2.16496 0.168129 26
1.02613 -1.3083 -0.0855917 8
2.06025 -1.85043 -0.0477323 39
1.07617 -1.37319 -0.209622 3
2.07356 -1.86171 -0.240287 39
1.49313 -1.90817 -0.463309 11
2.12535 -1.90541 -0.447113 30
2.12643 -1.90243 -0.649687 32
3.36999 -3.04722 0.552805 11
2.38987 -2.16586 0.167213 26
2.06754 -1.87592 -0.048125 42
1.06896 -1.37881 -0.209622 3
2.07335 -1.88053 -0.241375 42
1.48045 -1.91182 -0.462357 12
2.10618 -1.90824 -0.445155 30
2.10558 -1.90375 -0.646318 32
3.37584 -3.05469 0.87741 11
3.38122 -3.06808 0.555543 11
2.37869 -2.16332 0.16669 26
2.06982 -1.88456 -0.0482559 47
1.06656 -1.38067 -0.209622 3
2.0756 -1.88916 -0.242027 47
1.47712 -1.9144 -0.462357 11
2.09553 -1.90528 -0.443589 32
2.09322 -1.89926 -0.64351 32
1.62923 -2.13171 0.61038 2
3.35062 -3.05438 1.20388 12
3.3647 -3.07787 0.87884 11
3.36823 -3.08968 0.556151 11
2.3559 -2.16603 0.165905 26
2.0688 -1.90418 -0.0484741 59
1.06509 -1.39432 -0.210838 3
2.0782 -1.91215 -0.243549 58
1.46376 -1.91846 -0.461405 39
2.08006 -1.91123 -0.442414 32
2.07932 -1.90727 -0.642387 32
1.62588 -2.13426 0.61038 9
3.36847 -3.08139 1.21228 11
3.37199 -3.09534 0.882176 11
3.3652 -3.09665 0.556455 9
2.34331 -2.16128 0.165251 26
2.06915 -1.91118 -0.0485613 59
1.0644 -1.39796 -0.211143 3
2.07669 -1.91746 -0.243767 52
1.46486 -1.92687 -0.462833 49
2.06763 -1.9065 -0.440457 33
2.06914 -1.90394 -0.640141 32
1.62347 -2.15443 0.613749 9
3.35994 -3.10494 1.21486 11
3.3707 -3.1257 0.885989 11
3.36531 -3.12942 0.559194 9
2.31916 -2.16163 0.164335 26
2.05579 -1.91822 -0.0484741 45
1.06452 -1.41343 -0.212664 4
2.05385 -1.91644 -0.242244 39
2.04677 -1.90722 -0.438108 33
2.04842 -1.90482 -0.636772 33
1.62848 -2.16895 0.617118 2
3.36515 -3.12064 1.21874 11
3.36649 -3.13384 0.886465 11
3.37256 -3.14713 0.561323 9
2.30625 -2.15716 0.163681 26
2.03599 -1.90646 -0.0480814 35
1.06354 -1.41728 -0.212968 3
2.04322 -1.91322 -0.241375 36
2.03802 -1.90574 -0.436933 33
2.03617 -1.90009 -0.633964 33
3.35527 -3.14541 1.22133 11
3.36256 -3.16318 0.889801 11
3.37174 -3.18063 0.564061 11
2.29092 -2.16618 0.163419 26
2.01656 -1.90887 -0.0478632 33
1.06029 -1.42899 -0.213881 3
2.02412 -1.91535 -0.240287 35
2.01902 -1.90792 -0.434976 33
2.01876 -1.90441 -0.631718 33
3.35506 -3.15622 1.22327 11
3.36775 -3.17914 0.892661 11
3.37576 -3.19444 0.565583 11
2.09306 -2.82938 0.0608216 12
2.27663 -2.15948 0.162634 27
2.11525 -2.86044 -0.18523 9
2.00959 -1.90895 -0.047776 32
1.05657 -1.42866 -0.213577 3
2.01173 -1.91032 -0.2392 35
2.00851 -1.90466 -0.433409 33
2.00868 -1.90089 -0.629472 33
3.28835 -4.49551 1.27579 14
3.35656 -3.18977 1.22973 11
3.29289 -4.50009 0.875663 14
3.3605 -3.20461 0.895044 11
3.30842 -4.5197 0.486983 12
3.37156 -3.22407 0.567712 11
2.0315 -2.77538 0.0594254 12
2.25265 -2.1593 0.161718 26
2.03591 -2.78244 -0.179454 8
1.99087 -1.91046 -0.0475578 33
1.052 -1.43818 -0.214185 3
1.99303 -1.91187 -0.238113 35
1.99315 -1.91003 -0.432235 33
1.99165 -1.90466 -0.627226 33
3.2985 -4.5243 1.28253 14
3.35274 -3.19729 1.23037 11
3.29957 -4.52579 0.879565 14
3.37088 -3.22572 0.899333 11
3.30933 -4.53754 0.48829 12
3.38026 -3.24368 0.570146 11
2.04579 -2.80518 0.0599926 12
2.24528 -2.15977 0.161456 27
2.03987 -2.79809 -0.180241 8
1.98032 -1.90701 -0.0473833 33
1.04949 -1.44001 -0.214185 4
1.9825 -1.90845 -0.237243 33
1.9809 -1.90497 -0.430277 33
1.97775 -1.89803 -0.623857 33
3.28537 -4.55789 1.28702 14
3.35162 -3.22987 1.23619 11
3.29315 -4.56704 0.884248 14
3.35747 -3.24673 0.900286 11
3.26368 -4.5245 0.485022 14
3.36502 -3.26306 0.57045 11
2.01354 -2.79152 0.0594691 14
2.22139 -2.15934 0.160541 26
1.96492 -1.91213 -0.0472524 33
1.05063 -1.45757 -0.216011 3
1.96203 -1.90672 -0.42832 33
1.96429 -1.90498 -0.622734 35
3.29019 -4.58143 1.29207 14
3.35467 -3.2441 1.23942 11
3.29958 -4.59284 0.88815 14
3.36534 -3.26684 0.904099 11
3.27612 -4.55851 0.488072 12
3.36822 -3.27757 0.571972 11
2.03441 -2.83193 0.0602544 14
2.21046 -2.15625 0.160017 26
1.94904 -1.90335 -0.046947 35
1.04664 -1.45739 -0.215706 3
1.11638 -1.5558 -0.364743 27
1.95339 -1.90498 -0.427145 35
1.11157 -1.55191 -0.501782 11
1.94872 -1.89653 -0.618803 36
3.27804 -4.61705 1.29713 14
3.35608 -3.28075 1.24653 11
3.28612 -4.62673 0.891272 14
3.35871 -3.29471 0.906959 11
3.26439 -4.59444 0.490033 12
3.36106 -3.30617 0.573797 11
2.00074 -2.81605 0.0596872 14
2.19164 -2.16118 0.159494 27
1.93872 -1.91387 -0.046947 36
1.04591 -1.47315 -0.217228 3
1.10937 -1.56382 -0.365219 17
1.94163 -1.91345 -0.426754 36
1.10762 -1.56363 -0.503722 8
1.94017 -1.90875 -0.619365 36
3.29329 -4.65401 1.30611 14
3.3607 -3.29674 1.25041 11
3.29881 -4.66011 0.896735 14
3.3582 -3.30573 0.908388 11
3.27506 -4.62656 0.492866 12
3.36647 -3.3219 0.575623 11
2.0882 -2.95015 0.0624796 8
2.17935 -2.15585 0.15884 27
1.92292 -1.90496 -0.0466416 36
1.04217 -1.47277 -0.216923 3
1.92773 -1.90644 -0.424405 33
1.92327 -1.89813 -0.614872 36
3.28424 -4.69315 1.31229 14
3.35771 -3.32729 1.25558 11
3.29277 -4.70362 0.901808 14
3.36233 -3.34343 0.914108 11
3.2616 -4.65736 0.494391 11
3.36662 -3.35698 0.578665 11
2.16096 -2.16018 0.158316 27
1.91148 -1.9129 -0.0465979 35
1.03586 -1.48024 -0.217228 3
1.91422 -1.91302 -0.423622 35
1.91331 -1.90818 -0.614872 36
3.29693 -4.72886 1.32071 21
3.35704 -3.33825 1.25751 9
3.30715 -4.74177 0.908052 44
3.36286 -3.3568 0.916014 11
3.30048 -4.73046 0.501581 15
3.37129 -3.37337 0.58049 11
2.14836 -2.15512 0.157662 27
1.89754 -1.90563 -0.0463361 36
1.03328 -1.48204 -0.217228 3
1.6537 -2.37514 -0.554733 30
1.89691 -1.9024 -0.420489 35
1.90135 -1.90291 -0.612065 36
3.2865 -4.76869 1.32689 49
3.34746 -3.36492 1.26075 11
3.29966 -4.78603 0.913125 47
3.36254 -3.39178 0.92078 11
3.28614 -4.76466 0.503324 18
3.36172 -3.40038 0.582012 11
2.12964 -2.15962 0.157139 27
1.88017 -1.90875 -0.0461616 36
1.02946 -1.49374 -0.21814 3
1.28007 -1.30127 -0.15635 9
1.64082 -2.38405 -0.554733 41
1.88345 -1.9088 -0.419706 35
1.88416 -1.90625 -0.609819 36
3.30245 -4.80799 1.33643 47
3.35349 -3.38275 1.26527 11
3.31171 -4.81971 0.918588 47
3.36179 -3.40287 0.92221 11
3.29474 -4.79502 0.505939 23
3.36509 -3.41448 0.583533 11
2.11748 -2.15407 0.156484 27
1.86807 -1.90313 -0.0459435 36
1.02712 -1.49536 -0.21814 3
1.2813 -1.30705 -0.156785 9
1.63666 -2.38691 -0.554733 42
1.87318 -1.90505 -0.41814 36
1.8726 -1.90055 -0.607011 36
3.29365 -4.84941 1.34317 47
3.35157 -3.41518 1.27108 11
3.30446 -4.86354 0.923661 49
3.35827 -3.43387 0.926022 11
3.30682 -4.8652 0.511604 35
3.36278 -3.44803 0.586271 11
2.10443 -2.16334 0.156354 27
1.85318 -1.90719 -0.0458126 35
1.01927 -1.50072 -0.21814 3
1.6163 -2.38298 -0.551876 44
1.85628 -1.90777 -0.416574 35
1.85751 -1.9051 -0.605326 38
3.30514 -4.88282 1.35103 47
3.35067 -3.4262 1.27302 11
3.31119 -4.89179 0.927953 49
3.35913 -3.44675 0.927929 11
3.31228 -4.89158 0.513783 33
3.36195 -3.45922 0.587184 11
2.08673 -2.15269 0.155307 27
1.84114 -1.90146 -0.0455944 38
1.01943 -1.50661 -0.218749 3
1.84568 -1.89962 -0.602519 38
3.29221 -4.92088 1.35665 49
3.3495 -3.46103 1.27949 9
3.30475 -4.9378 0.933416 50
3.35297 -3.47664 0.931265 11
3.3074 -4.93991 0.517051 35
3.35584 -3.48929 0.589313 11
2.07024 -2.15819 0.154914 29
1.82942 -1.90927 -0.0455508 36
1.00601 -1.50367 -0.217532 3
1.82316 -1.90212 -0.227023 32
1.59413 -2.38955 -0.759786 12
1.82894 -1.90225 -0.600273 36
3.30609 -4.95848 1.36563 53
3.35352 -3.47729 1.28336 11
3.30982 -4.96411 0.937319 55
3.35541 -3.49133 0.933648 9
3.31673 -4.97261 0.519884 41
3.36006 -3.50588 0.591139 11
2.05783 -2.15279 0.15426 27
1.82263 -1.90885 -0.0454635 35
1.01026 -1.51575 -0.219053 4
1.81812 -1.9035 -0.226805 36
1.58729 -2.38831 -0.758492 12
3.2886 -4.99054 1.36957 56
3.34696 -3.50702 1.28789 11
3.2933 -4.9958 0.94005 52
3.35401 -3.52661 0.938414 9
3.2975 -5.00031 0.520973 36
3.35704 -3.53961 0.593877 11
2.03793 -2.15448 0.153606 29
0.899 -1.36296 -0.0840164 4
1.80401 -1.9093 -0.0452454 36
0.998219 -1.5148 -0.21814 3
1.80436 -1.90969 -0.22637 36
1.58138 -2.40668 -0.761726 12
3.26785 -4.97794 1.36451 42
3.35083 -3.52335 1.29176 11
3.27509 -4.98709 0.937319 44
3.36075 -3.54729 0.942227 11
3.27647 -4.98732 0.519012 14
3.3611 -3.55628 0.595702 9
2.02731 -2.15078 0.153083 29
0.895251 -1.36244 -0.0838851 4
1.79552 -1.907 -0.0451145 36
0.995574 -1.51654 -0.21814 3
1.7959 -1.90741 -0.225718 36
1.57412 -2.40567 -0.760432 12
3.23292 -4.98329 1.36114 41
3.34165 -3.55197 1.29564 9
3.24134 -4.99438 0.935367 42
3.34886 -3.57199 0.944133 11
3.35877 -3.59252 0.598745 9
0.893491 -1.37489 0.0280111 9
2.00882 -2.15443 0.152559 30
0.888105 -1.36711 -0.0838851 11
1.77835 -1.90938 -0.0449399 36
0.990052 -1.52607 -0.218749 4
1.78759 -1.91861 -0.225935 36
1.56019 -2.41185 -0.759786 12
3.21848 -4.97813 1.35833 39
3.34372 -3.5666 1.29887 9
3.22458 -4.98759 0.933026 41
3.35771 -3.59395 0.948422 11
3.36435 -3.61107 0.600875 9
0.889734 -1.37435 0.0279675 12
2.00165 -2.15428 0.152298 30
0.884363 -1.36656 -0.0837538 9
1.7682 -1.90516 -0.0447654 36
0.983351 -1.52154 -0.217836 4
1.78084 -1.91808 -0.2255 36
1.55859 -2.41863 -0.761079 11
3.18712 -4.9867 1.35609 39
3.34207 -3.60116 1.30533 9
3.19264 -4.99344 0.931075 41
3.34949 -3.6217 0.951282 9
3.35613 -3.63899 0.6027 1
0.885458 -1.38304 0.0280547 11
1.98226 -2.15521 0.151643 29
0.875852 -1.36907 -0.0836226 4
1.75684 -1.91225 -0.0447218 38
0.980976 -1.53487 -0.219053 4
1.76739 -1.92371 -0.225066 38
1.54892 -2.43056 -0.762372 11
3.17711 -4.9902 1.35553 4
3.34727 -3.61939 1.30986 9
3.18525 -5.00109 0.931465 3
3.35917 -3.64616 0.956048 11
3.36154 -3.65762 0.60483 9
0.877433 -1.37631 0.0278802 9
1.97004 -2.14947 0.150989 29
0.876141 -1.37481 -0.0838851 4
1.7721 -1.93556 -0.0452017 35
0.979627 -1.53867 -0.219357 4
1.54684 -2.43761 -0.763665 11
3.1734 -5.04444 1.36563 1
3.33416 -3.64457 1.31244 9
3.18444 -5.06005 0.93927 2
3.345 -3.66913 0.957478 9
3.35507 -3.69043 0.607264 9
0.875539 -1.38935 0.0280547 9
1.95167 -2.15271 0.150466 29
0.871588 -1.3836 -0.0841477 4
1.94823 -2.15043 -0.0500448 30
0.972607 -1.54605 -0.219661 4
1.53406 -2.44568 -0.763665 9
3.17841 -5.07006 1.37125 4
3.34408 -3.66821 1.3189 9
3.19354 -5.09225 0.944343 4
3.35181 -3.68949 0.96129 9
3.36095 -3.70855 0.609393 11
0.87444 -1.39299 0.0280984 9
1.94325 -2.15023 0.150073 29
0.867847 -1.383 -0.0840164 8
1.93776 -2.14642 -0.0498702 30
0.974127 -1.55389 -0.220574 4
1.94453 -2.15315 -0.25029 30
0.948561 -1.51479 -0.339982 3
1.53106 -2.4504 -0.764312 4
3.18517 -5.14048 1.38585 18
3.33195 -3.69225 1.32149 11
3.18764 -5.14249 0.950586 21
3.34788 -3.72281 0.96558 9
0.869771 -1.40071 0.141192 62
3.34148 -3.7261 0.609393 9
0.867378 -1.3974 0.0280984 4
1.9253 -2.15294 0.14955 29
0.867164 -1.39814 -0.0846728 4
1.9202 -2.14876 -0.0496957 30
0.964672 -1.55686 -0.22027 4
1.92491 -2.15403 -0.249203 30
0.944753 -1.52583 -0.341411 4
1.171 -1.3114 -0.273279 4
1.51864 -2.45812 -0.764312 4
3.17363 -5.14189 1.38473 14
3.34167 -3.71601 1.32795 9
3.17347 -5.13964 0.949025 17
3.35384 -3.74384 0.969393 9
0.859476 -1.38952 0.139885 12
3.32339 -3.71899 0.607264 9
0.866006 -1.40119 0.028142 3
1.91488 -2.14885 0.149027 30
0.859481 -1.39115 -0.0841477 3
1.91145 -2.14651 -0.0495648 30
0.96716 -1.56699 -0.221487 8
1.91451 -2.14996 -0.248333 30
0.935655 -1.51703 -0.33903 4
1.15553 -1.29872 -0.270147 4
1.52151 -2.47337 -0.768192 4
3.13562 -5.14234 1.38023 14
3.32794 -3.74124 1.33054 9
3.13405 -5.13776 0.945513 14
3.35049 -3.7797 0.974158 9
0.846758 -1.38564 0.139013 3
3.26702 -3.69605 0.60057 9
0.862561 -1.41211 0.0282729 3
1.89496 -2.14983 0.148372 30
0.858681 -1.40629 -0.0848041 4
1.89319 -2.14933 -0.0493903 32
0.959958 -1.57432 -0.221791 4
1.89828 -2.15436 -0.247681 32
0.93126 -1.52836 -0.340459 4
1.15199 -1.30845 -0.27093 4
1.50979 -2.48337 -0.768838 4
3.12122 -5.13685 1.37743 15
3.33745 -3.7651 1.337 9
3.12213 -5.13634 0.944343 14
3.34714 -3.78922 0.975112 9
0.844338 -1.38712 0.139013 11
3.2218 -3.65653 0.593269 9
0.858798 -1.41147 0.0282293 3
1.88662 -2.14719 0.14798 30
0.860112 -1.41419 -0.0851979 4
1.88613 -2.14888 -0.049303 32
0.962632 -1.58431 -0.223008 8
1.88793 -2.15019 -0.246811 32
0.928591 -1.52998 -0.340459 11
1.15134 -1.31231 -0.271321 4
1.50795 -2.49013 -0.770132 4
3.07798 -5.12596 1.37013 14
3.32791 -3.79283 1.34087 9
3.0901 -5.14415 0.942782 15
3.34409 -3.82457 0.979878 9
0.839871 -1.39564 0.139449 4
3.24016 -3.71633 0.600266 9
0.854216 -1.42009 0.0283165 3
1.86879 -2.14951 0.147457 30
0.855264 -1.42296 -0.0854604 4
1.86702 -2.14898 -0.0490849 32
0.955599 -1.59146 -0.223312 8
1.8701 -2.15254 -0.245941 32
0.917052 -1.52835 -0.33903 3
1.14608 -1.32018 -0.271713 4
1.48665 -2.48323 -0.765605 4
3.06528 -5.12506 1.36844 14
3.3372 -3.8168 1.34734 9
3.07098 -5.13258 0.93966 15
3.34642 -3.84208 0.982737 9
0.845106 -1.40993 0.140757 3
3.32002 -3.82118 0.616391 9
0.850205 -1.41958 0.0282729 3
1.86012 -2.14712 0.147064 32
0.855341 -1.42874 -0.085723 4
1.85507 -2.1428 -0.0488667 32
1.85981 -2.14828 -0.245071 32
0.913126 -1.52784 -0.338554 12
1.15187 -1.33149 -0.27367 4
1.48435 -2.49022 -0.766899 4
3.03627 -5.13947 1.36788 11
3.32441 -3.84392 1.35057 9
3.03814 -5.14062 0.938099 15
3.33748 -3.87255 0.986073 9
0.836198 -1.41234 0.140539 3
3.32682 -3.87105 0.621563 3
0.849117 -1.43477 0.0284911 3
1.84034 -2.14769 0.14641 32
0.845309 -1.4289 -0.0854604 4
1.84182 -2.15091 -0.0488231 32
1.84204 -2.15043 -0.244202 32
0.9036 -1.53064 -0.338078 12
1.14489 -1.3375 -0.27367 8
1.46517 -2.48756 -0.763665 4
3.01707 -5.12533 1.36283 12
3.32875 -3.86251 1.35509 9
3.0213 -5.13049 0.935367 15
3.34193 -3.89139 0.98941 9
0.837521 -1.42023 0.141192 3
3.33528 -3.89322 0.624301 1
0.851682 -1.44487 0.0286656 3
1.83371 -2.14678 0.146148 32
0.851673 -1.44543 -0.0863794 4
1.82993 -2.14463 -0.0486049 33
1.8318 -2.14608 -0.243332 32
0.898442 -1.52798 -0.337125 12
1.14577 -1.34325 -0.274453 11
1.46571 -2.49844 -0.766252 4
2.98408 -5.13053 1.36002 14
3.32955 -3.90318 1.36349 9
2.99439 -5.14624 0.935367 15
3.33651 -3.92507 0.993699 9
0.830322 -1.42445 0.141192 3
3.26024 -3.84632 0.613957 1
0.844358 -1.44916 0.0286656 3
1.81438 -2.14683 0.145494 32
0.846602 -1.45419 -0.0866419 4
1.81259 -2.14623 -0.0484304 33
1.81571 -2.14994 -0.242679 33
0.891929 -1.53464 -0.337602 9
1.14031 -1.35111 -0.274845 8
1.44821 -2.49747 -0.763665 4
2.96657 -5.12097 1.35609 15
3.33213 -3.92002 1.36737 9
2.97674 -5.1365 0.932636 15
3.34008 -3.94457 0.997035 9
0.826586 -1.42375 0.140974 3
3.28558 -3.88989 0.620042 1
0.849089 -1.46376 0.0289274 4
1.8074 -2.14618 0.145232 32
0.840311 -1.44918 -0.0862481 4
1.804 -2.14366 -0.0482995 33
1.80553 -2.14549 -0.24181 33
0.881882 -1.52344 -0.334745 3
1.13955 -1.35498 -0.275237 3
1.44703 -2.50652 -0.765605 4
1.57952 -1.87135 -0.556474 3
2.93519 -5.1306 1.3544 15
3.32643 -3.95646 1.37383 9
2.94155 -5.13967 0.930295 15
3.33358 -3.97892 1.00132 9
0.825056 -1.43901 0.142064 3
3.31067 -3.96279 0.628865 4
0.841413 -1.46818 0.0289274 8
1.79096 -2.15018 0.14484 32
0.837669 -1.46223 -0.0867732 4
1.78757 -2.14764 -0.0481686 33
1.12927 -1.35714 -0.274453 3
1.4303 -2.50777 -0.763665 4
1.56781 -1.878 -0.555912 3
2.9211 -5.12462 1.3516 15
3.33039 -3.97521 1.37835 9
2.92614 -5.13141 0.927953 15
3.33923 -3.9998 1.00514 9
0.823776 -1.44261 0.142282 3
3.31239 -3.97751 0.630386 1
0.845036 -1.48051 0.0291455 4
1.77959 -2.1434 0.144186 32
0.83388 -1.46152 -0.0866419 4
1.77742 -2.14307 -0.0479941 32
1.1269 -1.35911 -0.274453 3
1.4283 -2.51446 -0.764959 4
1.56017 -1.87485 -0.554227 3
2.88706 -5.12711 1.34823 15
3.3272 -4.01245 1.38546 9
2.89075 -5.1316 0.925222 15
3.33772 -4.03933 1.01086 9
0.822575 -1.45761 0.143371 3
3.32943 -4.04073 0.637688 1
0.839984 -1.48913 0.0292328 3
0.835043 -1.48095 -0.0875608 4
1.68524 -2.99775 -0.660442 8
1.11034 -1.35357 -0.272104 2
1.41319 -2.51745 -0.763665 4
1.54878 -1.88112 -0.553666 4
2.87781 -5.12951 1.34767 15
3.32789 -4.02755 1.38869 9
2.87213 -5.1194 0.9221 15
3.34003 -4.05651 1.01372 8
0.82003 -1.45904 0.143371 3
3.33656 -4.06378 0.640426 1
0.838606 -1.49277 0.0292764 3
0.837339 -1.49112 -0.0880859 3
1.67282 -2.98784 -0.657585 9
1.10014 -1.34597 -0.270147 3
1.4088 -2.51991 -0.763665 4
1.5393 -1.87629 -0.55142 4
2.83468 -5.1173 1.34037 15
3.32206 -4.0636 1.39516 9
2.8405 -5.12573 0.920539 15
3.33272 -4.09105 1.01801 8
0.818414 -1.47421 0.144461 3
0.82952 -1.49548 -0.0880859 3
1.65596 -2.99441 -0.657109 9
1.09463 -1.35362 -0.270538 3
1.39209 -2.52091 -0.761726 4
1.53099 -1.88622 -0.551981 3
2.82781 -5.12388 1.34093 15
3.32871 -4.08623 1.40097 8
2.87091 -5.20203 0.933416 12
0.814637 -1.47345 0.144243 3
0.831731 -1.50567 -0.088611 3
1.64127 -2.98009 -0.653299 9
1.07983 -1.34018 -0.267406 3
1.38652 -2.52122 -0.761079 4
1.51695 -1.87565 -0.548051 4
2.79422 -5.12841 1.33812 15
2.85662 -5.24085 0.937709 15
1.62096 -2.98002 -0.651395 9
1.07434 -1.34775 -0.267798 3
1.37791 -2.53693 -0.763665 8
1.51016 -1.88736 -0.549174 8
2.785 -5.13065 1.33756 14
2.85218 -5.25451 0.93927 12
1.61108 -2.97421 -0.64949 9
1.07199 -1.34962 -0.267798 4
1.37118 -2.53509 -0.762372 8
1.49925 -1.88049 -0.546366 9
2.7779 -5.1843 1.34767 14
1.58739 -2.96745 -0.646157 9
1.05878 -1.34747 -0.266232 4
1.3613 -2.54862 -0.764312 8
1.48938 -1.88831 -0.546366 9
2.7881 -5.22305 1.35665 14
1.58105 -2.96805 -0.645681 8
1.05949 -1.35319 -0.267015 4
1.35118 -2.54033 -0.761079 8
1.48307 -1.88708 -0.545243 9
2.77229 -5.26177 1.36283 12
3.05479 -5.79582 1.0298 3
1.56092 -2.9676 -0.643776 9
1.05239 -1.35872 -0.267015 4
1.34011 -2.55165 -0.762372 4
1.47316 -1.89482 -0.545243 11
2.7776 -5.292 1.36957 12
3.03664 -5.78584 1.02707 3
1.54892 -2.95727 -0.640919 8
1.04396 -1.35275 -0.265449 4
1.33565 -2.55398 -0.762372 8
1.47434 -1.90316 -0.546928 15
2.76909 -5.3459 1.37967 4
2.98359 -5.7578 1.01927 3
1.52215 -2.94354 -0.636158 9
1.04438 -1.36799 -0.267406 4
1.32226 -2.56094 -0.762372 4
1.46584 -1.91278 -0.547489 44
2.77185 -5.37189 1.38529 3
2.97806 -5.77178 1.02083 4
1.51139 -2.93528 -0.633777 11
1.03599 -1.36197 -0.26584 4
1.31558 -2.55895 -0.761079 4
1.46399 -1.91727 -0.548051 38
2.76042 -5.42155 1.39427 11
2.8705 -5.63545 0.993901 9
1.49378 -2.93877 -0.632824 12
1.02437 -1.36147 -0.264666 8
1.30217 -2.5658 -0.761079 4
1.45098 -1.92103 -0.546928 9
2.77518 -5.47417 1.40663 9
2.8774 -5.67349 0.999754 8
1.47204 -2.90852 -0.625682 11
1.02348 -1.36523 -0.265057 8
1.30268 -2.57908 -0.764312 4
2.83893 -5.67352 0.997023 12
2.11572 -2.84956 -0.0613452 9
1.45519 -2.91425 -0.625206 9
1.01337 -1.36661 -0.264274 8
1.28808 -2.5837 -0.763665 4
3.31177 -4.46085 0.676935 15
3.17843 -4.28779 0.277904 35
2.1033 -2.84321 -0.061127 9
1.44573 -2.90799 -0.623301 9
1.0154 -1.37432 -0.265449 8
1.28357 -2.58595 -0.763665 8
2.97021 -6.03841 1.0579 20
3.29936 -4.48002 1.07377 15
3.30307 -4.49812 0.679977 15
2.46932 -5.01961 0.0970354 42
3.13377 -4.27419 0.275941 26
2.04155 -2.78934 -0.0597309 9
2.01697 -2.75486 -0.295086 4
1.43099 -2.91527 -0.623301 11
1.00673 -1.37763 -0.265057 8
1.26728 -2.5859 -0.761726 8
3.15354 -6.43965 1.64471 15
3.29431 -4.47328 1.47722 15
2.94989 -6.02363 1.05439 17
3.30026 -4.49764 1.07663 15
3.31722 -4.5339 0.684541 15
2.45286 -5.0082 0.09673 33
3.12631 -4.27965 0.275941 50
2.03963 -2.79693 -0.0598181 9
2.01068 -2.75637 -0.294869 4
1.42698 -2.91997 -0.623777 9
1.00578 -1.38137 -0.265449 4
1.26594 -2.59462 -0.763665 4
3.13877 -6.4983 1.65538 15
3.29078 -4.51777 1.48627 15
2.91402 -6.03009 1.05282 15
3.29976 -4.54662 1.08425 15
2.91277 -6.02486 0.582418 20
3.30654 -4.56928 0.687279 15
1.35859 -2.81221 -0.162388 9
2.00005 -2.77314 -0.0590764 8
1.94757 -2.70062 -0.287693 9
1.42019 -2.94509 -0.627587 9
0.997084 -1.38462 -0.265057 4
1.2471 -2.59033 -0.760432 4
3.1517 -6.55427 1.6683 15
3.29425 -4.53914 1.49144 15
2.90028 -6.02849 1.05165 15
3.30973 -4.57879 1.09045 15
2.89793 -6.02096 0.581547 23
3.30873 -4.58913 0.689408 14
2.96638 -4.12116 0.264297 27
2.00251 -2.78677 -0.0592945 8
1.90645 -2.6535 -0.282256 33
1.41505 -2.94756 -0.627587 11
0.990331 -1.38035 -0.263883 4
1.24525 -2.59926 -0.762372 4
1.1129 -1.54684 -0.431253 26
3.1454 -6.63287 1.68402 24
3.28656 -4.58043 1.49919 14
2.84857 -6.00394 1.04463 15
3.30715 -4.62598 1.0976 15
2.85784 -6.0208 0.580021 26
3.29683 -4.62514 0.692147 14
1.36354 -2.87225 0.0548878 14
2.92664 -4.11276 0.262726 32
1.29936 -2.73815 -0.157531 3
1.99176 -2.80367 -0.0594254 4
1.8853 -2.6533 -0.281169 41
1.40853 -2.97514 -0.631872 11
0.984524 -1.38753 -0.264274 4
1.23059 -2.60356 -0.761726 3
1.1031 -1.55086 -0.430691 15
3.1381 -6.64441 1.6857 36
3.29684 -4.61168 1.5076 14
2.83914 -6.0084 1.04463 14
3.31047 -4.64773 1.10141 14
2.84201 -6.01452 0.578932 21
3.30971 -4.65861 0.696406 14
1.35959 -2.87689 0.0549314 18
2.91729 -4.11328 0.262465 39
1.32654 -2.80815 -0.161469 27
1.9912 -2.81326 -0.0595563 3
1.87202 -2.64441 -0.279864 41
1.40438 -2.97982 -0.632348 11
0.979239 -1.38522 -0.263491 3
1.22502 -2.60352 -0.761079 3
3.09504 -6.64308 1.68121 32
3.28602 -4.64604 1.51341 14
3.30814 -4.6945 1.10856 14
3.30098 -4.6982 0.699753 14
1.32812 -2.84748 0.0542333 18
2.87705 -4.10195 0.260764 35
1.30339 -2.79695 -0.160419 11
1.85958 -2.65621 -0.280082 49
1.39238 -2.99357 -0.633777 11
0.980496 -1.40245 -0.26584 3
1.21284 -2.61187 -0.761726 3
3.07934 -6.63963 1.67897 30
3.28487 -4.66164 1.51664 14
3.31323 -4.72092 1.11332 14
3.31415 -4.73443 0.704316 30
1.32686 -2.85909 0.0544079 11
1.30481 -2.81281 -0.161206 8
1.84494 -2.64517 -0.278559 49
1.38406 -2.98931 -0.632348 9
0.976629 -1.40213 -0.265449 3
1.21086 -2.62078 -0.763665 3
3.03831 -6.64512 1.67616 30
3.28586 -4.71697 1.52892 14
3.30528 -4.76238 1.11904 41
3.3111 -4.78492 0.709184 47
1.2838 -2.80462 0.0532298 8
1.2911 -2.82188 -0.161338 8
1.82257 -2.6425 -0.277255 26
1.37601 -3.01462 -0.636158 9
0.972087 -1.41129 -0.266232 3
1.19612 -2.62488 -0.763019 4
3.02081 -6.63436 1.67223 29
3.29417 -4.74649 1.53667 39
3.30954 -4.7863 1.12333 49
3.32333 -4.8187 0.713443 47
1.26027 -2.76591 0.0524445 8
3.29338 -4.78245 0.302502 14
1.28514 -2.82186 -0.161206 8
1.19154 -2.62697 -0.763019 4
3.29747 -4.8029 1.5496 45
3.30885 -4.8374 1.13143 47
3.31485 -4.86062 0.717094 47
1.24421 -2.76769 0.0523572 12
3.2908 -4.83262 0.304595 8
1.27084 -2.82832 -0.161206 8
1.1802 -2.63737 -0.764312 4
3.3041 -4.83056 1.55671 47
2.22001 -4.96411 0.853811 2
3.31563 -4.86547 1.13668 47
3.32032 -4.88691 0.720137 47
1.23428 -2.75845 0.0521391 18
1.26285 -2.8237 -0.160813 8
1.51901 -3.40512 -0.71663 14
1.17069 -2.6284 -0.761079 4
3.30044 -4.87978 1.56705 47
2.20394 -4.99826 0.857713 2
3.30109 -4.89903 1.14049 47
3.30993 -4.92687 0.723483 49
1.20671 -2.73514 0.0515719 9
1.24856 -2.83278 -0.160944 11
0.907143 -1.35956 -0.0279238 8
1.52387 -3.46471 -0.727581 12
1.16079 -2.64334 -0.763665 4
3.30543 -4.90555 1.57351 47
3.31769 -4.94406 1.14955 50
1.27613 -2.90503 0.274541 15
3.31929 -4.95944 0.727438 53
1.20648 -2.74889 0.05179 9
1.2396 -2.8258 -0.160419 11
0.90199 -1.35699 -0.0278366 4
1.51487 -3.46062 -0.726153 9
1.15571 -2.64556 -0.763665 4
3.2976 -4.95149 1.58256 50
3.30942 -4.98793 1.15574 56
1.24656 -2.87989 0.27149 12
3.30063 -4.98974 0.729264 55
1.18513 -2.73911 0.0514846 9
1.23172 -2.8483 -0.161338 12
0.896013 -1.36393 -0.0278802 9
1.50972 -3.50032 -0.732819 8
1.1428 -2.65379 -0.764312 3
3.29965 -4.97333 1.58772 55
3.30207 -4.99575 1.15622 52
1.22873 -2.85232 0.268658 9
3.28235 -4.98099 0.727134 44
1.18034 -2.74118 0.0514846 9
1.2297 -2.85733 -0.161732 24
0.893631 -1.36549 -0.0278802 9
2.14869 -5.00251 -0.663244 32
1.53843 -3.58415 -0.749961 8
1.13531 -2.64912 -0.762372 3
2.81283 -6.63266 1.65257 42
3.27311 -4.98795 1.58708 47
2.81264 -6.62902 1.13243 45
3.26195 -4.98981 1.15097 42
1.21428 -2.8585 0.268658 11
3.24896 -4.98507 0.725309 41
1.16841 -2.75172 0.0515719 9
1.2162 -2.86581 -0.161863 15
0.885344 -1.3679 -0.0278366 8
2.11754 -4.99961 -0.661418 35
1.12095 -2.65261 -0.761726 3
2.79862 -6.62809 1.65033 44
3.25117 -4.97345 1.58062 39
2.79722 -6.62481 1.13087 45
3.24787 -4.98728 1.14907 41
1.20735 -2.85603 0.268222 11
3.23078 -4.97618 0.723179 39
1.1636 -2.75375 0.0515719 9
0.891887 -1.38217 0.0843917 8
1.19373 -2.82652 -0.1595 8
0.885676 -1.37364 -0.0279238 8
2.10689 -4.99872 -0.66081 36
1.11539 -2.65234 -0.761079 3
2.75991 -6.63639 1.64864 44
3.22377 -4.98838 1.57997 38
2.75965 -6.63253 1.1297 44
3.2102 -4.98828 1.14526 39
1.18568 -2.84622 0.266697 11
3.202 -4.98885 0.722571 35
1.1506 -2.76463 0.0516591 29
0.884638 -1.38682 0.0843917 4
1.18129 -2.83986 -0.159894 8
0.882279 -1.38473 -0.0280547 8
2.07498 -4.99594 -0.658984 39
1.10194 -2.66056 -0.761726 4
2.7446 -6.63219 1.6464 36
3.21288 -4.99253 1.57932 39
2.74503 -6.63325 1.12892 41
3.19618 -4.98561 1.14335 32
1.18117 -2.85079 0.266914 11
3.20847 -5.02007 0.726222 1
1.14387 -2.76201 0.0515719 12
0.880629 -1.38641 0.0842609 11
1.15582 -2.79367 -0.157137 9
0.878516 -1.38416 -0.0280111 8
2.06065 -4.98844 -0.657463 39
1.095 -2.65821 -0.760432 4
2.70177 -6.63661 1.64359 30
3.17976 -5.00225 1.57674 26
2.69956 -6.6279 1.12541 32
3.19195 -5.04069 1.15193 1
1.16241 -2.85042 0.266261 9
3.20028 -5.06937 0.730785 1
1.12937 -2.77067 0.0516155 9
0.872873 -1.39131 0.0842609 9
1.14633 -2.81375 -0.157925 8
0.868104 -1.38481 -0.0279238 4
2.03369 -5.00217 -0.657767 42
1.08513 -2.67529 -0.763665 4
2.68494 -6.62504 1.63966 30
3.17361 -5.01187 1.57803 3
2.68613 -6.62802 1.12463 33
3.19757 -5.06907 1.15717 3
1.1593 -2.85706 0.266697 9
1.12453 -2.77264 0.0516155 9
0.866455 -1.38649 0.0838684 9
1.13955 -2.81112 -0.157662 12
0.871006 -1.39479 -0.0280984 3
2.01659 -4.98501 -0.655029 33
0.864144 -1.38336 -0.139388 3
1.47831 -3.65705 -0.758532 4
1.08226 -2.68166 -0.764959 3
2.64364 -6.62589 1.63629 30
3.1563 -5.04274 1.58256 20
2.64407 -6.62364 1.1215 33
3.19309 -5.12113 1.16527 12
1.14156 -2.85615 0.266043 9
1.1137 -2.78777 0.05179 8
0.863138 -1.39737 0.0842609 4
1.12759 -2.82401 -0.158056 12
0.862372 -1.39721 -0.0280547 3
0.858203 -1.38998 -0.139606 3
1.46005 -3.66703 -0.759008 4
1.06643 -2.6828 -0.763665 4
2.63233 -6.62777 1.63573 30
3.13598 -5.0298 1.57674 38
2.63093 -6.6209 1.12033 33
3.20359 -5.15795 1.17242 18
1.13841 -2.86277 0.266479 9
0.869839 -1.41092 0.198973 9
1.10883 -2.78971 0.05179 9
0.862257 -1.40085 0.0843917 4
1.12173 -2.82365 -0.157925 3
0.863878 -1.40509 -0.0281856 3
0.859709 -1.39783 -0.140258 3
1.45274 -3.66729 -0.758532 4
1.06263 -2.6869 -0.764312 3
2.59227 -6.62785 1.63236 32
3.10414 -5.03534 1.57351 36
2.49909 -6.38622 1.07819 1
3.16844 -5.15947 1.16909 15
1.12754 -2.87777 0.26735 8
0.863737 -1.41757 0.199277 9
1.09925 -2.80693 0.0520082 9
0.85491 -1.40534 0.0843917 4
1.11288 -2.84324 -0.158712 2
0.855451 -1.40731 -0.028142 3
1.15617 -2.95854 -0.385168 11
0.856523 -1.40854 -0.140911 3
1.43506 -3.67688 -0.759008 3
1.04727 -2.68774 -0.763019 3
1.56827 -2.56246 -0.684502 17
2.5792 -6.6251 1.63068 32
3.08775 -5.02841 1.56963 39
2.57684 -6.61565 1.11643 33
3.14405 -5.13988 1.16337 14
1.12432 -2.88438 0.267786 4
0.860215 -1.41681 0.198973 9
1.1007 -2.82515 0.0523136 8
0.855302 -1.41094 0.0846534 4
1.12149 -2.88008 -0.160681 3
0.855595 -1.41307 -0.0282293 3
1.15871 -2.97886 -0.387602 9
0.85536 -1.41216 -0.141128 3
1.42686 -3.6748 -0.758056 3
1.04432 -2.69407 -0.764312 3
2.53838 -6.62259 1.62674 32
3.05724 -5.03572 1.56705 38
2.54129 -6.62674 1.11604 33
3.10909 -5.14103 1.16003 14
1.10614 -2.88073 0.266914 8
0.854068 -1.42342 0.199277 8
1.08996 -2.84002 0.0524881 8
0.850482 -1.41968 0.0849151 3
1.10601 -2.88339 -0.16055 2
0.851012 -1.42167 -0.0283165 3
