# .PCD v0.7 - Point Cloud Data file format
VERSION 0.7
FIELDS x y z intensity
SIZE 4 4 4 4
TYPE F F F F
COUNT 1 1 1 1
WIDTH 1514
HEIGHT 1
VIEWPOINT 0 0 0 1 0 0 0
POINTS 1514
DATA ascii
-1.69902 -0.569383 -0.0306726 53
-0.824516 -0.12522 -0.0979654 53
-0.836531 -0.277769 -0.0739346 53
-0.820756 -0.124369 -0.154278 52
-0.824784 -0.274406 -0.132333 47
-0.822574 -0.124073 -0.213387 50
-0.813934 -0.271633 -0.189796 44
-7.1329 -1.06363 1.65426 14
-7.30283 -1.09022 1.16131 39
-7.01999 -1.04929 0.617934 1
-3.14978 -1.0574 0.403118 3
-1.70015 -0.567118 0.0921113 49
-0.661592 -0.0998042 -0.033344 55
-1.69291 -0.564027 -0.0305417 55
-0.834654 -0.275515 -0.0737171 55
-0.816116 -0.122218 -0.153325 52
-0.820581 -0.271389 -0.13155 47
-0.822811 -0.122493 -0.213387 50
-0.812099 -0.269432 -0.189235 45
-7.07344 -1.01568 1.6391 26
-7.02508 -1.00999 1.11604 1
-7.00831 -1.00881 0.616409 1
-1.69609 -0.55556 0.0917188 49
-0.667048 -0.0970475 -0.0336066 55
-1.69118 -0.553293 -0.0304544 53
-0.836085 -0.271141 -0.0737171 53
-0.821625 -0.118493 -0.154278 52
-0.824335 -0.267865 -0.131941 49
-0.82105 -0.117844 -0.21274 50
-0.815857 -0.265802 -0.189796 45
-7.0702 -1.00389 1.63798 26
-7.01933 -0.99791 1.11487 1
-7.00759 -0.996231 0.616191 1
-1.69458 -0.552116 0.0915879 49
-0.672161 -0.0965832 -0.0338691 55
-1.6969 -0.551899 -0.0305417 53
-0.818206 -0.116979 -0.0970526 52
-0.838923 -0.270458 -0.0739346 53
-0.8194 -0.116716 -0.153802 52
-0.824801 -0.266426 -0.131941 47
-0.818863 -0.116076 -0.212093 50
-0.81396 -0.263756 -0.189235 45
-7.07295 -0.966524 1.63741 26
-7.0269 -0.961478 1.11526 1
-7.01007 -0.960413 0.615973 1
-7.05538 -2.27922 0.904811 1
-1.69745 -0.543235 0.0915879 49
-0.66522 -0.0921673 -0.0334753 55
-1.69253 -0.541001 -0.0304108 52
-0.818807 -0.112694 -0.0970526 53
-0.830801 -0.263148 -0.0730648 55
-0.812684 -0.111579 -0.152373 50
-0.821486 -0.260584 -0.131158 49
-0.81944 -0.11193 -0.212093 49
-0.81533 -0.25949 -0.189235 45
-7.0648 -0.95411 1.63517 26
-7.01633 -0.947562 1.11331 1
-6.94399 -2.24044 1.41024 1
-7.0068 -0.94751 0.615537 1
-7.09241 -2.27754 0.90907 1
-3.11113 -0.420934 0.0541897 35
-1.6984 -0.540272 0.0915879 50
-0.670328 -0.0916726 -0.0337378 55
-1.69347 -0.538046 -0.0304108 52
-0.823922 -0.111924 -0.0976611 53
-0.836002 -0.26322 -0.0734997 53
-0.817743 -0.110811 -0.153325 50
-0.824291 -0.259905 -0.13155 49
-0.81724 -0.110181 -0.211447 47
-0.808826 -0.255823 -0.18755 44
-7.0676 -0.914326 1.63461 26
-6.97075 -2.22086 1.94831 1
-7.02136 -0.909586 1.11331 1
-7.23905 -2.29268 1.46791 42
-7.00936 -0.909266 0.61532 1
-7.0999 -2.23764 0.908461 1
-3.10841 -0.403454 0.0541025 30
-1.7013 -0.531075 0.0915879 50
-0.663386 -0.087085 -0.033344 55
-1.69398 -0.528125 -0.0303672 53
-0.824515 -0.107465 -0.0976611 53
-0.835038 -0.257945 -0.0732822 53
-0.813462 -0.10576 -0.152373 50
-0.823286 -0.254843 -0.131158 47
-0.825011 -0.106675 -0.213387 50
-0.810198 -0.251443 -0.18755 45
-7.06178 -0.902298 1.63292 27
-6.99073 -2.2138 1.95283 1
-7.01788 -0.89793 1.11253 1
-7.23368 -2.27708 1.466 38
-7.01093 -0.897031 0.61532 1
-7.31883 -2.29416 0.936147 32
-3.10911 -0.398028 0.0541025 18
-1.69975 -0.527655 0.0914571 50
-0.658584 -0.085296 -0.0330815 55
-1.6949 -0.525168 -0.0303672 55
-0.822221 -0.105857 -0.0973569 55
-0.828357 -0.254255 -0.0726299 53
-0.813645 -0.10434 -0.152373 52
-0.826085 -0.254144 -0.13155 49
-0.822799 -0.104933 -0.21274 50
-0.815239 -0.251634 -0.188673 47
-7.06883 -0.865606 1.63348 27
-7.24393 -2.25388 2.02068 38
-7.02248 -0.861173 1.11253 1
-7.23573 -2.23754 1.4641 32
-7.01044 -0.860928 0.614884 1
-7.32837 -2.25508 0.935843 32
-3.1086 -0.381983 0.0540588 24
-1.7001 -0.518014 0.0913262 50
-0.666442 -0.0828704 -0.0334753 55
-1.69753 -0.516582 -0.0303672 55
-0.822764 -0.10155 -0.0973569 55
-0.829633 -0.250059 -0.0726299 53
-0.814163 -0.100221 -0.152373 52
-0.825045 -0.249089 -0.131158 49
-0.82332 -0.100767 -0.21274 49
-0.816546 -0.247362 -0.188673 47
-6.84525 -0.827362 1.58126 1
-7.23863 -2.23838 2.0181 33
-7.01417 -0.847732 1.11097 1
-7.22321 -2.21985 1.46076 30
-7.00204 -0.847496 0.614012 1
-7.32755 -2.24083 0.935235 32
-3.10926 -0.376556 0.0540588 29
-1.69861 -0.514316 0.0911954 50
-0.664107 -0.0814085 -0.033344 56
-1.69365 -0.512159 -0.0302799 53
-0.82294 -0.100114 -0.0973569 55
-0.825305 -0.247155 -0.0721949 53
-0.816774 -0.0990912 -0.152849 52
-0.823117 -0.246926 -0.130767 49
-0.821097 -0.0990451 -0.212093 50
-0.807662 -0.243074 -0.186427 45
-7.06502 -0.815121 1.63124 27
-7.23638 -2.19623 2.01422 33
-7.01851 -0.810994 1.11097 1
-7.23004 -2.18058 1.45981 32
-7.00638 -0.810822 0.614012 1
-7.32493 -2.19814 0.933409 32
-3.11119 -0.360271 0.0540588 30
-1.69889 -0.504698 0.0910646 50
-0.664538 -0.0778142 -0.033344 56
-1.68912 -0.501132 -0.030149 53
-0.818522 -0.0952385 -0.0967484 55
-0.831401 -0.244116 -0.0726299 53
-0.812404 -0.0942559 -0.151897 52
-0.822034 -0.241902 -0.130375 47
-0.819205 -0.094472 -0.211447 50
-0.813588 -0.240248 -0.18755 49
-7.06401 -0.802515 1.63068 27
-7.23558 -2.1822 2.01293 33
-7.01256 -0.797907 1.1098 1
-7.22481 -2.16387 1.4579 32
-7.00284 -0.798029 0.613576 1
-7.32162 -2.18323 0.932496 32
-3.11188 -0.354298 0.0540588 29
-1.69738 -0.501018 0.0909337 50
-0.659711 -0.0760924 -0.0330815 55
-1.69479 -0.499609 -0.0302363 56
-0.816222 -0.0935314 -0.0964442 55
-0.822278 -0.239822 -0.07176 52
-0.812568 -0.0928378 -0.151897 52
-0.820089 -0.239761 -0.129984 49
-0.819384 -0.0928991 -0.211447 50
-0.814006 -0.238828 -0.18755 47
-7.06098 -0.763499 1.62899 26
-7.23802 -2.14027 2.01034 33
-7.01677 -0.759954 1.1098 1
-7.23839 -2.1267 1.45838 33
-7.27942 -0.78962 0.637544 36
-7.32142 -2.14009 0.930975 32
-3.10872 -0.337462 0.0539716 27
-1.70006 -0.491828 0.0909337 50
-0.6601 -0.0726372 -0.0330815 56
-1.69267 -0.489032 -0.030149 56
-0.82165 -0.0896438 -0.0970526 55
-0.821132 -0.234815 -0.0715426 52
-0.815498 -0.0887013 -0.152373 53
-0.818963 -0.23477 -0.129592 49
-0.81986 -0.0886075 -0.211447 50
-0.817624 -0.235107 -0.188112 47
-7.06702 -0.752922 1.63011 26
-7.2348 -2.12559 2.0084 33
-7.00813 -0.747885 1.10824 1
-7.22561 -2.10924 1.45504 33
-7.00342 -0.74737 0.613141 1
-7.31286 -2.12512 0.929454 33
-3.10433 -0.331507 0.0538843 21
-1.69604 -0.487763 0.090672 50
-0.657744 -0.0712214 -0.0329502 56
-1.69352 -0.486077 -0.030149 55
-0.819322 -0.088092 -0.0967484 55
-0.826324 -0.234769 -0.0719775 52
-0.818093 -0.0875348 -0.152849 52
-0.821743 -0.23403 -0.129984 49
-0.817611 -0.0869253 -0.2108 50
-0.810977 -0.231774 -0.186427 47
-6.8503 -0.693621 1.57901 1
-7.24082 -2.0876 2.00711 33
-7.00704 -0.710683 1.10746 1
-7.23147 -2.07129 1.45409 33
-7.27967 -0.739551 0.637109 38
-7.31434 -2.08407 0.928237 32
-3.10348 -0.315538 0.0538407 17
-1.69377 -0.477508 0.0904104 50
-0.660591 -0.0680271 -0.0330815 58
-1.69355 -0.476815 -0.0301054 59
-0.817303 -0.0835527 -0.0964442 55
-0.81796 -0.227714 -0.0711077 52
-0.811199 -0.0826591 -0.151421 53
-0.820582 -0.229047 -0.129592 49
-0.820444 -0.0830249 -0.211447 49
-0.816863 -0.228866 -0.18755 47
-6.8515 -0.681664 1.57901 1
-7.23517 -2.07229 2.00453 33
-7.0009 -0.697719 1.10629 1
-7.22835 -2.05538 1.45266 33
-7.2859 -0.727338 0.637544 32
-7.3132 -2.06995 0.927629 32
-3.10906 -0.310074 0.0539279 14
-1.6946 -0.474551 0.0904104 50
-0.663193 -0.0671202 -0.0332127 58
-1.69438 -0.473858 -0.0301054 76
-0.817448 -0.0821261 -0.0964442 56
-0.820753 -0.226963 -0.0713251 52
-0.8089 -0.0810029 -0.150945 52
-0.820981 -0.227614 -0.129592 49
-0.815794 -0.0809808 -0.210153 50
-0.810232 -0.22544 -0.185866 47
-6.85509 -0.644584 1.57901 1
-7.23698 -2.0305 2.00194 33
-6.9972 -0.659137 1.10512 1
-7.23429 -2.01619 1.45171 33
-7.28477 -0.68744 0.637109 38
-7.31951 -2.02902 0.92702 33
-3.10317 -0.293089 0.053797 12
-1.69233 -0.464042 0.0901487 52
-1.69692 -0.464684 -0.0301054 90
-0.81788 -0.0777021 -0.0964442 55
-0.81713 -0.221333 -0.0708902 50
-0.816657 -0.0773065 -0.152373 52
-0.819782 -0.222652 -0.129201 49
-0.818612 -0.0769301 -0.2108 50
-0.813787 -0.221707 -0.186427 47
-6.93614 -0.6412 1.59755 1
-7.23586 -2.01657 2.00065 33
-7.00068 -0.648372 1.10551 1
-7.2307 -2.00159 1.45028 35
-7.27852 -0.674037 0.636455 36
-7.31551 -2.01554 0.926107 35
-3.10368 -0.287672 0.053797 11
-1.69306 -0.461384 0.0901487 53
-1.69532 -0.461059 -0.0300618 90
-0.81553 -0.0761906 -0.0961399 56
-0.815114 -0.219246 -0.0706728 50
-0.814347 -0.0756582 -0.151897 52
-0.817789 -0.220564 -0.128809 49
-0.818745 -0.0755012 -0.2108 50
-0.814134 -0.220428 -0.186427 45
-7.07531 -0.616692 1.62899 1
-7.23432 -1.97673 1.99742 33
-7.00398 -0.611708 1.10551 1
-7.236 -1.96368 1.44932 35
-7.28432 -0.637405 0.636673 36
-7.32117 -1.97591 0.925499 35
-3.09763 -0.271308 0.0536661 11
-1.69304 -0.451862 0.0900178 52
-1.69763 -0.452473 -0.0300618 83
-0.813446 -0.0717058 -0.0958357 55
-0.813808 -0.214469 -0.0704553 50
-0.817165 -0.0717459 -0.152373 53
-0.818933 -0.216279 -0.128809 50
-0.816711 -0.0711508 -0.210153 50
-0.808223 -0.214248 -0.184742 47
-7.07627 -0.605578 1.62899 1
-7.23543 -1.96347 1.99677 33
-6.99519 -0.598643 1.10394 1
-7.22757 -1.94784 1.44694 35
-7.27798 -0.624054 0.636019 38
-7.31742 -1.9612 0.924586 35
-3.0956 -0.265689 0.0536225 11
-1.69141 -0.44826 0.089887 52
-1.69359 -0.448217 -0.0299745 79
-0.811097 -0.0700766 -0.0955314 56
-0.814181 -0.213049 -0.0704553 50
-0.814843 -0.0701134 -0.151897 53
-0.819309 -0.214849 -0.128809 50
-0.816833 -0.0697252 -0.210153 52
-0.808596 -0.212838 -0.184742 47
-7.06973 -0.566506 1.62674 1
-7.23395 -1.92245 1.99354 33
-7.00316 -0.562402 1.10472 1
-7.23056 -1.90809 1.44551 35
-7.27866 -0.585739 0.635801 36
-7.31799 -1.92033 0.923369 35
-3.09695 -0.249477 0.0536225 11
-1.68891 -0.438131 0.0896253 52
-1.69108 -0.438076 -0.0298872 76
-0.8164 -0.0662216 -0.0961399 56
-0.812913 -0.208009 -0.0702379 49
-0.810306 -0.0654591 -0.150945 53
-0.822811 -0.211184 -0.129201 49
-0.81478 -0.0652587 -0.209507 50
-0.809699 -0.208601 -0.184742 45
-7.06343 -0.553597 1.62506 1
-7.22095 -1.90549 1.98902 32
-6.99674 -0.5496 1.10355 1
-7.22709 -1.89234 1.44408 35
-7.27967 -0.573034 0.635801 36
-7.31413 -1.90568 0.922457 33
-3.09493 -0.243336 0.0535789 11
-1.68967 -0.435183 0.0896253 52
-0.659476 -0.0528284 -0.0329502 56
-1.68458 -0.433236 -0.0297564 76
-0.811567 -0.0644124 -0.0955314 56
-0.810864 -0.205963 -0.0700204 49
-0.807972 -0.0638556 -0.150468 53
-0.8184 -0.208501 -0.128418 49
-0.812496 -0.0635104 -0.20886 50
-0.810062 -0.207187 -0.184742 47
-7.07361 -0.515902 1.62674 1
-7.22648 -1.86519 1.98773 33
-6.99715 -0.511557 1.10316 1
-7.22739 -1.85203 1.44217 35
-7.28018 -0.533458 0.635583 36
-7.31952 -1.86485 0.921848 35
-3.10863 -0.228036 0.053797 8
-1.68958 -0.425418 0.0894945 52
-0.659743 -0.0493746 -0.0329502 56
-1.67479 -0.421035 -0.0295382 15
-0.811903 -0.0600205 -0.0955314 56
-0.811932 -0.201715 -0.0700204 50
-0.810754 -0.0596591 -0.150945 53
-0.817124 -0.20346 -0.128026 49
-0.815226 -0.0594267 -0.209507 50
-0.813531 -0.203406 -0.185304 47
-7.07198 -0.504617 1.62618 1
-7.21802 -1.84957 1.98449 32
-6.99311 -0.498993 1.10238 1
-7.21872 -1.83638 1.43979 33
-7.27862 -0.520573 0.635365 35
-7.31074 -1.84902 0.920327 33
-3.15889 -0.226159 0.0546697 2
-1.6879 -0.421857 0.0893636 52
-0.662319 -0.0483999 -0.0330815 58
-0.812007 -0.0586034 -0.0955314 56
-0.805038 -0.198467 -0.069368 49
-0.813305 -0.0584156 -0.151421 53
-0.817477 -0.202033 -0.128026 50
-0.817738 -0.058171 -0.210153 52
-0.809163 -0.200785 -0.184181 47
-7.06974 -0.466028 1.62506 1
-7.22293 -1.81057 1.9832 33
-6.99562 -0.462371 1.10238 1
-7.22585 -1.79796 1.43931 35
-7.28125 -0.482456 0.635365 35
-7.3131 -1.80893 0.919414 35
-3.21241 -0.213067 0.0555859 2
-1.69008 -0.413013 0.0893636 52
-0.657581 -0.0446039 -0.0328189 58
-0.809826 -0.0541895 -0.0952272 56
-0.806067 -0.194249 -0.069368 49
-0.81115 -0.0539975 -0.150945 53
-0.820886 -0.198487 -0.128418 49
-0.815621 -0.0537339 -0.209507 50
-0.814932 -0.197722 -0.185304 47
-7.08019 -0.455546 1.62731 1
-7.22139 -1.79679 1.98191 33
-6.99881 -0.45154 1.10277 1
-7.21707 -1.7824 1.43693 35
-7.27462 -0.469267 0.634712 35
-7.31111 -1.79625 0.918806 35
-1.68588 -0.409167 0.089102 53
-0.650183 -0.042978 -0.0324251 56
-0.809911 -0.0529174 -0.0952272 56
-0.796729 -0.190469 -0.0684982 47
-0.808794 -0.0524272 -0.150468 53
-0.816436 -0.195875 -0.127635 50
-0.813303 -0.05216 -0.20886 50
-0.808146 -0.194688 -0.183619 47
-6.96818 -0.411737 1.60091 1
-7.2257 -1.75907 1.98062 33
-6.99368 -0.414451 1.1016 1
-7.21407 -1.74296 1.43455 33
-7.27939 -0.432588 0.63493 33
-7.09606 -1.70391 0.890511 1
-1.688 -0.400334 0.089102 52
-0.652885 -0.0398334 -0.0325564 58
-1.56619 -0.370518 -0.0274875 18
-0.812654 -0.0488205 -0.0955314 56
-0.800105 -0.187015 -0.0687157 45
-0.809049 -0.0483329 -0.150468 53
-0.819851 -0.192174 -0.128026 49
-0.818379 -0.0483191 -0.210153 52
-0.811522 -0.191026 -0.184181 49
-6.8618 -0.394658 1.57621 1
-7.21702 -1.74361 1.97739 33
-7.2779 -0.418492 1.14648 39
-7.21472 -1.72979 1.43407 35
-7.27267 -0.419454 0.634276 33
-7.29692 -1.73882 0.915459 32
-1.67898 -0.395073 0.0885786 52
-0.650461 -0.0385514 -0.0324251 58
-1.56927 -0.368362 -0.0275312 20
-0.807783 -0.0471216 -0.094923 56
-0.788316 -0.182734 -0.0676284 42
-0.814033 -0.0471965 -0.151421 53
-0.815382 -0.189597 -0.127243 49
-0.811228 -0.0464888 -0.208214 50
-0.804748 -0.187906 -0.182496 47
-6.85411 -0.357022 1.57396 1
-7.219 -1.70413 1.97545 33
-7.27753 -0.380251 1.14609 38
-7.21412 -1.68974 1.43217 33
-7.28969 -0.382148 0.635583 33
-7.30593 -1.70059 0.915459 33
-1.68589 -0.387408 0.0888403 53
-0.653147 -0.0352744 -0.0325564 59
-1.57117 -0.36014 -0.0275312 24
-0.810497 -0.0430187 -0.0952272 56
-0.786836 -0.17804 -0.0674109 44
-0.809367 -0.0426835 -0.150468 53
-0.813959 -0.184765 -0.126852 50
-0.809049 -0.0421193 -0.207567 50
-0.810464 -0.1848 -0.183619 49
-6.86683 -0.346867 1.57677 1
-7.21726 -1.69043 1.97416 33
-7.27571 -0.367425 1.1457 36
-7.20989 -1.67548 1.43074 35
-7.29035 -0.369425 0.635583 32
-7.30405 -1.68672 0.91485 33
-1.67927 -0.38278 0.0884478 55
-0.648221 -0.0338844 -0.0322938 59
-1.57667 -0.35852 -0.0276184 23
-0.81057 -0.0416041 -0.0952272 56
-0.782292 -0.175547 -0.066976 42
-0.806989 -0.0411501 -0.149992 53
-0.816686 -0.1839 -0.127243 50
-0.816357 -0.0410586 -0.209507 50
-0.808413 -0.182834 -0.183058 47
-6.86622 -0.308401 1.57621 1
-7.2216 -1.65027 1.97286 33
-7.28253 -0.328276 1.14648 38
-7.20928 -1.63427 1.42883 35
-7.2798 -0.329414 0.634494 33
-7.08555 -1.59577 0.886252 1
-1.68619 -0.374786 0.0887094 55
-0.653382 -0.0305997 -0.0325564 59
-0.810784 -0.0372179 -0.0952272 56
-0.775941 -0.169672 -0.0663237 41
-0.809651 -0.0368908 -0.150468 52
-0.81282 -0.178534 -0.12646 50
-0.814155 -0.036537 -0.20886 50
-0.80939 -0.178458 -0.183058 49
-6.87157 -0.297826 1.57733 1
-7.2174 -1.63606 1.97092 33
-7.27563 -0.316516 1.14531 36
-7.20972 -1.62114 1.42835 35
-7.28534 -0.316924 0.63493 32
-7.0711 -1.58084 0.884122 1
-1.68677 -0.372137 0.0887094 55
-0.648446 -0.029245 -0.0322938 59
-0.808362 -0.0358386 -0.094923 56
-0.776236 -0.168317 -0.0663237 41
-0.814619 -0.035684 -0.151421 52
-0.81554 -0.177655 -0.126852 50
-0.809391 -0.0349162 -0.207567 49
-0.812046 -0.177721 -0.183619 49
-6.8706 -0.26175 1.57677 1
-7.21852 -1.59794 1.96899 33
-7.27719 -0.278416 1.14531 36
-7.21304 -1.58358 1.4274 35
-7.28934 -0.280141 0.635147 32
-7.29502 -1.59099 0.9112 33
-1.68626 -0.362768 0.0885786 55
-0.648591 -0.0258494 -0.0322938 59
-0.811018 -0.0316982 -0.0952272 56
-0.809884 -0.0313788 -0.150468 52
-0.814047 -0.172855 -0.12646 50
-0.811971 -0.0309068 -0.208214 50
-0.810586 -0.172944 -0.183058 49
-7.06094 -0.256622 1.62057 21
-7.22129 -1.58534 1.96899 33
-7.27026 -0.265446 1.14414 36
-7.20648 -1.56763 1.42549 35
-7.28733 -0.267327 0.63493 30
-7.06984 -1.52881 0.882601 1
-3.12739 -0.114423 0.0540152 9
-1.68445 -0.359297 0.0884478 55
-0.648635 -0.0247173 -0.0322938 59
-1.66704 -0.35493 -0.0291455 50
-0.811072 -0.0302827 -0.0952272 56
-0.809937 -0.0299653 -0.150468 52
-0.814347 -0.171434 -0.12646 50
-0.814443 -0.0294309 -0.20886 50
-0.808506 -0.171011 -0.182496 49
-6.87229 -0.212579 1.57677 1
-7.21796 -1.54371 1.96575 33
-7.27406 -0.226183 1.14453 36
-7.21459 -1.52988 1.42549 35
-7.29614 -0.228127 0.635583 30
-7.078 -1.49053 0.882601 1
-3.09047 -0.0968883 0.0533607 9
-1.68637 -0.350178 0.0884478 55
-0.643765 -0.0211674 -0.0320313 59
-1.66649 -0.345391 -0.0291019 53
-0.808744 -0.025819 -0.094923 56
-0.810087 -0.0255827 -0.150468 52
-0.815234 -0.167168 -0.12646 49
-0.814586 -0.0251661 -0.20886 50
-0.80942 -0.166634 -0.182496 49
-6.85801 -0.201357 1.5734 1
-7.21592 -1.53011 1.96446 35
-7.27441 -0.214756 1.14453 36
-7.21485 -1.51678 1.42502 35
-7.28408 -0.215028 0.634494 30
-7.07062 -1.47738 0.881384 1
-3.10812 -0.0920042 0.0536661 12
-1.67958 -0.345997 0.0880552 55
-0.651287 -0.0202608 -0.0324251 61
-1.67443 -0.344012 -0.0292328 58
-0.808784 -0.0245486 -0.094923 56
-0.802771 -0.0239619 -0.14904 53
-0.815524 -0.165745 -0.12646 50
-0.817042 -0.0238105 -0.209507 50
-0.807297 -0.164861 -0.181935 49
-6.8614 -0.165505 1.57396 1
-7.21884 -1.49258 1.96317 33
-7.2705 -0.176546 1.14375 36
-7.21281 -1.47826 1.42311 35
-7.29005 -0.178278 0.63493 29
-7.07583 -1.43984 0.88108 1
-3.11105 -0.0763317 0.0537098 12
-1.68382 -0.337695 0.0881861 56
-0.651384 -0.0168504 -0.0324251 61
-1.67615 -0.335532 -0.0292328 59
-0.808901 -0.0203135 -0.094923 58
-0.805336 -0.019955 -0.149516 52
-0.811542 -0.160486 -0.125677 49
-0.809909 -0.0195129 -0.207567 50
-0.810535 -0.161121 -0.182496 49
-6.87142 -0.153745 1.57621 1
-7.2167 -1.47901 1.96188 33
-7.27573 -0.163966 1.14453 35
-7.21083 -1.46343 1.42216 35
-7.28786 -0.165498 0.634712 32
-7.06617 -1.42503 0.879559 1
-3.11119 -0.0703588 0.0537098 15
-1.67951 -0.333769 0.0879244 56
-0.648917 -0.0156586 -0.0322938 59
-1.67918 -0.3331 -0.0292764 62
-0.803974 -0.0187943 -0.0943145 56
-0.805369 -0.0185494 -0.149516 53
-0.814241 -0.159558 -0.126069 50
-0.81236 -0.0180073 -0.208214 50
-0.810815 -0.159706 -0.182496 49
-6.88921 -0.116851 1.58014 1
-7.21986 -1.43899 1.96058 33
-7.2691 -0.124473 1.14336 36
-7.21358 -1.4247 1.4212 35
-7.29114 -0.126107 0.63493 30
-7.06891 -1.38582 0.87895 1
-3.09902 -0.0538561 0.0534916 29
-1.68129 -0.324677 0.0879244 56
-0.646494 -0.0122188 -0.0321625 59
-1.67851 -0.323529 -0.0292328 64
-0.806545 -0.0144844 -0.0946187 58
-0.805458 -0.0141916 -0.149516 52
-0.817488 -0.155769 -0.12646 50
-0.812443 -0.0137536 -0.208214 50
-0.806887 -0.154373 -0.181373 49
-6.91374 -0.106399 1.58575 1
-7.21289 -1.42451 1.958 33
-7.26435 -0.112979 1.14258 35
-7.21365 -1.41164 1.42073 35
-7.06864 -1.37423 0.878646 1
-3.09661 -0.0484093 0.053448 36
-1.67935 -0.321559 0.0877936 56
-0.646514 -0.0110905 -0.0321625 59
-1.67662 -0.320124 -0.0291891 64
-0.806566 -0.0132175 -0.0946187 58
-0.805481 -0.0127858 -0.149516 53
-0.810488 -0.152926 -0.125285 50
-0.810051 -0.0123031 -0.207567 52
-0.804738 -0.152637 -0.180812 49
-7.21526 -1.38707 1.95671 33
-7.21106 -1.37327 1.41882 35
-7.06843 -1.33582 0.877733 1
-3.09931 -0.0327607 0.0534916 24
-1.68101 -0.312762 0.0877936 55
-0.644065 -0.00779319 -0.0320313 59
-1.67822 -0.311634 -0.0291891 64
-0.804143 -0.00897077 -0.0943145 58
-0.805536 -0.00870878 -0.149516 53
-0.811278 -0.14868 -0.125285 50
-0.810103 -0.00820292 -0.207567 50
-0.80792 -0.148877 -0.181373 47
-7.21056 -1.37312 1.95477 33
-7.20621 -1.35931 1.41739 35
-3.10062 -0.027903 0.268222 8
-7.06587 -1.32256 0.877125 1
-3.10186 -0.0273723 0.0535353 23
-1.68155 -0.309828 0.0877936 56
-0.644078 -0.00666908 -0.0320313 59
-1.67384 -0.307786 -0.0291019 58
-0.806639 -0.00758631 -0.0946187 58
-0.808004 -0.00732083 -0.149992 53
-0.813963 -0.147719 -0.125677 49
-0.807701 -0.00677299 -0.20692 50
-0.805784 -0.147015 -0.180812 49
-7.20815 -1.33358 1.95218 33
-3.11422 -0.0111814 0.48661 4
-7.21323 -1.32156 1.41739 35
-3.07332 -0.0115771 0.265825 9
-7.0727 -1.28555 0.877125 1
-3.09447 -0.0111071 0.0534044 14
-1.67578 -0.29968 0.087401 53
-0.641607 -0.00328921 -0.0319 59
-1.66559 -0.297233 -0.0289274 49
-0.708827 -0.12382 -0.0598 36
-0.805577 -0.00308491 -0.149516 53
-0.812296 -0.143013 -0.125285 49
-0.81014 -0.00254718 -0.207567 52
-0.806543 -0.142794 -0.180812 49
-7.20334 -1.31969 1.95025 33
-3.09695 -0.00572187 0.483878 2
-7.20345 -1.30677 1.41501 36
-3.06836 -0.00620528 0.265389 9
-7.06761 -1.27188 0.876212 1
-3.09948 -0.0057132 0.0534916 1
-1.67139 -0.29587 0.0871394 39
-0.644109 -0.00217244 -0.0320313 59
-1.65873 -0.293001 -0.0287965 49
-0.706591 -0.122142 -0.0595826 36
-0.808035 -0.00167977 -0.149992 55
-0.810114 -0.141157 -0.124894 50
-0.807728 -0.00113406 -0.20692 50
-0.806791 -0.141386 -0.180812 47
-7.20302 -1.28068 1.94831 35
-3.04755 0.0103041 0.476074 9
-7.20536 -1.26818 1.41405 35
-3.04843 0.0097876 0.263646 14
-7.06683 -1.23357 0.875299 1
-3.07447 0.0104197 0.0530553 20
-1.67538 -0.287544 0.0872702 20
-0.641615 0.0011901 -0.0319 59
-1.66516 -0.285169 -0.0288837 49
-0.799227 0.00223518 -0.093706 59
-0.704768 -0.118013 -0.0593651 38
-0.805579 0.00253911 -0.149516 55
-0.805978 -0.136062 -0.124111 49
-0.810138 0.00310868 -0.207567 50
-0.80752 -0.13716 -0.180812 49
-7.20287 -1.26768 1.94766 35
-3.05 0.0156368 0.476464 9
-7.20031 -1.25433 1.41263 35
-3.0484 0.0151081 0.263646 14
-7.06409 -1.22039 0.874691 1
-3.04195 0.0156041 0.0524881 23
-1.6931 -0.287594 0.0881861 14
-0.644108 0.00232431 -0.0320313 59
-1.65827 -0.280989 -0.0287528 11
-0.799222 0.00363009 -0.093706 59
-0.700064 -0.115936 -0.0589302 38
-0.803119 0.00392882 -0.14904 55
-0.806214 -0.134656 -0.124111 50
-0.810132 0.00452263 -0.207567 52
-0.805358 -0.135332 -0.18025 49
-7.1975 -1.22791 1.94443 36
-3.04247 0.0315261 0.475293 9
-7.19952 -1.21539 1.4112 36
-3.05824 0.0311753 0.264518 14
-7.0557 -1.18091 0.872865 1
-3.04933 0.0316126 0.052619 32
-0.649079 0.00586499 -0.0322938 59
-1.67205 -0.274361 -0.028971 11
-0.799192 0.00781474 -0.093706 61
-0.698224 -0.111736 -0.0587128 38
-0.803087 0.00813387 -0.14904 55
-0.806908 -0.130432 -0.124111 50
-0.807682 0.00873404 -0.20692 52
-0.81086 -0.131925 -0.181373 49
-7.20202 -1.21575 1.94508 36
-3.05969 0.0370534 0.478025 8
-7.20184 -1.20156 1.4112 35
-3.05321 0.0364511 0.264082 14
-7.06264 -1.16941 0.873474 1
-3.04926 0.0374669 0.052619 23
-0.646572 0.00696559 -0.0321625 61
-1.70212 -0.276331 -0.0294946 11
-0.796696 0.00917666 -0.0934018 62
-0.695961 -0.110111 -0.0584953 38
-0.805526 0.00956892 -0.149516 55
-0.812006 -0.129832 -0.124894 50
-0.802835 0.0102147 -0.205627 52
-0.813492 -0.13091 -0.181935 49
-7.19896 -1.17521 1.94249 35
-3.09401 0.0542288 0.483488 1
-7.19592 -1.16187 1.40881 35
-3.08035 0.0534576 0.266479 2
-7.05662 -1.12921 0.871953 1
-3.07152 0.0538366 0.0530117 3
-0.646526 0.0103509 -0.0321625 61
-1.70606 -0.267512 -0.0295382 11
-0.799116 0.0135334 -0.093706 62
-0.69161 -0.10568 -0.0580604 41
-0.803009 0.0138804 -0.14904 55
-0.807799 -0.124796 -0.124111 50
-0.80277 0.0144182 -0.205627 52
-0.806974 -0.125342 -0.18025 50
-7.19384 -1.16148 1.94055 35
-6.96289 -1.11162 1.36258 1
-3.08275 0.0588825 0.266697 11
-7.06328 -1.11891 0.872561 1
-3.08891 0.0595424 0.0533171 14
-0.644011 0.0114296 -0.0320313 65
-1.71886 -0.266482 -0.0297564 15
-0.796613 0.0147384 -0.0934018 68
-0.689333 -0.104084 -0.0578429 42
-0.807891 0.0153838 -0.149992 58
-0.808015 -0.123386 -0.124111 50
-0.805158 0.0158711 -0.206274 52
-0.804764 -0.12369 -0.179689 49
-7.19963 -1.12505 1.94055 35
-6.96842 -1.07636 1.36258 1
-7.06659 -1.08153 0.872257 1
-3.08607 0.075114 0.0532735 15
-0.643942 0.0148015 -0.0320313 65
-0.794044 0.018846 -0.0930975 71
-0.684944 -0.0997214 -0.057408 42
-0.807802 0.0194727 -0.149992 56
-0.801329 -0.118031 -0.122936 49
-0.802653 0.0198821 -0.205627 52
-0.802993 -0.119103 -0.179127 49
-7.15079 0.189586 1.64078 33
-7.19204 -1.11101 1.93797 35
-7.26271 0.191319 1.14258 38
-6.96077 -1.0615 1.36068 1
-7.05866 -1.06771 0.87104 1
-3.09842 0.0813724 0.0534916 14
-0.648907 0.0160596 -0.0322938 71
-0.79649 0.0202994 -0.0934018 71
-0.682655 -0.0981542 -0.0571906 44
-0.802861 0.0207472 -0.14904 58
-0.803975 -0.117002 -0.123328 50
-0.802614 0.021423 -0.205627 53
-0.803199 -0.117701 -0.179127 49
-7.14965 0.228273 1.64078 33
-7.19555 -1.07172 1.93732 33
-7.26157 0.230612 1.14258 36
-6.95895 -1.02396 1.35925 1
-7.27615 0.229818 0.63384 27
-7.05942 -1.02878 0.870431 1
-3.08296 0.0971155 0.0532298 11
-0.658795 0.0197776 -0.0328189 76
-0.801329 0.0247704 -0.0940102 70
-0.680695 -0.0942199 -0.0569731 45
-0.802737 0.0250908 -0.14904 58
-0.809482 -0.113364 -0.124111 50
-0.804904 0.0257065 -0.206274 53
-0.806235 -0.113708 -0.179689 49
-7.14685 0.239421 1.64022 33
-7.19264 -1.05845 1.93603 35
-7.25375 0.243036 1.14141 36
-6.9583 -1.01146 1.35877 1
-7.27823 0.242601 0.634058 29
-7.05875 -1.0161 0.870127 1
-3.08778 0.102665 0.0533171 9
-0.653769 0.0207584 -0.0325564 80
-0.796325 0.0259984 -0.0934018 71
-0.675928 -0.092323 -0.0565382 45
-0.800239 0.0264066 -0.148564 58
-0.804791 -0.111246 -0.123328 50
-0.802444 0.0270258 -0.205627 53
-0.80161 -0.1116 -0.178566 49
-7.1455 0.276838 1.64022 33
-7.18595 -1.02033 1.9328 33
-7.25736 0.279938 1.14219 36
-6.95847 -0.975541 1.35782 1
-7.27691 0.279436 0.634058 29
-7.05643 -0.979334 0.869214 1
-3.12968 0.119938 0.0540588 3
-0.656146 0.0242788 -0.0326876 82
-0.793703 0.0299307 -0.0930975 73
-0.673935 -0.0884411 -0.0563208 47
-0.800095 0.0304566 -0.148564 59
-0.805344 -0.107171 -0.123328 50
-0.799884 0.0309892 -0.20498 52
-0.802165 -0.107542 -0.178566 49
-7.14744 0.289408 1.64078 33
-7.19011 -1.00812 1.93344 33
-7.26673 0.293004 1.14375 35
-6.94818 -0.960491 1.35543 1
-7.27143 0.291935 0.633622 32
-7.04338 -0.964986 0.867389 1
-3.04767 -0.412651 0.159363 9
-0.658597 0.0255259 -0.0328189 85
-0.79365 0.031316 -0.0930975 74
-0.666685 -0.0862533 -0.0556684 47
-0.797588 0.031751 -0.148088 58
-0.80553 -0.105765 -0.123328 50
-0.804649 0.0327296 -0.206274 52
-0.802351 -0.106141 -0.178566 49
-7.14577 0.328075 1.64078 36
-7.19306 -0.968882 1.9328 32
-7.26011 0.33209 1.14297 33
-6.95554 -0.924422 1.35591 1
-7.28716 0.33207 0.635147 27
-7.03866 -0.925563 0.866172 1
-3.05481 -0.396806 0.159625 9
-0.658455 0.0289739 -0.0328189 86
-0.79099 0.035494 -0.0927933 77
-0.669597 -0.0830856 -0.0558859 47
-0.80476 0.0364115 -0.149516 56
-0.803625 -0.101223 -0.122936 50
-0.79723 0.0365972 -0.204334 53
-0.802914 -0.101799 -0.178566 49
-7.14768 0.339415 1.64134 35
-7.18756 -0.955367 1.93086 32
-7.26944 0.343962 1.14453 35
-6.94742 -0.910998 1.354 1
-7.28408 0.34467 0.63493 27
-7.04748 -0.915469 0.867085 1
-3.05295 -0.391686 0.159494 9
-0.653416 0.0298844 -0.0325564 90
-0.793412 0.0368559 -0.0930975 79
-0.664801 -0.081277 -0.0554509 47
-0.799792 0.0375771 -0.148564 58
-0.8038 -0.0998201 -0.122936 50
-0.801989 0.038227 -0.205627 52
-0.798242 -0.0999031 -0.177443 49
-7.14337 0.376707 1.64078 33
-7.19231 -0.918975 1.93086 32
-7.25768 0.3815 1.14297 35
-6.95194 -0.875823 1.354 1
-7.28722 0.381795 0.635365 27
-7.28116 -0.90724 0.895379 33
-3.04753 -0.37477 0.159101 9
-0.653256 0.0331912 -0.0325564 90
-0.79073 0.0408772 -0.0927933 77
-0.660261 -0.0772963 -0.055016 49
-0.799592 0.0416247 -0.148564 58
-0.804312 -0.0956101 -0.122936 50
-0.796963 0.0420228 -0.204334 53
-0.803588 -0.0963312 -0.178566 50
-7.14277 0.387927 1.64078 33
-7.1915 -0.906117 1.93021 32
-7.2644 0.394569 1.14414 38
-6.95102 -0.863384 1.35353 1
-7.27908 0.394107 0.634712 27
-3.04818 -0.36945 0.159101 9
-0.65569 0.0344677 -0.0326876 90
-0.790658 0.0422572 -0.0927933 80
-0.665339 -0.07675 -0.0554509 49
-0.801968 0.0431563 -0.14904 58
-0.806928 -0.0945079 -0.123328 50
-0.799299 0.0435494 -0.20498 53
-0.801338 -0.0946282 -0.178004 50
-7.14057 0.426568 1.64078 33
-7.18896 -0.867577 1.92827 32
-7.24991 0.431863 1.14219 38
-6.94813 -0.826102 1.3521 1
-7.27692 0.432215 0.634712 30
-3.05751 -0.354359 0.159494 11
-0.653002 0.0378649 -0.0325564 90
-0.790426 0.0463965 -0.0927933 82
-0.670692 -0.0737285 -0.0558859 50
-0.799282 0.0472058 -0.148564 58
-0.800055 -0.0894148 -0.122153 50
-0.79665 0.0475856 -0.204334 53
-0.799403 -0.0901436 -0.177443 50
-7.13738 0.43888 1.64022 33
-7.18566 -0.854455 1.92698 32
-7.25654 0.444971 1.14336 38
-6.94727 -0.812475 1.35162 1
-7.27615 0.444915 0.634712 30
-7.03986 -0.814686 0.864651 1
-3.05565 -0.348735 0.159363 11
-0.652935 0.0390046 -0.0325564 90
-0.787867 0.0476219 -0.092489 83
-0.668346 -0.0722724 -0.0556684 50
-0.799198 0.0486008 -0.148564 58
-0.80021 -0.0880183 -0.122153 50
-0.796557 0.049115 -0.204334 53
-0.79714 -0.0884648 -0.176881 50
-7.1349 0.47749 1.64022 33
-7.18538 -0.815017 1.92569 32
-7.25402 0.484226 1.14336 38
-7.18312 -0.802117 1.3969 35
-7.26618 0.483778 0.634058 33
-7.27599 -0.802302 0.893249 33
-3.04756 -0.331103 0.15884 11
-0.655212 0.04259 -0.0326876 90
-0.792549 0.0522189 -0.0930975 86
-0.663764 -0.0682271 -0.0552335 52
-0.803821 0.0532571 -0.149516 58
-0.795752 -0.0832836 -0.12137 50
-0.801107 0.0536161 -0.205627 52
-0.800028 -0.0844209 -0.177443 50
-7.139 0.489031 1.64134 33
-7.18439 -0.802205 1.92504 32
-7.25326 0.49562 1.14336 38
-6.94302 -0.762875 1.34971 1
-7.26284 0.496289 0.63384 33
-7.27231 -0.790333 0.892641 33
-3.0456 -0.326046 0.158709 11
-0.652646 0.043562 -0.0325564 95
-0.787515 0.053121 -0.092489 86
-0.666358 -0.0673366 -0.0554509 50
-0.79883 0.0543184 -0.148564 58
-0.798351 -0.0821621 -0.121762 50
-0.798604 0.0548445 -0.20498 53
-0.800159 -0.0831641 -0.177443 50
-7.14363 0.526943 1.64303 35
-7.18836 -0.765832 1.92504 32
-7.2481 0.533409 1.14297 39
-6.94435 -0.727466 1.34924 1
-7.26024 0.533043 0.63384 35
-7.27635 -0.752245 0.892641 35
-3.04478 -0.309838 0.158578 11
-0.657389 0.0473478 -0.0328189 98
-0.789701 0.057428 -0.0927933 88
-0.664224 -0.0635915 -0.0552335 50
-0.800992 0.0585441 -0.14904 58
-0.801226 -0.0782356 -0.122153 50
-0.798316 0.0588859 -0.20498 53
-0.798161 -0.0787196 -0.176881 50
-7.13785 0.539042 1.64191 33
-7.18489 -0.752778 1.92375 32
-7.25208 0.546431 1.14375 39
-6.94573 -0.714133 1.34924 1
-7.25433 0.54534 0.633404 35
-7.28012 -0.739796 0.892945 35
-3.0478 -0.304776 0.158709 11
-0.657305 0.048495 -0.0328189 101
-0.792074 0.0589949 -0.0930975 88
-0.666812 -0.062683 -0.0554509 52
-0.798442 0.0597546 -0.148564 58
-0.796448 -0.0763363 -0.12137 50
-0.800609 0.0606049 -0.205627 53
-0.80072 -0.077576 -0.177443 50
-7.14211 0.578245 1.64359 36
-7.18645 -0.713653 1.92311 32
-7.24656 0.585461 1.14336 38
-6.93961 -0.676796 1.34733 1
-7.24382 0.583979 0.632751 33
-7.28155 -0.700157 0.892641 33
-3.0494 -0.288281 0.158709 11
-0.659531 0.052138 -0.0329502 104
-0.791743 0.0632795 -0.0930975 89
-0.664652 -0.0589529 -0.0552335 52
-0.800552 0.0642743 -0.14904 58
-0.794379 -0.0719275 -0.120979 50
-0.795467 0.0643978 -0.204334 53
-0.796279 -0.0727696 -0.17632 50
-6.86685 0.566763 1.58014 1
-7.17807 -0.700165 1.92052 30
-7.24317 0.59664 1.14297 38
-6.94811 -0.66539 1.34876 1
-7.24776 0.597031 0.633186 35
-7.27523 -0.688013 0.891728 33
-3.05731 -0.284196 0.159101 11
-0.654463 0.0528764 -0.0326876 107
-0.786697 0.0641113 -0.092489 89
-0.664753 -0.0577927 -0.0552335 52
-0.800439 0.0656715 -0.14904 58
-0.794504 -0.070541 -0.120979 52
-0.79776 0.0659894 -0.20498 53
-0.796392 -0.0715187 -0.17632 49
-7.13801 0.626846 1.64359 38
-7.17671 -0.663377 1.91923 30
-7.23994 0.634557 1.14297 38
-6.93916 -0.629098 1.34638 1
-7.24464 0.633707 0.633186 33
-7.27626 -0.649688 0.891424 33
-3.05378 -0.26774 0.15884 12
-0.65169 0.0560831 -0.0325564 110
-0.793765 0.0688861 -0.0934018 90
-0.665047 -0.0543113 -0.0552335 53
-0.802541 0.0699393 -0.149516 58
-0.794862 -0.06638 -0.120979 52
-0.797416 0.0700264 -0.20498 55
-0.801608 -0.0677878 -0.177443 50
-7.13933 0.639521 1.64415 35
-7.18027 -0.65107 1.91987 32
-7.2462 0.647853 1.14414 38
-6.93791 -0.615556 1.3459 1
-7.24849 0.646795 0.633622 33
-7.27491 -0.63677 0.89112 33
-3.05673 -0.262627 0.15897 12
-0.661537 0.0581151 -0.0330815 115
-0.791173 0.0700482 -0.0930975 90
-0.667622 -0.0533667 -0.0554509 53
-0.799974 0.0711183 -0.14904 58
-0.790057 -0.0645605 -0.120196 50
-0.79728 0.0715571 -0.20498 53
-0.792019 -0.0655258 -0.175197 52
-7.17646 -0.611591 1.91794 30
-6.9386 -0.579015 1.34543 1
-7.27825 -0.5974 0.89112 35
-3.05313 -0.245677 0.158709 12
-0.656253 0.0611047 -0.0328189 120
-0.793252 0.0745644 -0.0934018 90
-0.660446 -0.0492607 -0.0547986 53
-0.789805 0.0745063 -0.147135 56
-0.790385 -0.0604229 -0.120196 52
-0.792087 0.0752653 -0.203687 53
-0.797217 -0.0616448 -0.17632 52
-7.17271 -0.59866 1.91664 30
-6.93226 -0.566299 1.344 1
-7.2767 -0.585766 0.890815 33
-3.05351 -0.240881 0.158709 12
-0.65863 0.062491 -0.0329502 126
-0.793134 0.0758103 -0.0934018 90
-0.663013 -0.0483068 -0.055016 53
-0.794559 0.0763628 -0.148088 58
-0.790489 -0.0590433 -0.120196 52
-0.791954 0.0766476 -0.203687 55
-0.794885 -0.0601936 -0.175758 52
-7.17565 -0.562348 1.91664 30
-6.93504 -0.531205 1.344 1
-7.27472 -0.547281 0.890207 33
-3.04975 -0.224515 0.158447 12
-0.658294 0.0659387 -0.0329502 130
-0.792726 0.0799621 -0.0934018 90
-0.663257 -0.0448347 -0.055016 55
-0.799045 0.0808863 -0.14904 58
-0.793249 -0.0550895 -0.120587 52
-0.791556 0.080655 -0.203687 53
-0.79519 -0.0560308 -0.175758 49
-7.17421 -0.549637 1.916 30
-6.9336 -0.517705 1.34352 1
-2.89861 0.298661 0.25188 45
-7.27319 -0.5344 0.889903 35
-3.05512 -0.219557 0.158709 12
-0.655695 0.0668292 -0.0328189 134
-0.792586 0.0813455 -0.0934018 90
-0.66085 -0.0434954 -0.0547986 55
-0.798903 0.0822807 -0.14904 58
-0.800732 -0.0542501 -0.121762 52
-0.793801 0.0824283 -0.204334 53
-0.792857 -0.0544611 -0.175197 50
-7.16022 -0.509602 1.91147 29
-6.93866 -0.481566 1.344 1
-7.2735 -0.494871 0.889599 33
-3.05377 -0.202855 0.158578 12
-0.660299 0.0708042 -0.0330815 135
-0.789667 0.0853616 -0.0930975 90
-0.661069 -0.0400347 -0.0547986 55
-0.788688 0.0855265 -0.147135 58
-0.796087 -0.0495802 -0.120979 52
-0.798159 0.087116 -0.205627 53
-0.79314 -0.0501705 -0.175197 52
-7.15628 -0.496766 1.91018 29
-6.92725 -0.468618 1.34161 1
-7.2694 -0.481844 0.88899 33
-3.05661 -0.19769 0.158709 12
-0.655212 0.0714051 -0.0328189 140
-0.796915 0.0875656 -0.0940102 90
-0.661138 -0.0388808 -0.0547986 55
-0.793415 0.0874491 -0.148088 59
-0.796172 -0.0481907 -0.120979 52
-0.795606 0.0882384 -0.20498 52
-0.795657 -0.0489506 -0.175758 52
-2.86118 0.331655 0.655864 47
-7.16119 -0.459446 1.91083 27
-2.88018 0.333369 0.45266 47
-6.93206 -0.432495 1.34209 1
-2.88232 0.33312 0.250791 49
-7.27183 -0.443775 0.88899 33
-3.05262 -0.181379 0.158447 14
-0.657309 0.0751235 -0.0329502 144
-0.796446 0.0917371 -0.0940102 90
-0.65636 -0.0351162 -0.0543637 55
-0.795384 0.0918881 -0.148564 58
-0.793949 -0.0438701 -0.120587 52
-0.795133 0.092403 -0.20498 53
-0.791039 -0.0444805 -0.174635 52
-2.86066 0.336149 0.655864 47
-7.15716 -0.446642 1.90953 26
-2.86978 0.337238 0.451099 49
-6.93525 -0.420546 1.34257 1
-2.88668 0.338733 0.251226 50
-7.27011 -0.430934 0.888686 33
-3.05543 -0.176199 0.158578 14
-0.659657 0.0765636 -0.0330815 148
-0.786428 0.0919569 -0.0927933 88
-0.658907 -0.0341175 -0.0545811 56
-0.795223 0.0932762 -0.148564 58
-0.796489 -0.0426312 -0.120979 52
-0.797369 0.0940778 -0.205627 55
-0.788684 -0.0429524 -0.174073 50
-2.85886 0.351123 0.655864 49
-7.15692 -0.410271 1.90889 27
-2.87049 0.352061 0.451489 49
-6.92994 -0.385025 1.34114 1
-2.87998 0.352732 0.250791 50
-7.27468 -0.394267 0.88899 33
-3.05628 -0.160732 0.158578 14
-0.656769 0.0797105 -0.0329502 146
-0.728749 -0.034428 -0.0121294 8
-0.790878 0.0965462 -0.0934018 90
-0.666537 -0.0310684 -0.0552335 56
-0.797176 0.0976025 -0.14904 58
-0.794229 -0.0384649 -0.120587 50
-0.79209 0.0975138 -0.204334 52
-0.793756 -0.0392302 -0.175197 50
-2.85583 0.35581 0.655302 49
-6.9816 -0.387877 1.86172 1
-2.87232 0.357376 0.45188 50
-6.93067 -0.371719 1.34114 1
-2.87936 0.357758 0.250791 50
-7.2704 -0.381307 0.888382 32
-3.05406 -0.155266 0.158447 14
-0.656629 0.0808567 -0.0329502 142
-0.728808 -0.0331561 -0.0121294 9
-0.788246 0.0976171 -0.0930975 90
-0.664103 -0.0297756 -0.055016 56
-0.797004 0.0989937 -0.14904 58
-0.789363 -0.0368185 -0.119804 50
-0.794297 0.0993382 -0.20498 52
-0.791391 -0.0377139 -0.174635 50
-2.85386 0.371256 0.655302 50
-6.96913 -0.349361 1.85784 1
-2.8679 0.372592 0.451489 50
-6.92761 -0.335185 1.34018 1
-2.87492 0.37301 0.250573 50
-7.27236 -0.341965 0.888382 33
-3.05236 -0.138623 0.158316 14
-0.661147 0.0849402 -0.0332127 134
-0.731474 -0.0293288 -0.0121731 11
-0.787706 0.10188 -0.0930975 90
-0.661762 -0.0261815 -0.0547986 56
-0.796457 0.103304 -0.14904 58
-0.787079 -0.0325677 -0.119413 50
-0.793766 0.103496 -0.20498 53
-0.78915 -0.0333138 -0.174073 50
-2.85086 0.375419 0.654741 49
-6.98179 -0.337789 1.86107 1
-2.86731 0.377097 0.451489 50
-6.92574 -0.322977 1.33971 1
-2.86685 0.377049 0.249919 50
-7.27289 -0.330541 0.888382 33
-3.05258 -0.133828 0.158316 14
-0.658523 0.0857664 -0.0330815 125
-0.724033 -0.0277159 -0.0120422 11
-0.782626 0.102465 -0.092489 88
-0.659319 -0.0249144 -0.0545811 56
-0.801141 0.105343 -0.149992 58
-0.789601 -0.0313068 -0.119804 50
-0.79119 0.10456 -0.204334 53
-0.784335 -0.0318463 -0.17295 50
-2.85127 0.390673 0.655302 50
-6.96893 -0.30181 1.85719 1
-2.85795 0.391097 0.450319 49
-6.92483 -0.287816 1.33923 1
-2.86244 0.391216 0.249701 50
-7.27452 -0.292456 0.888382 33
-3.05074 -0.117743 0.158185 15
-0.650661 0.088078 -0.0326876 115
-0.721666 -0.0239514 -0.0119985 11
-0.782079 0.106561 -0.092489 88
-0.661925 -0.0216765 -0.0547986 58
-0.793304 0.108387 -0.148564 58
-0.792222 -0.027272 -0.120196 50
-0.793043 0.108896 -0.20498 53
-0.789359 -0.0279415 -0.174073 50
-2.84582 0.39448 0.654179 49
-6.97186 -0.289749 1.85784 1
-2.85971 0.396424 0.450709 49
-7.16809 -0.285564 1.38641 36
-2.86175 0.396211 0.249701 50
-7.27502 -0.279759 0.888382 33
-3.05593 -0.11261 0.158447 15
-0.652979 0.0895579 -0.0328189 111
-0.7292 -0.0229771 -0.0121294 11
-0.786806 0.108613 -0.0930975 85
-0.656985 -0.0203308 -0.0543637 56
-0.797975 0.110453 -0.149516 58
-0.792268 -0.0258893 -0.120196 50
-0.79046 0.109943 -0.204334 52
-0.789406 -0.0265637 -0.174073 50
-2.83882 0.409174 0.653056 47
-6.97328 -0.25324 1.85784 1
-2.85271 0.410686 0.449929 49
-7.17684 -0.248288 1.38784 35
-2.85964 0.41119 0.249701 49
-7.2739 -0.241579 0.888077 33
-3.05149 -0.0964421 0.158185 15
-0.652501 0.0929757 -0.0328189 106
-0.724314 -0.0189947 -0.0120422 9
-0.783771 0.112375 -0.0927933 83
-0.659571 -0.0169727 -0.0545811 58
-0.792528 0.113922 -0.148564 56
-0.792393 -0.0217407 -0.120196 50
-0.794653 0.11478 -0.205627 53
-0.791969 -0.0225143 -0.174635 49
-2.84059 0.413985 0.653618 47
-6.97854 -0.241239 1.85913 1
-2.84955 0.415307 0.449538 47
-7.165 -0.235351 1.38546 35
-2.85892 0.41618 0.249701 49
-7.27183 -0.228804 0.887773 33
-3.05165 -0.0911161 0.158185 17
-0.649868 0.0937527 -0.0326876 103
-0.781119 0.113382 -0.092489 82
-0.662089 -0.0158993 -0.0547986 58
-0.799612 0.116378 -0.149992 58
-0.787494 -0.0202008 -0.119413 50
-0.792062 0.115813 -0.20498 53
-0.792007 -0.021132 -0.174635 50
-2.8359 0.428982 0.653056 47
-6.97729 -0.204624 1.85848 1
-2.84245 0.429481 0.448758 49
-7.17349 -0.19804 1.38689 35
-2.85177 0.430398 0.249265 50
-7.26797 -0.190593 0.887165 32
-3.05209 -0.0751365 0.158185 17
-0.644431 0.0964048 -0.0324251 100
-0.782968 0.117844 -0.0927933 82
-0.657184 -0.0123029 -0.0543637 58
-0.79414 0.119823 -0.14904 58
-0.792525 -0.0162082 -0.120196 50
-0.791445 0.119958 -0.20498 52
-0.789672 -0.0169176 -0.174073 50
-2.83522 0.433436 0.653056 47
-6.97523 -0.192378 1.85784 1
-2.8417 0.434442 0.448758 49
-7.17628 -0.185585 1.38737 35
-2.8461 0.43462 0.24883 50
-7.27821 -0.178157 0.888382 32
-3.04972 -0.0697485 0.158055 15
-0.649197 0.0982873 -0.0326876 98
-0.785213 0.119588 -0.0930975 80
-0.659694 -0.0112163 -0.0545811 56
-0.791504 0.120834 -0.148564 55
-0.787615 -0.0147026 -0.119413 52
-0.788848 0.120969 -0.204334 52
-0.784829 -0.0154135 -0.17295 50
-2.82562 0.447623 0.651372 49
-6.97855 -0.155909 1.85848 1
-2.83694 0.448928 0.448368 49
-7.17225 -0.147903 1.38641 35
-2.84378 0.449517 0.24883 50
-7.27656 -0.139996 0.888077 32
-3.04755 -0.0537314 0.157924 17
-0.64619 0.101406 -0.0325564 97
-0.782126 0.123307 -0.0927933 77
-0.657255 -0.00759992 -0.0543637 58
-0.79086 0.124977 -0.148564 55
-0.787682 -0.0105785 -0.119413 52
-0.790588 0.125481 -0.20498 52
-0.792206 -0.0114544 -0.174635 50
-2.82243 0.452167 0.65081 47
-6.97157 -0.143575 1.85655 1
-2.83372 0.453487 0.447977 50
-7.17006 -0.134085 1.38594 33
-2.84053 0.454085 0.248612 53
-7.25199 -0.126846 0.885035 29
-0.693673 0.110078 0.0116495 8
-3.04514 -0.0483687 0.157793 20
-0.650942 0.103327 -0.0328189 95
-0.781909 0.124672 -0.0927933 77
-0.657268 -0.00645278 -0.0543637 58
-0.793064 0.126748 -0.14904 56
-0.790168 -0.00924766 -0.119804 52
-0.790346 0.126998 -0.20498 52
-0.792225 -0.0100718 -0.174635 52
-2.82474 0.46823 0.651933 50
-7.00122 -0.106313 1.8643 1
-2.83122 0.468812 0.447977 52
-2.83312 0.468632 0.248176 55
-0.688155 0.112889 0.0115622 4
-3.05035 -0.0319525 0.158055 21
-0.647929 0.106324 -0.0326876 91
-0.776328 0.128084 -0.0921848 76
-0.654802 -0.00298171 -0.0541462 58
-0.789946 0.130633 -0.148564 55
-0.790205 -0.00511025 -0.119804 52
-0.787289 0.130735 -0.204334 52
-0.789832 -0.00575255 -0.174073 52
-2.8216 0.472264 0.651372 49
-2.83048 0.473259 0.447977 52
-2.83721 0.4744 0.248612 61
-3.04291 -0.0270825 0.157662 21
-0.647743 0.107455 -0.0326876 90
-0.659572 -0.00178408 -0.0109078 4
-0.776126 0.129303 -0.0921848 73
-0.659787 -0.00188928 -0.0545811 56
-0.792137 0.13242 -0.14904 55
-0.790213 -0.00373107 -0.119804 52
-0.791821 0.132917 -0.205627 52
-0.782532 -0.00442514 -0.172389 52
-2.81189 0.485783 0.649687 50
-2.82553 0.487651 0.447587 53
-3.11456 -0.0179931 0.598126 9
-2.83723 0.489178 0.24883 86
-3.09421 -0.0135598 0.375128 8
-3.048 -0.0111757 0.157924 23
-0.642271 0.10988 -0.0324251 90
-0.780328 0.134215 -0.0927933 73
-0.662279 0.00143761 -0.0547986 58
-0.789038 0.136007 -0.148564 55
-0.790222 0.000406503 -0.119804 52
-0.791138 0.136923 -0.205627 52
-0.777673 -0.000295459 -0.171266 52
-2.81352 0.490619 0.650249 50
-2.82711 0.493008 0.447977 55
-3.08022 -0.0123653 0.591453 2
-2.83637 0.494129 0.24883 90
-3.05205 -0.00798265 0.369956 3
-0.694551 0.120062 0.0116931 4
-3.05051 -0.00586469 0.158055 18
-0.646996 0.111861 -0.0326876 90
-0.777648 0.135148 -0.092489 70
-0.657294 0.00261002 -0.0543637 56
-0.786383 0.136958 -0.148088 55
-0.79022 0.0017857 -0.119804 53
-0.78852 0.137883 -0.20498 53
-0.787416 0.00101422 -0.173512 50
-2.80843 0.505402 0.649687 52
-2.82206 0.507365 0.447587 55
-3.06552 0.00376798 0.588594 8
-2.83864 0.509856 0.249265 90
-3.04212 0.00798747 0.368739 11
-0.691453 0.123253 0.0116495 4
-3.0505 0.0101078 0.158055 18
-0.643925 0.114917 -0.0325564 90
-0.784255 0.140544 -0.0934018 71
-0.65727 0.00616626 -0.0543637 58
-0.785655 0.141074 -0.148088 55
-0.7902 0.00592324 -0.119804 53
-0.790163 0.142443 -0.205627 53
-0.784964 0.00513623 -0.17295 52
-2.80994 0.51074 0.650249 52
-2.81631 0.511405 0.446807 52
-3.06796 0.0096572 0.58907 4
-2.8353 0.514364 0.249048 90
-3.04955 0.0133177 0.369652 11
-0.693674 0.125029 0.0116931 8
-3.04798 0.0154232 0.157924 24
-0.646179 0.116488 -0.0326876 90
-0.78645 0.142358 -0.093706 68
-0.652277 0.00729428 -0.0539288 58
-0.790236 0.143329 -0.14904 55
-0.790188 0.00730239 -0.119804 53
-0.787513 0.143522 -0.20498 53
-0.78739 0.00651135 -0.173512 52
-2.79756 0.524136 0.648003 49
-2.81836 0.527546 0.447587 53
-3.06051 0.0256707 0.587641 4
-2.82758 0.528779 0.248612 73
-3.04199 0.029756 0.368739 11
-0.695467 0.12912 0.0117367 9
-3.04286 0.0318696 0.157662 26
-0.645561 0.11987 -0.0326876 90
-0.636989 0.0106702 -0.0105151 4
-0.780791 0.145693 -0.0930975 62
-0.654721 0.0107321 -0.0541462 58
-0.79186 0.148058 -0.149516 56
-0.792608 0.0114604 -0.120196 55
-0.786751 0.147644 -0.20498 52
-0.787343 0.0107714 -0.173512 52
-2.80391 0.529891 0.649687 52
-2.81752 0.531973 0.447587 47
-3.07028 0.0310962 0.589547 4
-2.82665 0.533714 0.248612 59
-3.04442 0.0345586 0.369043 11
-0.69524 0.130334 0.0117367 12
-3.0478 0.0367015 0.157924 23
-0.64535 0.120997 -0.0326876 90
-0.639469 0.0118095 -0.0105587 3
-0.782999 0.147382 -0.0934018 62
-0.657191 0.0119017 -0.0543637 58
-0.786779 0.148521 -0.148564 55
-0.795056 0.0128687 -0.120587 55
-0.791236 0.149924 -0.206274 52
-0.780017 0.0119418 -0.171827 52
-2.79871 0.544098 0.649126 52
-2.80985 0.545774 0.446807 39
-3.08971 0.0469031 0.59336 3
-2.81903 0.547062 0.248176 56
-3.10126 0.0513552 0.376041 2
-0.692118 0.133373 0.0116931 12
-3.04008 0.0525415 0.157531 21
-0.647158 0.124852 -0.0328189 90
-0.634402 0.0149657 -0.0104714 3
-0.779781 0.151004 -0.0930975 62
-0.65712 0.0153426 -0.0543637 58
-0.790834 0.153445 -0.149516 55
-0.79004 0.0169556 -0.119804 55
-0.788097 0.153461 -0.205627 52
-0.779944 0.0160258 -0.171827 52
-2.79537 0.548512 0.648564 50
-2.8089 0.550677 0.446807 47
-2.81562 0.551502 0.247958 59
-0.682051 0.132772 0.0115186 12
-3.04747 0.0579781 0.157924 23
-0.64449 0.125499 -0.0326876 90
-0.639374 0.0161619 -0.0105587 3
-0.784386 0.153325 -0.093706 61
-0.657092 0.0164895 -0.0543637 58
-0.788157 0.154349 -0.14904 53
-0.792478 0.0183767 -0.120196 55
-0.79017 0.155444 -0.206274 53
-0.777479 0.0173479 -0.171266 52
-2.79236 0.563628 0.648564 49
-2.80588 0.565867 0.446807 52
-2.81016 0.566234 0.24774 56
-0.686246 0.137332 0.0116058 11
-3.04212 0.0743514 0.157662 21
-0.641377 0.128377 -0.0325564 86
-0.641776 0.019679 -0.0106023 4
-0.785976 0.15806 -0.0940102 61
-0.654507 0.0198724 -0.0541462 59
-0.792121 0.159589 -0.149992 53
-0.789898 0.0226085 -0.119804 55
-0.791711 0.160062 -0.20692 52
-0.777374 0.0215542 -0.171266 53
-2.79147 0.568014 0.648564 50
-2.8073 0.571257 0.447197 52
-7.16203 0.166118 1.38451 33
-2.81649 0.57263 0.248394 65
-7.25587 0.178331 0.885643 29
-0.688455 0.139029 0.0116495 9
-3.04698 0.0797837 0.157924 23
-0.643598 0.129995 -0.0326876 82
-0.636743 0.0206743 -0.0105151 4
-0.783268 0.158934 -0.093706 61
-0.656961 0.0210764 -0.0543637 59
-0.787033 0.159985 -0.14904 53
-0.792326 0.024047 -0.120196 55
-0.793796 0.16193 -0.207567 53
-0.777335 0.022911 -0.171266 52
-2.79074 0.583609 0.649126 50
-6.89089 0.184135 1.83522 1
-2.80427 0.585948 0.447197 50
-7.15615 0.203479 1.38355 30
-2.81345 0.58737 0.248394 85
-7.2598 0.216465 0.886252 30
-0.687717 0.142632 0.0116495 8
-3.04652 0.0957364 0.157924 23
-0.645352 0.133876 -0.0328189 79
-0.634127 0.0239325 -0.0104714 4
-0.784854 0.163543 -0.0940102 59
-0.656842 0.0245159 -0.0543637 62
-0.783783 0.163598 -0.148564 55
-0.794662 0.0281294 -0.120587 55
-0.790575 0.165585 -0.20692 52
-0.77964 0.02705 -0.171827 52
-2.79458 0.588999 0.650249 50
-6.92919 0.197234 1.84556 1
-2.79852 0.589332 0.446416 55
-7.1656 0.216258 1.38546 32
-2.81973 0.593822 0.249048 90
-7.26193 0.227945 0.886556 30
-0.692358 0.144865 0.0117367 4
-3.04387 0.100443 0.157793 23
-0.63779 0.133452 -0.0324251 73
-0.629088 0.0248796 -0.0103842 4
-0.779741 0.163748 -0.0934018 61
-0.656798 0.0256623 -0.0543637 64
-0.781095 0.164456 -0.148088 53
-0.794612 0.0295163 -0.120587 56
-0.792646 0.167468 -0.207567 52
-0.774726 0.0281284 -0.170704 53
-2.78432 0.602075 0.648564 52
-6.92569 0.232224 1.84491 1
-2.79781 0.604499 0.446807 55
-7.15706 0.25227 1.38403 32
-2.81669 0.608086 0.249048 90
-7.26807 0.266232 0.887469 33
-0.681844 0.146251 0.0115622 4
-3.04829 0.116563 0.158055 24
-0.632203 0.135731 -0.0321625 68
-0.626456 0.0279709 -0.0103405 4
-0.783722 0.168882 -0.0940102 59
-0.656655 0.0291009 -0.0543637 64
-0.782651 0.168929 -0.148564 53
-0.796914 0.033766 -0.120979 56
-0.78707 0.170447 -0.206274 52
-0.779437 0.0323562 -0.171827 52
-2.78326 0.606933 0.648564 50
-6.91803 0.24406 1.84298 1
-2.7871 0.607274 0.445246 36
-7.16392 0.266278 1.38546 33
-2.80589 0.610878 0.248176 90
-7.26512 0.278823 0.887165 33
-0.681562 0.14756 0.0115622 4
-3.04559 0.121787 0.157924 23
-0.634404 0.137368 -0.0322938 64
-0.626406 0.0290642 -0.0103405 4
-0.788274 0.171312 -0.0946187 59
-0.659091 0.0303434 -0.0545811 67
-0.787149 0.171347 -0.149516 53
-0.796854 0.0351569 -0.120979 56
-0.786741 0.171958 -0.206274 52
-0.776945 0.0336264 -0.171266 53
-2.77994 0.621983 0.648564 52
-6.92626 0.281873 1.84556 1
-2.791 0.623964 0.446416 53
-7.15752 0.30358 1.38451 30
-2.80254 0.62605 0.248176 59
-7.25855 0.317913 0.886556 33
-0.683219 0.151673 0.0116058 3
-3.0374 0.137935 0.157531 23
-0.628804 0.139595 -0.0320313 61
-0.628737 0.0325633 -0.0103842 8
-0.782494 0.174486 -0.0940102 59
-0.656435 0.0336845 -0.0543637 70
-0.783816 0.175064 -0.14904 55
-0.796659 0.0393287 -0.120979 58
-0.78583 0.176075 -0.206274 52
