# .PCD v0.7 - Point Cloud Data file format
VERSION 0.7
FIELDS x y z intensity
SIZE 4 4 4 4
TYPE F F F F
COUNT 1 1 1 1
WIDTH 1516
HEIGHT 1
VIEWPOINT 0 0 0 1 0 0 0
POINTS 1516
DATA ascii
-7.06887 -0.904457 1.63461 26
-6.99265 -2.21575 1.95348 1
-7.01298 -0.897304 1.11175 1
-7.23562 -2.27909 1.46648 38
-7.01078 -0.898254 0.61532 1
-7.32594 -2.29639 0.93706 32
-3.114 -0.399204 0.0541897 18
-1.69975 -0.527655 0.0914571 50
-0.661046 -0.0857269 -0.0332127 55
-1.69719 -0.52621 -0.0304108 55
-0.819759 -0.105544 -0.0970526 55
-0.830689 -0.255144 -0.0728473 53
-0.816062 -0.104791 -0.152849 52
-0.819017 -0.251927 -0.130375 49
-0.817989 -0.104473 -0.211447 47
-0.812916 -0.250902 -0.188112 44
-7.06883 -0.865606 1.63348 26
-7.24854 -2.25532 2.02197 36
-7.01758 -0.860572 1.11175 1
-7.23573 -2.23754 1.4641 33
-7.00797 -0.860625 0.614666 1
-7.33549 -2.25727 0.936756 33
-3.1086 -0.381983 0.0540588 24
-1.7001 -0.518014 0.0913262 50
-0.663978 -0.0824516 -0.033344 56
-1.69992 -0.517317 -0.0304108 53
-0.822764 -0.10155 -0.0973569 53
-0.829677 -0.249914 -0.0726299 53
-0.816599 -0.100517 -0.152849 52
-0.822685 -0.248362 -0.130767 49
-0.81373 -0.0996102 -0.210153 49
-0.818873 -0.248081 -0.189235 45
-7.07033 -0.853268 1.63348 27
-7.23863 -2.23838 2.0181 33
-7.01907 -0.848323 1.11175 1
-7.22594 -2.21931 1.46124 30
-6.99957 -0.847197 0.613794 1
-7.32518 -2.2401 0.93493 33
-3.11181 -0.376313 0.0541025 29
-1.69623 -0.513586 0.0910646 50
-0.659164 -0.0806962 -0.0330815 56
-1.69126 -0.511429 -0.0302363 53
-0.820476 -0.0998185 -0.0970526 55
-0.825348 -0.247011 -0.0721949 53
-0.816774 -0.0990912 -0.152849 52
-0.820756 -0.246203 -0.130375 49
-0.818716 -0.0986172 -0.211447 50
-0.80999 -0.24379 -0.186989 47
-7.06758 -0.814166 1.6318 27
-7.24139 -2.19637 2.01551 33
-7.01865 -0.809769 1.11097 1
-7.22807 -2.1786 1.45933 32
-6.9991 -0.808743 0.613359 1
-7.32769 -2.19758 0.933713 32
-3.11125 -0.359728 0.0540588 30
-1.6942 -0.502967 0.0908029 50
-0.654617 -0.0766733 -0.0328189 56
-1.69161 -0.501554 -0.0301927 53
-0.816074 -0.0948134 -0.0964442 55
-0.819473 -0.240542 -0.0715426 52
-0.814859 -0.0943923 -0.152373 52
-0.826764 -0.243323 -0.131158 49
-0.819221 -0.094329 -0.211447 50
-0.811297 -0.239404 -0.186989 47
-7.06401 -0.802515 1.63068 26
-7.23134 -2.17954 2.01164 33
-7.0101 -0.797628 1.10941 1
-7.22246 -2.16316 1.45742 30
-7.00545 -0.797088 0.613794 1
-7.31687 -2.1818 0.931888 32
-3.11188 -0.354298 0.0540588 29
-1.69738 -0.501018 0.0909337 50
-0.662192 -0.0763733 -0.0332127 56
-1.69248 -0.498601 -0.0301927 56
-0.816222 -0.0935314 -0.0964442 55
-0.822278 -0.239822 -0.07176 52
-0.817462 -0.093244 -0.152849 52
-0.820089 -0.239761 -0.129984 49
-0.819384 -0.0928991 -0.211447 50
-0.811673 -0.238129 -0.186989 45
-7.06327 -0.764993 1.62955 27
-7.23302 -2.14016 2.00905 33
-7.01418 -0.760913 1.10941 1
-7.23567 -2.12727 1.4579 33
-7.28175 -0.791159 0.637762 36
-7.32105 -2.14137 0.930975 32
-3.11115 -0.338273 0.0540152 26
-1.69758 -0.491424 0.0908029 50
-0.662582 -0.0729051 -0.0332127 58
-1.69738 -0.490729 -0.0302363 56
-0.821635 -0.0897873 -0.0970526 55
-0.825913 -0.236211 -0.0719775 52
-0.815483 -0.0888436 -0.152373 52
-0.823703 -0.236157 -0.130375 49
-0.819844 -0.0887506 -0.211447 50
-0.812908 -0.233876 -0.186989 45
-7.06217 -0.752407 1.62899 27
-7.23442 -2.12685 2.0084 33
-7.01304 -0.748408 1.10902 1
-7.22561 -2.10924 1.45504 33
-7.00329 -0.748593 0.613141 1
-7.31763 -2.12651 0.930062 32
-3.10682 -0.331771 0.0539279 23
-1.68885 -0.485674 0.0902795 50
-0.660226 -0.071485 -0.0330815 58
-1.69103 -0.485676 -0.0301054 55
-0.814387 -0.0875698 -0.0961399 55
-0.826324 -0.234769 -0.0719775 52
-0.813196 -0.0871628 -0.151897 52
-0.819372 -0.23334 -0.129592 49
-0.817611 -0.0869253 -0.2108 52
-0.810977 -0.231774 -0.186427 47
-7.06372 -0.713941 1.62843 27
-7.24119 -2.08634 2.00711 33
-7.00471 -0.709212 1.10707 1
-7.23655 -2.07138 1.45504 33
-7.27484 -0.737778 0.636673 36
-7.31948 -2.08416 0.928846 32
-3.10354 -0.314997 0.0538407 17
-1.69145 -0.476529 0.0902795 50
-0.660591 -0.0680271 -0.0330815 58
-1.69604 -0.477203 -0.030149 61
-0.809911 -0.0826668 -0.0955314 55
-0.820356 -0.228395 -0.0713251 53
-0.816098 -0.0830059 -0.152373 52
-0.815834 -0.227692 -0.128809 49
-0.818055 -0.0826431 -0.2108 50
-0.814561 -0.228053 -0.186989 47
-6.84665 -0.681183 1.57789 1
-7.23553 -2.07103 2.00453 33
-7.0009 -0.697719 1.10629 1
-7.22599 -2.05471 1.45218 33
-7.28603 -0.726066 0.637544 30
-7.3132 -2.06995 0.927629 33
-3.10657 -0.309827 0.0538843 14
-1.6922 -0.473872 0.0902795 50
-0.660709 -0.066874 -0.0330815 58
-1.69447 -0.473563 -0.0301054 74
-0.814979 -0.0818822 -0.0961399 55
-0.81596 -0.225608 -0.0708902 52
-0.813799 -0.0813415 -0.151897 52
-0.820981 -0.227614 -0.129592 49
-0.815794 -0.0809808 -0.210153 50
-0.807889 -0.224773 -0.185304 44
-6.84527 -0.644869 1.57677 1
-7.2436 -2.03373 2.00388 33
-6.99954 -0.66059 1.10551 1
-7.24103 -2.01943 1.45314 35
-7.28217 -0.688477 0.636891 36
-7.32632 -2.03229 0.927933 35
-3.09566 -0.292927 0.0536661 12
-1.69706 -0.465672 0.0904104 52
-0.653593 -0.062714 -0.0326876 56
-1.69925 -0.465647 -0.030149 90
-0.826731 -0.223992 -0.07176 52
-0.806869 -0.0765388 -0.150468 53
-0.824541 -0.223973 -0.129984 49
-0.816194 -0.0768507 -0.210153 50
-0.813748 -0.221849 -0.186427 47
-6.91916 -0.639633 1.59361 1
-7.23085 -2.01653 1.99936 33
-7.00314 -0.6486 1.1059 1
-7.2307 -2.00159 1.45028 33
-7.2784 -0.675307 0.636455 36
-7.31551 -2.01554 0.926107 33
-3.0987 -0.287213 0.0537098 11
-1.69546 -0.462047 0.0902795 53
-0.653702 -0.0615732 -0.0326876 56
-1.69042 -0.460029 -0.0299745 90
-0.819916 -0.220567 -0.0711077 50
-0.809446 -0.0753538 -0.150945 53
-0.82255 -0.221877 -0.129592 50
-0.81634 -0.0752836 -0.210153 52
-0.804743 -0.217827 -0.184181 44
-7.073 -0.615247 1.62843 1
-7.24399 -1.97802 2 33
-6.99425 -0.60963 1.10394 1
-7.23872 -1.96306 1.4498 35
-7.27203 -0.635053 0.635583 36
-7.32152 -1.97464 0.925499 33
-3.08522 -0.269685 0.053448 11
-1.69553 -0.452217 0.0901487 52
-0.654015 -0.0581496 -0.0326876 56
-1.70012 -0.452826 -0.0301054 85
-0.810986 -0.0713506 -0.0955314 55
-0.82106 -0.216271 -0.0711077 50
-0.809841 -0.0709731 -0.150945 52
-0.826084 -0.218211 -0.129984 50
-0.814317 -0.0708032 -0.209507 50
-0.812963 -0.215382 -0.185866 47
-7.07638 -0.604343 1.62899 1
-7.23578 -1.9622 1.99677 33
-7.00012 -0.599063 1.10472 1
-7.22791 -1.94658 1.44694 35
-7.28057 -0.622995 0.636237 36
-7.31742 -1.9612 0.924586 33
-3.09565 -0.265149 0.0536225 11
-1.689 -0.447614 0.0897562 52
-0.654116 -0.057008 -0.0326876 56
-1.69367 -0.447921 -0.0299745 82
-0.816042 -0.0704953 -0.0961399 56
-0.816624 -0.21355 -0.0706728 50
-0.81241 -0.0697654 -0.151421 52
-0.819309 -0.214849 -0.128809 50
-0.814439 -0.0693819 -0.209507 50
-0.810948 -0.213471 -0.185304 45
-7.06488 -0.566118 1.62562 1
-7.23395 -1.92245 1.99354 33
-6.99823 -0.562008 1.10394 1
-7.22819 -1.90746 1.44503 35
-7.28115 -0.585938 0.636019 36
-7.32279 -1.9216 0.923978 33
-3.09446 -0.249277 0.0535789 11
-1.69374 -0.439398 0.089887 52
-0.651907 -0.0534976 -0.0325564 56
-1.69108 -0.438076 -0.0298872 74
-0.813927 -0.0660252 -0.0958357 56
-0.810467 -0.207519 -0.0700204 49
-0.815199 -0.065846 -0.151897 52
-0.820423 -0.210557 -0.128809 50
-0.817187 -0.0654474 -0.210153 50
-0.809699 -0.208601 -0.184742 47
-7.06819 -0.55521 1.62618 1
-7.22095 -1.90549 1.98902 32
-6.9992 -0.549793 1.10394 1
-7.22676 -1.8936 1.44408 35
-7.28216 -0.573229 0.636019 36
-7.31413 -1.90568 0.922457 33
-3.09738 -0.244071 0.0536225 11
-1.68484 -0.433924 0.0893636 52
-0.659467 -0.0529435 -0.0329502 58
-1.68216 -0.432607 -0.0297127 74
-0.814041 -0.0646045 -0.0958357 56
-0.806008 -0.20485 -0.0695855 50
-0.81776 -0.0646122 -0.152373 53
-0.820789 -0.209124 -0.128809 49
-0.8173 -0.064021 -0.210153 52
-0.812419 -0.207805 -0.185304 47
-7.0638 -0.516428 1.6245 1
-7.22381 -1.86584 1.98708 32
-6.9946 -0.512598 1.10277 1
-7.22944 -1.8539 1.44265 35
-7.27761 -0.534546 0.635365 36
-7.31679 -1.86551 0.921544 35
-3.11607 -0.229125 0.0539279 8
-1.69192 -0.42633 0.0896253 52
-0.657253 -0.0491935 -0.0328189 58
-1.67229 -0.420711 -0.0294946 15
-0.814368 -0.0603413 -0.0958357 56
-0.809518 -0.2011 -0.069803 49
-0.810743 -0.0598006 -0.150945 52
-0.819481 -0.204213 -0.128418 49
-0.815216 -0.059569 -0.209507 52
-0.808776 -0.202338 -0.184181 49
-7.07441 -0.50479 1.62674 1
-7.21302 -1.84962 1.9832 33
-6.98809 -0.499862 1.1016 1
-7.21634 -1.83577 1.43931 33
-7.2835 -0.522199 0.635801 36
-7.31523 -1.85152 0.920935 33
-3.14393 -0.225094 0.0544079 2
-1.68783 -0.422151 0.0893636 52
-0.657338 -0.0480463 -0.0328189 58
-0.811997 -0.0587451 -0.0955314 56
-0.805038 -0.198467 -0.069368 50
-0.813294 -0.0585575 -0.151421 53
-0.819836 -0.202783 -0.128418 49
-0.817738 -0.058171 -0.210153 52
-0.811489 -0.201527 -0.184742 49
-7.0746 -0.466347 1.62618 1
-7.21824 -1.80939 1.98191 32
-6.99316 -0.462208 1.10199 1
-7.21871 -1.79618 1.43788 35
-7.28125 -0.482456 0.635365 35
-7.31791 -1.81012 0.920023 33
-3.21989 -0.21356 0.0557168 2
-1.68524 -0.411814 0.089102 52
-0.657581 -0.0446039 -0.0328189 58
-0.809826 -0.0541895 -0.0952272 56
-0.806067 -0.194249 -0.069368 49
-0.81115 -0.0539975 -0.150945 53
-0.81849 -0.197893 -0.128026 49
-0.815621 -0.0537339 -0.209507 52
-0.810203 -0.196545 -0.184181 47
-7.07776 -0.45539 1.62674 1
-7.2167 -1.79562 1.98062 33
-6.99141 -0.451064 1.1016 1
-7.21469 -1.78181 1.43645 35
-7.27959 -0.469587 0.635147 35
-7.31834 -1.79803 0.919718 33
-1.68831 -0.409762 0.0892328 52
-0.655166 -0.0432968 -0.0326876 58
-1.58129 -0.382605 -0.027793 14
-0.812387 -0.0530749 -0.0955314 56
-0.799148 -0.191062 -0.0687157 49
-0.808794 -0.0524272 -0.150468 53
-0.821231 -0.197054 -0.128418 49
-0.810893 -0.0520096 -0.208214 50
-0.810511 -0.195273 -0.184181 49
-6.96332 -0.411451 1.59979 1
-7.22335 -1.7585 1.97997 35
-6.99861 -0.414743 1.10238 1
-7.20692 -1.74122 1.43312 33
-7.2769 -0.432441 0.634712 33
-7.31559 -1.75678 0.918197 33
-1.68557 -0.399751 0.0889711 52
-0.650399 -0.0395731 -0.0324251 58
-1.56619 -0.370518 -0.0274875 17
-0.807699 -0.0485314 -0.094923 56
-0.800137 -0.186875 -0.0687157 47
-0.811499 -0.048475 -0.150945 53
-0.81745 -0.191597 -0.127635 50
-0.808735 -0.0477665 -0.207567 52
-0.811522 -0.191026 -0.184181 47
-6.86674 -0.393739 1.57733 1
-7.22172 -1.74475 1.97868 33
-7.27544 -0.418351 1.14609 38
-7.20786 -1.72681 1.43264 35
-7.27765 -0.41974 0.634712 33
-1.68141 -0.395651 0.0887094 53
-0.650467 -0.0384379 -0.0324251 59
-1.5644 -0.367205 -0.0274439 20
-0.81026 -0.0472619 -0.0952272 56
-0.814033 -0.0471965 -0.151421 52
-0.815382 -0.189597 -0.127243 49
-0.813648 -0.0464808 -0.20886 52
-0.811855 -0.189609 -0.184181 49
-6.86147 -0.356203 1.57565 1
-7.224 -1.70398 1.97674 33
-7.27759 -0.378981 1.14609 38
-7.20964 -1.68736 1.43121 35
-7.28976 -0.380876 0.635583 33
-1.68353 -0.386548 0.0887094 55
-0.65066 -0.0350315 -0.0324251 59
-1.56637 -0.358736 -0.0274439 24
-0.812982 -0.0430041 -0.0955314 56
-0.814276 -0.0427914 -0.151421 53
-0.816396 -0.185183 -0.127243 49
-0.811468 -0.042099 -0.208214 52
-0.812869 -0.185214 -0.184181 47
-6.86932 -0.34579 1.57733 1
-7.22461 -1.69082 1.97609 35
-7.27578 -0.366155 1.1457 36
-7.21257 -1.67478 1.43121 35
-7.28544 -0.367902 0.635147 33
-7.08435 -1.63453 0.887165 1
-1.6842 -0.383609 0.0887094 55
-0.645733 -0.0336467 -0.0321625 59
-1.57917 -0.358806 -0.0276621 21
-0.808099 -0.0413401 -0.094923 56
-0.816718 -0.183757 -0.127243 50
-0.81154 -0.0406827 -0.208214 50
-0.810818 -0.183244 -0.183619 49
-6.8686 -0.309709 1.57677 1
-7.2166 -1.65045 1.97157 33
-7.27507 -0.329213 1.14531 38
-7.21617 -1.63716 1.43026 35
-7.28223 -0.330798 0.634712 33
-7.08043 -1.59592 0.885643 1
-1.68612 -0.37508 0.0887094 55
-0.650888 -0.0304882 -0.0324251 59
-1.59803 -0.35465 -0.0279675 21
-0.805819 -0.0371395 -0.0946187 56
-0.817637 -0.179621 -0.127243 50
-0.811736 -0.0365746 -0.208214 49
-0.809359 -0.178599 -0.183058 47
-6.86913 -0.297721 1.57677 1
-7.21476 -1.63678 1.97028 33
-7.2707 -0.316302 1.14453 36
-7.20493 -1.62006 1.4274 35
-7.29026 -0.318412 0.635365 32
-7.2987 -1.63188 0.912721 33
-1.67703 -0.369958 0.0881861 55
-0.648446 -0.029245 -0.0322938 59
-1.61329 -0.355126 -0.0282293 30
-0.810841 -0.0359443 -0.0952272 56
-0.807256 -0.0355153 -0.149992 52
-0.81554 -0.177655 -0.126852 50
-0.809391 -0.0349162 -0.207567 49
-0.807293 -0.176651 -0.182496 49
-6.87308 -0.260643 1.57733 1
-7.22115 -1.5972 1.96963 33
-7.27477 -0.277053 1.14492 36
-7.21092 -1.58179 1.42692 35
-7.2869 -0.278774 0.63493 32
-7.07955 -1.54256 0.884122 1
-1.68144 -0.361411 0.0883169 55
-0.651085 -0.0259435 -0.0324251 59
-1.63228 -0.350111 -0.0285347 45
-0.808544 -0.0314645 -0.094923 56
-0.762505 -0.161072 -0.065019 41
-0.812342 -0.0313278 -0.150945 52
-0.816459 -0.173382 -0.126852 50
-0.81439 -0.0308523 -0.20886 50
-0.812996 -0.173325 -0.183619 49
-7.07067 -0.256974 1.62281 23
-7.20978 -1.58148 1.96575 33
-7.27767 -0.265715 1.14531 38
-7.20888 -1.56816 1.42597 35
-7.29484 -0.266326 0.635583 32
-7.07711 -1.53038 0.883514 1
-3.12739 -0.114423 0.0540152 9
-1.68201 -0.358769 0.0883169 55
-0.648635 -0.0247173 -0.0322938 59
-1.66221 -0.353585 -0.0290583 53
-0.811072 -0.0302827 -0.0952272 56
-0.760351 -0.159216 -0.0648015 41
-0.80749 -0.0297378 -0.149992 52
-0.819174 -0.172479 -0.127243 49
-0.812029 -0.0293478 -0.208214 50
-0.810887 -0.171529 -0.183058 47
-6.86982 -0.213703 1.57621 1
-7.22005 -1.54548 1.9664 35
-7.27649 -0.227529 1.14492 38
-7.21192 -1.53063 1.42502 35
-7.29361 -0.229323 0.635365 29
-7.07532 -1.49125 0.882297 1
-3.08795 -0.0973501 0.0533171 9
-1.68386 -0.349957 0.0883169 55
-0.651251 -0.0213974 -0.0324251 61
-1.66643 -0.345682 -0.0291019 52
-0.806259 -0.0258848 -0.0946187 56
-0.758737 -0.15472 -0.064584 41
-0.812536 -0.0257977 -0.150945 52
-0.815234 -0.167168 -0.12646 49
-0.809753 -0.0251666 -0.207567 50
-0.809391 -0.166776 -0.182496 47
-6.86288 -0.201499 1.57452 1
-7.21565 -1.53136 1.96446 33
-7.26947 -0.214611 1.14375 36
-7.21244 -1.51627 1.42454 35
-7.28902 -0.216446 0.63493 30
-7.06819 -1.47687 0.88108 1
-3.10063 -0.0917857 0.0535353 12
-1.68203 -0.346507 0.0881861 55
-0.648792 -0.0201884 -0.0322938 61
-1.67682 -0.344814 -0.0292764 58
-0.808784 -0.0245486 -0.094923 56
-0.75413 -0.152378 -0.0641491 41
-0.81258 -0.0243795 -0.150945 52
-0.815524 -0.165745 -0.12646 50
-0.812214 -0.0236781 -0.208214 50
-0.807297 -0.164861 -0.181935 49
-6.85656 -0.164191 1.57284 1
-7.22383 -1.4923 1.96446 33
-7.26806 -0.175218 1.14336 36
-7.22028 -1.47849 1.42454 35
-7.28759 -0.176945 0.634712 29
-7.07122 -1.43761 0.880471 1
-3.10606 -0.0756692 0.0536225 14
-1.68143 -0.336904 0.0880552 55
-0.65388 -0.0169096 -0.0325564 61
-1.68111 -0.336234 -0.02932 61
-0.803943 -0.0200572 -0.0943145 56
-0.750036 -0.147436 -0.0637142 39
-0.8127 -0.0199827 -0.150945 52
-0.813962 -0.160979 -0.126069 50
-0.805084 -0.0192645 -0.206274 50
-0.808177 -0.160491 -0.181935 49
-6.87386 -0.153799 1.57677 1
-7.2146 -1.47726 1.96123 35
-7.27079 -0.163856 1.14375 35
-7.21083 -1.46343 1.42216 35
-7.2854 -0.16417 0.634494 32
-7.07104 -1.42601 0.880167 1
-3.10369 -0.0701926 0.0535789 15
-1.67951 -0.333769 0.0879244 56
-0.648917 -0.0156586 -0.0322938 59
-1.67924 -0.332806 -0.0292764 62
-0.808935 -0.0189017 -0.094923 56
-0.812734 -0.0185643 -0.150945 52
-0.814241 -0.159558 -0.126069 50
-0.805116 -0.0178593 -0.206274 50
-0.810815 -0.159706 -0.182496 49
-6.88675 -0.118012 1.57958 1
-7.21961 -1.44025 1.96058 33
-7.27649 -0.125869 1.14453 35
-7.21333 -1.42596 1.4212 35
-7.29112 -0.12738 0.63493 29
-7.0638 -1.38609 0.878342 1
-3.09901 -0.054397 0.0534916 30
-1.67879 -0.32449 0.0877936 56
-0.646491 -0.0123317 -0.0321625 59
-1.68336 -0.324783 -0.02932 64
-0.806542 -0.0146252 -0.0946187 56
-0.807909 -0.0143716 -0.149992 53
-0.817488 -0.155769 -0.12646 50
-0.810026 -0.0138583 -0.207567 50
-0.80925 -0.154986 -0.181935 49
-6.91616 -0.107643 1.58631 1
-7.21027 -1.4253 1.95735 33
-7.27176 -0.113093 1.14375 36
-7.21099 -1.41242 1.42025 35
-7.06864 -1.37423 0.878646 1
-3.0966 -0.0489498 0.053448 36
-1.67445 -0.320607 0.0875319 55
-0.646512 -0.0112033 -0.0321625 59
-1.67901 -0.320892 -0.0292328 64
-0.804085 -0.0131811 -0.0943145 56
-0.805479 -0.0129264 -0.149516 53
-0.810488 -0.152926 -0.125285 50
-0.805219 -0.0123787 -0.206274 50
-0.807129 -0.153105 -0.181373 49
-7.20815 -1.3857 1.95477 33
-7.21588 -1.37419 1.41977 35
-7.07086 -1.33628 0.878037 1
-3.09931 -0.0327607 0.0534916 24
-1.67856 -0.312299 0.0876627 56
-0.646563 -0.00770518 -0.0321625 59
-1.67822 -0.311634 -0.0291891 64
-0.806624 -0.00899415 -0.0946187 58
-0.80799 -0.00873105 -0.149992 53
-0.81613 -0.149599 -0.126069 49
-0.807688 -0.00818269 -0.20692 50
-0.805526 -0.148421 -0.180812 49
-7.20819 -1.37266 1.95412 33
-7.20886 -1.35851 1.41787 35
-3.09315 -0.0278391 0.267568 8
-7.06831 -1.32302 0.877429 1
-3.10437 -0.0268514 0.0535789 23
-1.6791 -0.309368 0.0876627 56
-0.646576 -0.00657671 -0.0321625 59
-1.67876 -0.308704 -0.0291891 56
-0.804158 -0.00756726 -0.0943145 58
-0.803096 -0.00728485 -0.14904 53
-0.811536 -0.147264 -0.125285 50
-0.805287 -0.00661643 -0.206274 50
-0.808178 -0.147467 -0.181373 49
-7.20838 -1.33232 1.95218 33
-3.10928 -0.0106232 0.485829 4
-7.21346 -1.3203 1.41739 35
-3.08578 -0.0110798 0.266914 9
-7.06804 -1.28342 0.876516 1
-3.09197 -0.0105596 0.0533607 14
-1.67584 -0.299387 0.087401 53
-0.649098 -0.00319814 -0.0322938 59
-1.6681 -0.297388 -0.028971 47
-0.806668 -0.00322189 -0.0946187 58
-0.803123 -0.0029396 -0.14904 53
-0.809867 -0.142571 -0.124894 49
-0.805311 -0.00239988 -0.206274 52
-0.806568 -0.142653 -0.180812 49
-7.20357 -1.31843 1.95025 33
-3.0846 -0.00570463 0.481927 2
-7.20851 -1.30639 1.41596 36
-3.07085 -0.00567323 0.265607 1
-7.07005 -1.27232 0.876516 1
-3.07948 -0.00514781 0.0531426 14
-1.67385 -0.296312 0.0872702 39
-0.646606 -0.00206263 -0.0321625 59
-1.66124 -0.293152 -0.0288401 47
-0.799228 -0.00194958 -0.093706 59
-0.805581 -0.00153831 -0.149516 55
-0.807684 -0.140719 -0.124502 50
-0.802899 -0.000995614 -0.205627 52
-0.804394 -0.140952 -0.18025 47
-7.20064 -1.28025 1.94766 33
-3.0599 0.0103515 0.478025 11
-7.20536 -1.26818 1.41405 35
-3.05092 0.00979672 0.263864 14
-7.06928 -1.234 0.875603 1
-3.07947 0.0104389 0.0531426 21
-1.67538 -0.287544 0.0872702 18
-0.641615 0.00130208 -0.0319 59
-1.66024 -0.284312 -0.0287965 47
-0.799227 0.00223518 -0.093706 59
-0.810487 0.00256309 -0.150468 56
-0.810842 -0.136913 -0.124894 50
-0.805121 -0.136738 -0.18025 49
-7.20287 -1.26768 1.94766 33
-3.04506 0.0156093 0.475683 9
-6.96603 -1.21211 1.3664 1
-3.05089 0.0151216 0.263864 15
-7.06898 -1.22123 0.875299 1
-3.04445 0.0161494 0.0525317 23
-1.6931 -0.287594 0.0881861 14
-0.644108 0.00243672 -0.0320313 61
-1.65334 -0.28014 -0.0286656 11
-0.796741 0.0036145 -0.0934018 59
-0.704993 -0.11666 -0.0593651 38
-0.803119 0.00392882 -0.14904 55
-0.803781 -0.134234 -0.123719 50
-0.810158 -0.136168 -0.181373 47
-7.20724 -1.22829 1.94701 35
-3.05234 0.0321658 0.476854 9
-7.20457 -1.21495 1.41215 36
-3.05326 0.0316551 0.264082 14
-7.06569 -1.18133 0.874082 1
-3.04932 0.0321448 0.052619 26
-0.646583 0.0058371 -0.0321625 61
-0.79671 0.00792521 -0.0934018 61
-0.693311 -0.110916 -0.0582778 38
-0.807994 0.00833315 -0.149992 55
-0.806908 -0.130432 -0.124111 50
-0.803677 -0.130568 -0.179689 49
-7.19985 -1.21409 1.94443 36
-3.05475 0.0369914 0.477244 9
-7.197 -1.20075 1.41024 35
-3.05569 0.0370153 0.2643 14
-7.06264 -1.16941 0.873474 1
-3.04676 0.037435 0.0525754 24
-0.644075 0.00693335 -0.0320313 61
-0.796696 0.00917666 -0.0934018 61
-0.693504 -0.109706 -0.0582778 39
-0.807978 0.00974335 -0.149992 56
-0.807134 -0.129024 -0.124111 50
-0.802835 0.0102147 -0.205627 52
-0.808686 -0.130108 -0.180812 49
-7.20352 -1.17725 1.94378 35
-3.12365 0.0542162 0.48817 1
-6.96074 -1.12499 1.36258 1
-3.08783 0.0530517 0.267132 2
-7.05887 -1.13084 0.872257 1
-3.07903 0.053434 0.0531426 3
-0.641534 0.0102603 -0.0319 61
-1.70848 -0.268204 -0.0295818 11
-0.799118 0.0133939 -0.093706 62
-0.686691 -0.104894 -0.0576255 39
-0.805465 0.0137865 -0.149516 53
-0.812675 -0.125579 -0.124894 50
-0.802773 0.0142781 -0.205627 52
-0.809357 -0.125872 -0.180812 50
-7.20079 -1.1639 1.94249 36
-6.96531 -1.11201 1.36306 1
-3.07778 0.0582479 0.266261 11
-7.06083 -1.11852 0.872257 1
-3.07392 0.0592466 0.0530553 14
-0.646507 0.0114793 -0.0321625 61
-1.71882 -0.266782 -0.0297564 15
-0.801575 0.0148389 -0.0940102 67
-0.686873 -0.103695 -0.0576255 39
-0.80544 0.0151923 -0.149516 55
-0.810454 -0.123773 -0.124502 50
-0.807572 0.0159229 -0.20692 52
-0.804764 -0.12369 -0.179689 47
-7.2046 -1.12455 1.94184 36
-6.96134 -1.07402 1.36115 1
-7.05942 -1.07917 0.871344 1
-3.09106 0.0757774 0.0533607 15
-0.646438 0.0148642 -0.0321625 64
-0.796521 0.0190482 -0.0934018 70
-0.689868 -0.100473 -0.0578429 44
-0.812706 0.0197413 -0.150945 58
-0.813552 -0.11976 -0.124894 50
-0.805064 0.0200866 -0.206274 52
-0.803014 -0.118963 -0.179127 47
-7.16296 0.189911 1.64359 44
-7.19939 -1.11086 1.93991 35
-7.26268 0.192587 1.14258 36
-6.95835 -1.06113 1.3602 1
-7.05884 -1.06647 0.87104 1
-3.10092 0.0814391 0.0535353 14
-0.651402 0.0161267 -0.0324251 73
-0.801448 0.0205744 -0.0940102 71
-0.680192 -0.0977827 -0.0569731 44
-0.810217 0.0210916 -0.150468 58
-0.808878 -0.117601 -0.124111 50
-0.802614 0.021423 -0.205627 52
-0.805628 -0.117928 -0.179689 49
-7.14478 0.228116 1.63966 33
-7.20033 -1.07243 1.93861 33
-7.2591 0.230533 1.14219 38
-6.95895 -1.02396 1.35925 1
-7.27117 0.22966 0.633404 27
-7.06187 -1.02914 0.870736 1
-3.08546 0.0971953 0.0532735 11
-0.653804 0.0196173 -0.0325564 74
-0.803809 0.0248514 -0.0943145 71
-0.675766 -0.0935025 -0.0565382 45
-0.805189 0.0251717 -0.149516 58
-0.809482 -0.113364 -0.124111 50
-0.80249 0.0256252 -0.205627 52
-0.801414 -0.112999 -0.178566 47
-7.14685 0.239421 1.64022 33
-7.19502 -1.05881 1.93668 35
-7.26116 0.243285 1.14258 38
-6.96316 -1.01217 1.35972 1
-7.27076 0.24235 0.633404 27
-7.29206 -1.04985 0.89903 35
-3.08528 0.10258 0.0532735 9
-0.656264 0.0208429 -0.0326876 80
-0.791365 0.0258278 -0.0927933 71
-0.668532 -0.0912599 -0.0558859 45
-0.802692 0.0264918 -0.14904 58
-0.809679 -0.111951 -0.124111 50
-0.800031 0.0269402 -0.20498 52
-0.806432 -0.112301 -0.179689 49
-7.1455 0.276838 1.64022 33
-7.1979 -1.02203 1.93603 33
-7.2549 0.279842 1.1418 38
-6.9609 -0.975883 1.35829 1
-7.27193 0.279244 0.633622 30
-7.05643 -0.979334 0.869214 1
-3.12469 0.119744 0.0539716 3
-0.658641 0.0243764 -0.0328189 82
-0.788745 0.029735 -0.092489 73
-0.671468 -0.0880997 -0.0561033 45
-0.809904 0.0308471 -0.150468 58
-0.805344 -0.107171 -0.123328 50
-0.802297 0.0310869 -0.205627 52
-0.802165 -0.107542 -0.178566 50
-7.14744 0.289408 1.64078 33
-7.18772 -1.00779 1.9328 33
-7.2618 0.292804 1.14297 36
-6.95304 -0.961166 1.35639 1
-7.26894 0.291835 0.633404 32
-7.04092 -0.964647 0.867085 1
-3.05757 -0.414006 0.159886 9
-0.653608 0.025322 -0.0325564 85
-0.788691 0.0311116 -0.092489 77
-0.669153 -0.0865905 -0.0558859 47
-0.807397 0.0321587 -0.149992 58
-0.80553 -0.105765 -0.123328 50
-0.799823 0.0325248 -0.20498 53
-0.802351 -0.106141 -0.178566 49
-7.1409 0.327851 1.63966 35
-7.19306 -0.968882 1.9328 32
-7.26011 0.33209 1.14297 32
-6.95311 -0.924097 1.35543 1
-7.2797 0.331728 0.634494 32
-7.05096 -0.927189 0.867693 1
-3.05976 -0.397457 0.159886 9
-0.653467 0.0287439 -0.0325564 88
-0.79099 0.035494 -0.0927933 77
-0.662189 -0.082113 -0.0552335 47
-0.80476 0.0364115 -0.149516 58
-0.803625 -0.101223 -0.122936 50
-0.802054 0.0368272 -0.205627 52
-0.802914 -0.101799 -0.178566 50
-7.14281 0.339183 1.64022 35
-7.18756 -0.955367 1.93086 32
-7.25958 0.343493 1.14297 33
-6.95228 -0.91164 1.35496 1
-7.27662 0.344315 0.634276 27
-7.04748 -0.915469 0.867085 1
-3.05543 -0.392007 0.159625 9
-0.653416 0.0298844 -0.0325564 90
-0.790933 0.0367364 -0.0927933 79
-0.662332 -0.0809571 -0.0552335 49
-0.804695 0.037816 -0.149516 58
-0.801352 -0.0995013 -0.122545 50
-0.804401 0.0383462 -0.206274 52
-0.800657 -0.10022 -0.178004 49
-7.14094 0.376578 1.64022 35
-7.18752 -0.91836 1.92957 32
-7.26261 0.38176 1.14375 36
-6.95194 -0.875823 1.354 1
-7.2897 0.381926 0.635583 27
-7.05218 -0.878556 0.867085 1
-3.05249 -0.375387 0.159363 9
-0.658236 0.0335701 -0.0328189 90
-0.79073 0.0408772 -0.0927933 79
-0.665218 -0.077795 -0.0554509 49
-0.804493 0.0418884 -0.149516 58
-0.801862 -0.095304 -0.122545 50
-0.794551 0.0418914 -0.203687 53
-0.803588 -0.0963312 -0.178566 50
-7.1427 0.389174 1.64078 33
-7.18911 -0.905813 1.92957 32
-7.25454 0.394032 1.14258 38
-6.94873 -0.861867 1.35305 1
-7.28157 0.394243 0.63493 27
-7.04631 -0.865334 0.866172 1
-3.05561 -0.370363 0.159494 11
-0.658177 0.0347188 -0.0328189 90
-0.793135 0.042394 -0.0930975 82
-0.665353 -0.0766339 -0.0554509 49
-0.804419 0.0432925 -0.149516 58
-0.802027 -0.0939044 -0.122545 50
-0.799291 0.0436889 -0.20498 53
-0.796502 -0.0940277 -0.176881 50
-7.13563 0.427521 1.63966 33
-7.1915 -0.866613 1.92892 32
-7.25723 0.433572 1.14336 36
-6.94828 -0.82489 1.3521 1
-7.27684 0.433485 0.634712 30
-7.0435 -0.826325 0.865259 1
-3.05509 -0.353534 0.159363 11
-0.655494 0.0380148 -0.0326876 90
-0.787941 0.0463843 -0.092489 80
-0.663271 -0.0728593 -0.0552335 50
-0.801723 0.0474947 -0.14904 58
-0.797603 -0.0891259 -0.121762 52
-0.803872 0.0481707 -0.206274 53
-0.801838 -0.0902912 -0.178004 52
-7.14224 0.43918 1.64134 33
-7.18821 -0.853487 1.92763 32
-7.25407 0.444819 1.14297 36
-6.94483 -0.812188 1.35114 1
-7.27607 0.446185 0.634712 30
-7.04232 -0.814973 0.864955 1
-3.04821 -0.347874 0.15897 11
-0.647951 0.0386963 -0.0322938 90
-0.790344 0.047776 -0.0927933 83
-0.668346 -0.0722724 -0.0556684 52
-0.801639 0.0488939 -0.14904 58
-0.80021 -0.0880183 -0.122153 52
-0.796557 0.049115 -0.204334 53
-0.79714 -0.0884648 -0.176881 50
-7.14714 0.477058 1.64303 35
-7.18764 -0.816545 1.92634 32
-7.25165 0.482795 1.14297 38
-6.94642 -0.776752 1.35067 1
-7.26378 0.482345 0.63384 32
-7.27586 -0.803572 0.893249 33
-3.04999 -0.331909 0.15897 11
-0.652721 0.0424228 -0.0325564 90
-0.790083 0.0519135 -0.0927933 86
-0.663764 -0.0682271 -0.0552335 50
-0.801381 0.0529507 -0.14904 58
-0.803114 -0.084099 -0.122545 50
-0.798707 0.0533112 -0.20498 53
-0.802434 -0.0848312 -0.178004 52
-7.14143 0.489198 1.64191 35
-7.18185 -0.803189 1.9244 32
-7.25572 0.495789 1.14375 38
-6.9479 -0.763415 1.35067 1
-7.26044 0.494852 0.633622 33
-7.27478 -0.790603 0.892945 35
-3.05056 -0.326585 0.15897 11
-0.655137 0.0437335 -0.0326876 95
-0.792466 0.0534638 -0.0930975 86
-0.666358 -0.0673366 -0.0554509 50
-0.806184 0.05469 -0.149992 58
-0.800805 -0.0824297 -0.122153 52
-0.798604 0.0548445 -0.20498 53
-0.800159 -0.0831641 -0.177443 50
-7.13625 0.527649 1.64134 33
-7.18369 -0.764063 1.92375 32
-7.248 0.534674 1.14297 39
-6.94692 -0.726511 1.34971 1
-7.26014 0.53431 0.63384 33
-7.27895 -0.751231 0.892945 35
-3.04483 -0.309307 0.158578 11
-0.654899 0.0471632 -0.0326876 98
-0.79464 0.0579354 -0.0934018 88
-0.666701 -0.0638467 -0.0554509 50
-0.808324 0.0592347 -0.150468 56
-0.801226 -0.0782356 -0.122153 50
-0.800713 0.0592075 -0.205627 52
-0.793329 -0.0780735 -0.175758 52
-7.1427 0.53941 1.64303 35
-7.18261 -0.751271 1.92311 32
-7.24962 0.546245 1.14336 38
-6.94329 -0.71388 1.34876 1
-7.24927 0.54623 0.632969 35
-7.28012 -0.739796 0.892945 35
-3.05277 -0.30528 0.15897 11
-0.657305 0.048495 -0.0328189 101
-0.794548 0.0591835 -0.0934018 90
-0.664334 -0.0624321 -0.0552335 50
-0.798431 0.0598939 -0.148564 58
-0.796448 -0.0763363 -0.12137 50
-0.800609 0.0606049 -0.205627 53
-0.795874 -0.0770768 -0.17632 50
-7.13978 0.576801 1.64303 35
-7.18392 -0.714667 1.92246 30
-7.24666 0.584196 1.14336 38
-6.94682 -0.678728 1.34876 1
-7.24641 0.582915 0.632969 33
-7.27896 -0.701189 0.892337 33
-3.05681 -0.289531 0.159101 11
-0.654554 0.051734 -0.0326876 104
-0.791754 0.0631413 -0.0930975 89
-0.662172 -0.058715 -0.055016 52
-0.800564 0.0641346 -0.14904 59
-0.796837 -0.072165 -0.12137 52
-0.797885 0.0644577 -0.20498 53
-0.796266 -0.0729086 -0.17632 52
-7.14362 0.589664 1.64415 36
-7.17074 -0.700708 1.91858 30
-7.24563 0.596843 1.14336 38
-6.94322 -0.664919 1.34781 1
-7.25035 0.595971 0.633404 35
-7.27523 -0.688013 0.891728 33
-3.05482 -0.283961 0.15897 11
-0.654463 0.0528764 -0.0326876 108
-0.78917 0.0643172 -0.0927933 88
-0.662274 -0.0575592 -0.055016 50
-0.800451 0.0655318 -0.14904 58
-0.792045 -0.0703077 -0.120587 50
-0.79776 0.0659894 -0.20498 53
-0.798817 -0.0717514 -0.176881 50
-7.13304 0.627663 1.64247 36
-7.17683 -0.662124 1.91923 30
-7.24721 0.63647 1.14414 38
-6.94172 -0.628109 1.34686 1
-7.24701 0.63519 0.633404 35
-7.28379 -0.649084 0.892337 33
-3.05134 -0.266986 0.158709 12
-0.656664 0.0565217 -0.0328189 111
-0.793753 0.0690246 -0.0934018 90
-0.667528 -0.0545318 -0.0554509 53
-0.802529 0.0700794 -0.149516 58
-0.797321 -0.0666004 -0.12137 52
-0.797403 0.0701655 -0.20498 53
-0.799194 -0.0674284 -0.176881 50
-7.14176 0.639738 1.64471 36
-7.17076 -0.648939 1.91729 32
-7.24374 0.647632 1.14375 38
-6.9428 -0.615993 1.34686 1
-7.24838 0.64806 0.633622 33
-7.27491 -0.63677 0.89112 33
-3.05176 -0.262192 0.158709 12
-0.656564 0.0576677 -0.0328189 115
-0.791173 0.0700482 -0.0930975 90
-0.665141 -0.0531505 -0.0552335 53
-0.80485 0.071702 -0.149992 58
-0.799896 -0.0654247 -0.121762 52
-0.799685 0.0717773 -0.205627 53
-0.796872 -0.0659572 -0.17632 50
-7.17155 -0.612429 1.91664 30
-7.2255 0.684152 1.14141 30
-6.94828 -0.581051 1.34733 1
-7.24004 0.684269 0.633186 32
-7.27814 -0.59867 0.89112 35
-3.05558 -0.246414 0.15884 12
-0.658738 0.0613414 -0.0329502 122
-0.795735 0.074662 -0.093706 90
-0.662928 -0.0494639 -0.055016 53
-0.797147 0.0750716 -0.148564 58
-0.797767 -0.0610324 -0.12137 50
-0.794504 0.0753593 -0.204334 53
-0.792351 -0.0613779 -0.175197 49
-7.16298 -0.5991 1.91406 29
-6.94449 -0.567307 1.34638 1
-7.27423 -0.585565 0.890511 33
-3.05351 -0.240881 0.158709 12
-0.656145 0.06225 -0.0328189 126
-0.793134 0.0758103 -0.0934018 90
-0.665496 -0.0485057 -0.0552335 53
-0.799458 0.0767014 -0.14904 58
-0.797872 -0.05964 -0.12137 52
-0.794358 0.0768845 -0.204334 53
-0.790029 -0.0597961 -0.174635 50
-7.16611 -0.560336 1.91406 29
-6.93758 -0.530183 1.34447 1
-7.27729 -0.546199 0.890511 33
-3.05228 -0.224169 0.158578 12
-0.660778 0.0661927 -0.0330815 130
-0.790244 0.0798467 -0.0930975 90
-0.65829 -0.0444629 -0.0545811 53
-0.79659 0.0807739 -0.148564 58
-0.793249 -0.0550895 -0.120587 52
-0.798748 0.0815417 -0.205627 52
-0.79277 -0.0557064 -0.175197 50
-7.1719 -0.5482 1.91535 30
-2.91111 0.300455 0.456953 49
-6.93604 -0.517889 1.344 1
-7.27072 -0.534217 0.889599 33
-3.05014 -0.219192 0.158447 12
-0.663144 0.0676043 -0.0332127 134
-0.792586 0.0813455 -0.0934018 90
-0.663334 -0.043677 -0.055016 55
-0.791566 0.0816519 -0.147611 58
-0.795807 -0.0538867 -0.120979 52
-0.788998 0.0819209 -0.203041 53
-0.795286 -0.0546429 -0.175758 50
-7.15772 -0.510678 1.91083 29
-2.93895 0.318904 0.461635 49
-6.93368 -0.482432 1.34304 1
-7.27589 -0.496311 0.889903 35
-3.05125 -0.203218 0.158447 12
-0.655336 0.0702614 -0.0328189 135
-0.792149 0.0854944 -0.0934018 90
-0.661069 -0.0400347 -0.0547986 55
-0.8009 0.0867311 -0.149516 58
-0.796078 -0.0497191 -0.120979 52
-0.790974 0.0861791 -0.203687 55
-0.788271 -0.0499708 -0.174073 50
-7.15619 -0.498015 1.91018 27
-6.93215 -0.468952 1.34257 1
-7.27179 -0.483279 0.889294 33
-3.0516 -0.197893 0.158447 12
-0.655212 0.0714051 -0.0328189 140
-0.791998 0.0868768 -0.0934018 90
-0.661138 -0.0388808 -0.0547986 55
-0.79587 0.0875834 -0.148564 58
-0.7937 -0.0481651 -0.120587 52
-0.798006 0.0885089 -0.205627 55
-0.790787 -0.0487598 -0.174635 50
-2.87086 0.332782 0.65811 47
-7.15637 -0.459133 1.90953 27
-6.93451 -0.43265 1.34257 1
-7.27183 -0.443775 0.88899 33
-3.05511 -0.181531 0.158578 14
-0.659789 0.0754122 -0.0330815 146
-0.793981 0.0914488 -0.093706 90
-0.663818 -0.0355698 -0.055016 55
-0.797822 0.0921741 -0.14904 58
-0.796413 -0.0440213 -0.120979 52
-0.792735 0.09212 -0.204334 53
-0.795902 -0.0447839 -0.175758 50
-2.87034 0.337291 0.65811 47
-7.15234 -0.446338 1.90824 26
-2.88204 0.338685 0.45305 47
-6.93035 -0.420245 1.34161 1
-2.8941 0.339608 0.25188 49
-7.27507 -0.431231 0.889294 33
-3.05543 -0.176199 0.158578 14
-0.657177 0.0762706 -0.0329502 148
-0.788892 0.0922494 -0.0930975 90
-0.658907 -0.0341175 -0.0545811 55
-0.795223 0.0932762 -0.148564 58
-0.794024 -0.0424843 -0.120587 52
-0.794971 0.0937906 -0.20498 53
-0.793548 -0.0432472 -0.175197 50
-2.86122 0.35192 0.656425 47
-6.98098 -0.398843 1.86172 1
-2.87778 0.353468 0.45266 47
-6.93001 -0.383815 1.34114 1
-2.88239 0.353539 0.251009 49
-7.27227 -0.392862 0.888686 33
-3.05381 -0.160064 0.158447 14
-0.656769 0.0797105 -0.0329502 146
-0.741235 -0.0349702 -0.0123476 8
-0.785936 0.0960734 -0.0927933 90
-0.661563 -0.0308008 -0.0547986 56
-0.797159 0.0977416 -0.14904 58
-0.79177 -0.0381923 -0.120196 50
-0.789676 0.0973523 -0.203687 52
-0.796196 -0.0392264 -0.175758 50
-2.86308 0.356717 0.656987 49
-6.98167 -0.386658 1.86172 1
-2.87471 0.358184 0.45227 49
-6.92331 -0.37132 1.33971 1
-2.88177 0.358569 0.251009 47
-7.27294 -0.380169 0.888686 33
-3.0516 -0.154603 0.158316 14
-0.654152 0.0805464 -0.0328189 142
-0.738799 -0.0335469 -0.0123039 9
-0.783305 0.0971352 -0.092489 89
-0.659129 -0.0295166 -0.0545811 56
-0.796987 0.0991328 -0.14904 55
-0.78937 -0.0366807 -0.119804 50
-0.789505 0.0987304 -0.203687 53
-0.791398 -0.0375758 -0.174635 50
-2.85869 0.371887 0.656425 49
-6.97154 -0.349484 1.85848 1
-2.86545 0.372273 0.451099 49
-6.92761 -0.335185 1.34018 1
-2.87738 0.373331 0.250791 49
-7.27484 -0.342083 0.888686 33
-3.05236 -0.138623 0.158316 14
-0.658672 0.0846169 -0.0330815 133
-0.731474 -0.0293288 -0.0121731 11
-0.785246 0.101558 -0.0927933 89
-0.659275 -0.026065 -0.0545811 56
-0.796457 0.103304 -0.14904 58
-0.789545 -0.0326849 -0.119804 50
-0.786583 0.102546 -0.203041 53
-0.791583 -0.0334315 -0.174635 50
-2.85569 0.376057 0.655864 50
-6.97214 -0.337316 1.85848 1
-2.86731 0.377097 0.451489 49
-6.92819 -0.323094 1.34018 1
-2.86932 0.377375 0.250137 47
-7.27784 -0.33077 0.88899 33
-3.05258 -0.133828 0.158316 14
-0.653573 0.0851112 -0.0328189 124
-0.731524 -0.0280521 -0.0121731 11
-0.782626 0.102465 -0.092489 88
-0.661807 -0.0250265 -0.0547986 56
-0.793843 0.10437 -0.148564 55
-0.787135 -0.031194 -0.119413 50
-0.79119 0.10456 -0.204334 53
-0.791635 -0.0321881 -0.174635 49
-2.85609 0.391336 0.656425 49
-6.97617 -0.302129 1.85913 1
-2.86529 0.392105 0.451489 47
-6.92483 -0.287816 1.33923 1
-2.86984 0.392231 0.250355 47
-7.26956 -0.292253 0.887773 33
-3.05074 -0.117743 0.158185 15
-0.653119 0.0885321 -0.0328189 115
-0.784537 0.1069 -0.0927933 88
-0.661929 -0.0215609 -0.0547986 56
-0.795735 0.108723 -0.14904 55
-0.789754 -0.0271721 -0.119804 50
-0.795435 0.109229 -0.205627 53
-0.786925 -0.0278403 -0.173512 50
-2.84817 0.395312 0.654741 47
-6.9791 -0.290055 1.85978 1
-2.85727 0.396084 0.450319 47
-7.16813 -0.284313 1.38641 36
-2.86175 0.396211 0.249701 49
-7.26758 -0.279468 0.887469 33
-3.05094 -0.112418 0.158185 15
-0.652963 0.0896719 -0.0328189 111
-0.781891 0.107926 -0.092489 86
-0.659477 -0.0203109 -0.0545811 56
-0.795544 0.110112 -0.14904 58
-0.789801 -0.0257937 -0.119804 50
-0.792832 0.110419 -0.20498 52
-0.789406 -0.0265637 -0.174073 50
-2.84357 0.410367 0.654179 47
-6.98057 -0.25229 1.85978 1
-2.85997 0.412245 0.451099 47
-7.17198 -0.246863 1.38689 35
-2.8571 0.411333 0.249483 47
-7.27642 -0.240393 0.888382 33
-3.05151 -0.0959095 0.158185 15
-0.654955 0.0934473 -0.0329502 106
-0.781296 0.112155 -0.092489 85
-0.657085 -0.0167759 -0.0543637 56
-0.794937 0.114415 -0.14904 58
-0.792393 -0.0217407 -0.120196 52
-0.789854 0.114219 -0.204334 53
-0.787104 -0.0222085 -0.173512 50
-2.84052 0.414481 0.653618 47
-6.981 -0.240106 1.85978 1
-2.84955 0.415307 0.449538 45
-7.1724 -0.234345 1.38689 35
-2.85638 0.416319 0.249483 49
-7.27183 -0.228804 0.887773 32
-3.05165 -0.0911161 0.158185 15
-0.652321 0.0942282 -0.0328189 103
-0.778664 0.113021 -0.0921848 82
-0.659603 -0.0157064 -0.0545811 58
-0.797164 0.11616 -0.149516 56
-0.792429 -0.0203576 -0.120196 52
-0.794431 0.116305 -0.205627 52
-0.794442 -0.0212119 -0.175197 50
-2.83108 0.428251 0.651933 47
-6.97971 -0.204697 1.85913 1
-2.84733 0.430222 0.449538 47
-7.17104 -0.19797 1.38641 35
-2.85177 0.430398 0.249265 49
-7.27045 -0.190659 0.887469 33
-3.0471 -0.0750058 0.157924 17
-0.654304 0.0979033 -0.0329502 101
-0.782968 0.117844 -0.0927933 79
-0.662163 -0.0124324 -0.0547986 58
-0.79414 0.119823 -0.14904 58
-0.794993 -0.0162737 -0.120587 52
-0.789058 0.119592 -0.204334 52
-0.792107 -0.0169848 -0.174635 49
-2.828 0.432328 0.651372 47
-6.97281 -0.19231 1.85719 1
-2.8417 0.434442 0.448758 47
-7.17628 -0.185585 1.38737 35
-2.85102 0.435375 0.249265 49
-7.27573 -0.178094 0.888077 33
-3.04722 -0.0696875 0.157924 15
-0.646729 0.0979083 -0.0325564 99
-0.777856 0.118454 -0.0921848 79
-0.662184 -0.0112767 -0.0547986 58
-0.796355 0.121583 -0.149516 56
-0.787615 -0.0147026 -0.119413 50
-0.791235 0.121339 -0.20498 52
-0.7897 -0.0155393 -0.174073 52
-2.82562 0.447623 0.651372 47
-6.97855 -0.155909 1.85848 1
-2.8345 0.448541 0.447977 49
-7.16979 -0.14785 1.38594 35
-2.84378 0.449517 0.24883 50
-7.27408 -0.139947 0.887773 32
-3.05004 -0.0537793 0.158055 17
-0.651121 0.102191 -0.0328189 97
-0.782126 0.123307 -0.0927933 77
-0.657255 -0.00759992 -0.0543637 58
-0.795707 0.125751 -0.149516 58
-0.79015 -0.0106268 -0.119804 52
-0.788204 0.125098 -0.204334 52
-0.789771 -0.0114043 -0.174073 50
-2.82483 0.452554 0.651372 47
-6.97399 -0.143626 1.85719 1
-2.83372 0.453487 0.447977 49
-7.17742 -0.134228 1.38737 33
-2.83807 0.453691 0.248394 50
-7.25447 -0.126891 0.885339 27
-0.678865 0.107698 0.0113877 8
-3.04764 -0.0484123 0.157924 20
-0.646012 0.102534 -0.0325564 95
-0.781909 0.124672 -0.0927933 77
-0.657268 -0.00645278 -0.0543637 58
-0.790641 0.126357 -0.148564 55
-0.792636 -0.00929162 -0.120196 52
-0.790346 0.126998 -0.20498 52
-0.787354 -0.00997993 -0.173512 50
-2.81994 0.467431 0.65081 49
-7.00364 -0.106352 1.86495 1
-2.83122 0.468812 0.447977 50
-2.84049 0.469855 0.24883 55
-3.04536 -0.0318923 0.157793 21
-0.650392 0.106734 -0.0328189 91
-0.778776 0.128492 -0.092489 76
-0.662273 -0.00307038 -0.0547986 58
-0.787525 0.130228 -0.148088 55
-0.787736 -0.00507922 -0.119413 52
-0.794433 0.131934 -0.206274 52
-0.78496 -0.00568707 -0.17295 52
-2.8144 0.471054 0.649687 50
-2.82561 0.472442 0.447197 50
-2.82984 0.473164 0.247958 55
-3.0504 -0.027161 0.158055 23
-0.650205 0.107869 -0.0328189 90
-0.778573 0.129716 -0.092489 73
-0.659787 -0.00188928 -0.0545811 58
-0.789717 0.132011 -0.148564 55
-0.792682 -0.00375779 -0.120196 52
-0.791821 0.132917 -0.205627 52
-0.78984 -0.00451188 -0.174073 50
-2.81189 0.485783 0.649687 49
-2.82553 0.487651 0.447587 52
-3.1121 -0.0179751 0.597649 9
-2.82986 0.487905 0.248176 55
-3.09421 -0.0135598 0.375128 9
-0.692297 0.118423 0.0116495 4
-3.0505 -0.0111888 0.158055 23
-0.642252 0.109992 -0.0324251 90
-0.777883 0.13379 -0.092489 73
-0.657297 0.00157754 -0.0543637 56
-0.789038 0.136007 -0.148564 55
-0.792691 0.000392713 -0.120196 53
-0.788759 0.136507 -0.20498 52
-0.782545 -0.000327773 -0.172389 52
-2.81344 0.49111 0.650249 50
-2.82468 0.492582 0.447587 53
-3.08268 -0.011841 0.59193 2
-2.83392 0.493701 0.248612 61
-3.05949 -0.00801384 0.370869 3
-0.687144 0.11889 0.0115622 8
-3.05301 -0.0058734 0.158185 17
-0.644518 0.111543 -0.0325564 90
-0.78498 0.136435 -0.0934018 71
-0.657293 0.00272474 -0.0543637 58
-0.7888 0.137384 -0.148564 55
-0.79022 0.0017857 -0.119804 55
-0.788496 0.138021 -0.20498 52
-0.780108 0.00104993 -0.171827 50
-2.80834 0.505892 0.649687 52
-2.81468 0.506542 0.446416 52
-3.06061 0.00430387 0.587641 8
-2.82875 0.508584 0.248394 62
-3.03716 0.00851236 0.368131 11
-0.688972 0.12293 0.0116058 8
-3.0455 0.0106306 0.157793 20
-0.646382 0.11536 -0.0326876 90
-0.779347 0.139796 -0.0927933 70
-0.659761 0.00617148 -0.0545811 58
-0.792875 0.142526 -0.149516 56
-0.792669 0.00592668 -0.120196 55
-0.787762 0.142147 -0.20498 53
-0.784963 0.00527324 -0.17295 50
-2.80515 0.509866 0.649126 52
-2.81388 0.510963 0.446416 55
-3.05324 0.00963407 0.586211 4
-2.82786 0.513521 0.248394 62
-3.0421 0.013297 0.368739 11
-0.686297 0.123684 0.0115622 8
-3.04548 0.0154144 0.157793 24
-0.646179 0.116488 -0.0326876 90
-0.781568 0.141466 -0.0930975 68
-0.657259 0.00731341 -0.0543637 58
-0.785383 0.142582 -0.148088 55
-0.790188 0.00730239 -0.119804 53
-0.792263 0.144397 -0.206274 52
-0.784954 0.00650625 -0.17295 50
-2.80244 0.524547 0.649126 52
-2.81359 0.526144 0.446807 50
-3.06297 0.0251528 0.588117 4
-2.82033 0.52691 0.247958 58
-3.04695 0.029265 0.369348 11
-0.685662 0.127156 0.0115622 9
-3.04536 0.0313603 0.157793 26
-0.648014 0.120331 -0.0328189 90
-0.780816 0.145556 -0.0930975 62
-0.659702 0.0107773 -0.0545811 58
-0.789474 0.147465 -0.14904 53
-0.785201 0.0113983 -0.119021 52
-0.786777 0.147506 -0.20498 52
-0.782473 0.0105983 -0.172389 52
-2.79913 0.528983 0.648564 52
-2.80539 0.529676 0.445636 44
-3.06291 0.0310332 0.588117 3
-2.81696 0.531369 0.24774 56
-3.0469 0.0345828 0.369348 11
-0.69524 0.130334 0.0117367 11
-3.05029 0.0367277 0.158055 23
-0.642897 0.120531 -0.0325564 90
-0.64447 0.011752 -0.010646 4
-0.778123 0.146456 -0.0927933 64
-0.652211 0.0118478 -0.0539288 58
-0.784394 0.147925 -0.148088 55
-0.787649 0.0127937 -0.119413 53
-0.793608 0.150378 -0.20692 52
-0.780017 0.0119418 -0.171827 52
-2.79622 0.54412 0.648564 50
-2.80491 0.54532 0.446026 38
-3.08234 0.0473408 0.59193 3
-2.80915 0.54565 0.247304 56
-3.07644 0.0515197 0.372999 2
-0.689642 0.133016 0.0116495 12
-3.04007 0.0530721 0.157531 21
-0.639807 0.123418 -0.0324251 90
-0.649395 0.0153198 -0.0107332 3
-0.784625 0.152093 -0.093706 61
-0.65214 0.0152626 -0.0539288 58
-0.788399 0.153111 -0.14904 55
-0.790037 0.0170935 -0.119804 53
-0.79044 0.154065 -0.206274 50
-0.77507 0.0160914 -0.170704 52
-2.79537 0.548512 0.648564 49
-2.8088 0.551167 0.446807 49
-2.81308 0.551513 0.24774 56
-0.691861 0.134702 0.0116931 12
-3.04746 0.05851 0.157924 23
-0.639591 0.124534 -0.0324251 90
-0.644369 0.0163633 -0.010646 4
-0.77949 0.152501 -0.0930975 61
-0.652112 0.0164008 -0.0539288 58
-0.785723 0.15401 -0.148564 55
-0.797412 0.0186003 -0.120979 56
-0.787801 0.154974 -0.205627 52
-0.777476 0.0174836 -0.171266 52
-2.78758 0.562662 0.647441 49
-2.80588 0.565867 0.446807 52
-2.8126 0.566728 0.247958 59
-0.683796 0.136837 0.0115622 11
-3.04711 0.0744656 0.157924 23
-0.641377 0.128377 -0.0325564 90
-0.634279 0.0195049 -0.0104714 4
-0.778681 0.15658 -0.0930975 61
-0.656997 0.0199297 -0.0543637 59
-0.787311 0.158611 -0.14904 55
-0.797304 0.0227753 -0.120979 55
-0.786979 0.159097 -0.205627 53
-0.774938 0.0215019 -0.170704 52
-2.78431 0.566553 0.646879 49
-2.80004 0.569776 0.446026 50
-7.15957 0.166063 1.38403 32
-2.81649 0.57263 0.248394 73
-7.25835 0.178391 0.885948 29
-0.678658 0.137031 0.011475 9
-3.04198 0.0796608 0.157662 24
-0.641152 0.129496 -0.0325564 83
-0.631745 0.0205496 -0.0104278 4
-0.780837 0.158436 -0.0934018 61
-0.654471 0.0210147 -0.0541462 59
-0.789437 0.160478 -0.149516 53
-0.8022 0.0242866 -0.121762 56
-0.791431 0.161444 -0.20692 52
-0.779771 0.0229675 -0.171827 52
-2.78369 0.581623 0.647441 50
-6.89575 0.183057 1.83651 1
-2.79712 0.583941 0.446026 52
-7.1611 0.202366 1.38451 30
-2.81599 0.587388 0.248612 90
-7.25735 0.215126 0.885948 30
-0.677956 0.140464 0.011475 8
-3.04154 0.0950566 0.157662 23
-0.642909 0.133363 -0.0326876 80
-0.629135 0.0236718 -0.0103842 4
-0.787311 0.163916 -0.0943145 59
-0.656842 0.0245159 -0.0543637 62
-0.783811 0.163461 -0.148564 55
-0.79713 0.0282018 -0.120979 56
-0.785878 0.16445 -0.205627 52
-0.774774 0.0267762 -0.170704 52
-2.7779 0.585474 0.646318 49
-6.92922 0.196024 1.84556 1
-2.79852 0.589332 0.446416 55
-7.16069 0.216114 1.38451 30
-2.8174 0.592816 0.24883 103
-7.26441 0.228021 0.88686 30
-0.677685 0.141765 0.011475 8
-3.04387 0.100443 0.157793 23
-0.635347 0.132936 -0.0322938 74
-0.784596 0.164776 -0.0940102 59
-0.651819 0.0255041 -0.0539288 64
-0.785925 0.165338 -0.14904 55
-0.799548 0.0296697 -0.12137 56
-0.790284 0.166965 -0.20692 52
-0.777161 0.0282015 -0.171266 53
-2.77945 0.601528 0.647441 52
-6.92323 0.233353 1.84427 1
-2.79529 0.604465 0.446416 55
-7.16437 0.253774 1.38546 33
-2.81171 0.607524 0.248612 109
-7.27299 0.26768 0.888077 33
-0.679376 0.145841 0.0115186 3
-3.04328 0.116911 0.157793 24
-0.632203 0.135731 -0.0321625 65
-0.778843 0.167964 -0.0934018 59
-0.651677 0.0289166 -0.0539288 64
-0.785019 0.169588 -0.14904 53
-0.799381 0.0338557 -0.12137 56
-0.791759 0.171616 -0.207567 52
-0.779432 0.0324923 -0.171827 52
-2.77851 0.605893 0.647441 50
-6.91799 0.245268 1.84298 1
-2.78951 0.607801 0.445636 38
-7.16882 0.266457 1.38641 33
-2.81308 0.612962 0.24883 103
-7.26512 0.278823 0.887165 33
-0.674236 0.145959 0.0114313 4
-3.04309 0.121691 0.157793 24
-0.631965 0.136835 -0.0321625 64
-0.78585 0.170781 -0.0943145 59
-0.651626 0.030054 -0.0539288 67
-0.787119 0.171484 -0.149516 53
-0.794386 0.0350629 -0.120587 58
-0.786741 0.171958 -0.206274 52
-0.77938 0.0337165 -0.171827 52
-2.77292 0.6199 0.646879 50
-6.9239 0.280568 1.84491 1
-2.79111 0.623477 0.446416 53
-7.16493 0.302636 1.38594 33
-2.80508 0.626105 0.248394 85
-7.25612 0.31654 0.886252 35
-0.678367 0.150462 0.0115186 4
-3.03992 0.137514 0.157662 23
-0.633676 0.140688 -0.0322938 61
-0.784945 0.174893 -0.0943145 59
-0.651459 0.0334655 -0.0539288 68
-0.786241 0.175466 -0.149516 53
-0.791725 0.039115 -0.120196 56
-0.783505 0.175406 -0.205627 52
-0.776758 0.037694 -0.171266 52
-2.77183 0.624739 0.646879 50
-6.9234 0.292652 1.84491 1
-2.78761 0.627804 0.446026 52
-7.16924 0.316605 1.38689 33
-2.79913 0.629903 0.247958 59
-7.25308 0.329093 0.885948 33
-0.675639 0.151213 0.011475 3
-3.04217 0.142933 0.157793 24
-0.628559 0.140693 -0.0320313 65
-0.782219 0.175715 -0.0940102 58
-0.6514 0.0346024 -0.0539288 73
-0.788327 0.177381 -0.149992 53
-0.796589 0.0407191 -0.120979 58
-0.79494 0.179591 -0.20886 52
-0.779125 0.0391568 -0.171827 52
-2.76841 0.639727 0.646879 50
-6.9193 0.329993 1.84427 1
-2.78176 0.642321 0.445636 52
-7.15768 0.35366 1.38498 33
-2.79082 0.643917 0.247522 56
-7.24871 0.368207 0.885643 33
-0.679709 0.155876 0.0115622 3
-0.627814 0.143982 -0.0320313 61
-0.786091 0.181067 -0.0946187 58
-0.65121 0.0380127 -0.0539288 76
-0.787356 0.181644 -0.149992 53
-0.796365 0.0448894 -0.120979 58
-0.789285 0.182654 -0.207567 50
-0.774036 0.0431311 -0.170704 52
-2.7674 0.644074 0.646879 50
-6.92112 0.342187 1.84491 1
-2.77594 0.645568 0.444856 53
-7.1546 0.366029 1.38451 35
-2.7897 0.648787 0.247522 74
-7.25308 0.379849 0.886252 33
-0.629993 0.145645 -0.0321625 61
-0.785805 0.182301 -0.0946187 58
-0.65363 0.0392804 -0.0541462 79
-0.782259 0.181898 -0.14904 53
-0.798751 0.0464076 -0.12137 58
-0.784264 0.182926 -0.206274 50
-0.773967 0.0443469 -0.170704 53
-2.76636 0.659122 0.647441 52
-6.91689 0.377084 1.84427 1
-2.77733 0.66124 0.445636 45
-7.15755 0.402509 1.38546 35
-2.79607 0.665209 0.248394 91
-7.24604 0.417538 0.885643 33
-0.629221 0.148941 -0.0321625 61
-0.782427 0.185836 -0.0943145 56
-0.645956 0.0422695 -0.0534938 79
-0.788488 0.187571 -0.150468 55
-0.800962 0.0507305 -0.121762 58
-0.783328 0.186893 -0.206274 52
-0.776156 0.0485356 -0.171266 53
-2.76521 0.663949 0.647441 52
-6.92105 0.389423 1.84556 1
-2.77377 0.665509 0.445246 42
-7.15187 0.415968 1.38451 35
-2.79006 0.668924 0.247958 115
-7.25273 0.430621 0.886556 32
-0.631388 0.150624 -0.0322938 61
-0.786926 0.188364 -0.094923 56
-0.645881 0.0433969 -0.0534938 85
-0.790545 0.189523 -0.150945 53
-0.793478 0.0516916 -0.120587 58
-0.785314 0.188966 -0.20692 52
-0.773639 0.0497491 -0.170704 52
-2.75684 0.677735 0.646318 39
-6.91161 0.426423 1.84362 1
-2.77252 0.681097 0.445636 56
-7.15449 0.453716 1.38546 35
-2.78398 0.683415 0.24774 120
-7.24534 0.469538 0.885948 33
-0.628166 0.153331 -0.0321625 61
-0.783486 0.192025 -0.0946187 56
-0.64813 0.0469397 -0.0537113 88
-0.782361 0.19203 -0.149516 53
-0.793196 0.0558455 -0.120587 58
-0.786658 0.193656 -0.207567 52
-0.768496 0.0536256 -0.169581 53
-2.75578 0.682064 0.646318 42
-6.91567 0.438787 1.84491 1
-2.77385 0.686046 0.446026 56
-7.14879 0.465887 1.38451 35
-2.7852 0.688872 0.247958 121
-7.24707 0.481081 0.886252 33
-3.041 0.206777 0.157924 18
-0.630321 0.155028 -0.0322938 59
-0.785592 0.193854 -0.094923 58
-0.645562 0.0479049 -0.0534938 90
-0.784406 0.193988 -0.149992 52
-0.793098 0.0572298 -0.120587 58
-0.791005 0.1962 -0.20886 52
-0.76841 0.0548327 -0.169581 53
-2.7498 0.695885 0.645756 39
