# .PCD v0.7 - Point Cloud Data file format
VERSION 0.7
FIELDS x y z intensity
SIZE 4 4 4 4
TYPE F F F F
COUNT 1 1 1 1
WIDTH 1546
HEIGHT 1
VIEWPOINT 0 0 0 1 0 0 0
POINTS 1546
DATA ascii
-7.24317 0.59664 1.14297 38
-6.94811 -0.66539 1.34876 1
-7.24776 0.597031 0.633186 35
-7.27276 -0.687778 0.891424 32
-3.05482 -0.283961 0.15897 11
-0.651975 0.0526701 -0.0325564 108
-0.662274 -0.0575592 -0.055016 52
-0.802885 0.0658764 -0.149516 58
-0.794504 -0.070541 -0.120979 50
-0.800166 0.0661927 -0.205627 53
-0.793967 -0.0712861 -0.175758 50
-7.13801 0.626846 1.64359 36
-7.17431 -0.663153 1.91858 30
-7.24732 0.635205 1.14414 38
-6.94161 -0.629321 1.34686 1
-7.24713 0.633925 0.633404 33
-7.27626 -0.649688 0.891424 33
-3.06124 -0.268406 0.159232 12
-0.656664 0.0565217 -0.0328189 111
-0.667528 -0.0545318 -0.0554509 53
-0.792403 -0.0661597 -0.120587 52
-0.799821 0.0702419 -0.205627 53
-0.799182 -0.0675678 -0.176881 50
-7.1272 0.638431 1.64134 27
-7.18027 -0.65107 1.91987 32
-7.23391 0.646751 1.14219 35
-6.94769 -0.61643 1.34781 1
-7.24353 0.646351 0.633186 33
-7.27491 -0.63677 0.89112 35
-3.05424 -0.26241 0.15884 12
-0.656564 0.0576677 -0.0328189 115
-0.796115 0.0704945 -0.093706 90
-0.660179 -0.0527181 -0.0547986 53
-0.797436 -0.0652087 -0.12137 50
-0.79728 0.0715571 -0.20498 53
-0.796872 -0.0659572 -0.17632 50
-7.17887 -0.611798 1.91858 30
-6.94349 -0.579426 1.34638 1
-7.27825 -0.5974 0.89112 33
-3.05562 -0.245881 0.15884 12
-0.658738 0.0613414 -0.0329502 122
-0.793252 0.0745644 -0.0934018 90
-0.66541 -0.0496671 -0.0552335 53
-0.794691 0.0749759 -0.148088 58
-0.797767 -0.0610324 -0.12137 52
-0.796894 0.0757307 -0.20498 55
-0.799645 -0.0618473 -0.176881 50
-7.17511 -0.598863 1.91729 30
-6.93715 -0.566702 1.34495 1
-7.27176 -0.585364 0.890207 33
-3.05849 -0.241281 0.15897 12
-0.661115 0.062732 -0.0330815 126
-0.795604 0.0760507 -0.093706 90
-0.663013 -0.0483068 -0.055016 53
-0.794559 0.0763628 -0.148088 58
-0.795411 -0.0594411 -0.120979 52
-0.799164 0.0773583 -0.205627 55
-0.794885 -0.0601936 -0.175758 52
-2.84862 0.289442 0.651933 52
-7.17324 -0.562158 1.916 30
-2.85758 0.289865 0.448368 52
-6.93748 -0.531394 1.34447 1
-7.28215 -0.547845 0.89112 33
-3.05224 -0.224702 0.158578 12
-0.658294 0.0659387 -0.0329502 131
-0.790258 0.0797087 -0.0930975 90
-0.66574 -0.0450205 -0.0552335 55
-0.794162 0.0803834 -0.148088 59
-0.795711 -0.0552755 -0.120979 52
-0.798762 0.0814023 -0.205627 53
-0.792761 -0.0558448 -0.175197 50
-2.85296 0.294917 0.653056 47
-7.15254 -0.547962 1.91018 29
-2.86444 0.295616 0.449538 49
-6.93604 -0.517889 1.344 1
-7.27072 -0.534217 0.889599 33
-3.05512 -0.219557 0.158709 12
-0.653212 0.0665708 -0.0326876 134
-0.792586 0.0813455 -0.0934018 90
-0.66085 -0.0434954 -0.0547986 55
-0.798903 0.0822807 -0.14904 58
-0.793344 -0.053705 -0.120587 52
-0.798605 0.0829356 -0.205627 55
-0.795286 -0.0546429 -0.175758 52
-2.85132 0.310349 0.653056 47
-7.16262 -0.509775 1.91212 29
-2.86034 0.310842 0.449148 49
-6.93621 -0.481394 1.34352 1
-7.28093 -0.495381 0.890511 35
-0.636232 0.0680602 0.0105587 3
-3.05875 -0.203194 0.15884 12
-0.657818 0.0705328 -0.0329502 134
-0.797067 0.0861746 -0.0940102 90
-0.661069 -0.0400347 -0.0547986 55
-0.796006 0.0863331 -0.148564 58
-0.793615 -0.0495503 -0.120587 52
-0.795759 0.0868497 -0.20498 53
-0.798 -0.0505078 -0.17632 50
-2.85083 0.314827 0.653056 47
-7.15387 -0.496597 1.90953 29
-2.85494 0.314791 0.448368 53
-6.93215 -0.468952 1.34257 1
-7.27179 -0.483279 0.889294 33
-0.628659 0.0683438 0.0104278 3
-3.05409 -0.198058 0.158578 14
-0.657694 0.0716808 -0.0329502 140
-0.791998 0.0868768 -0.0934018 90
-0.661138 -0.0388808 -0.0547986 55
-0.795854 0.0877223 -0.148564 58
-0.791236 -0.0480006 -0.120196 52
-0.800406 0.0887793 -0.206274 53
-0.795648 -0.0490894 -0.175758 50
-2.84914 0.32975 0.653056 50
-7.15629 -0.460382 1.90953 27
-2.86307 0.330874 0.449929 55
-6.93933 -0.43417 1.34352 1
-2.88238 0.332617 0.250791 102
-7.27423 -0.445197 0.889294 33
-0.630788 0.071813 0.0104714 3
-3.05508 -0.182064 0.158578 14
-0.657322 0.0750088 -0.0329502 144
-0.791533 0.0910225 -0.0934018 90
-0.65884 -0.0353824 -0.0545811 55
-0.792963 0.0914638 -0.148088 58
-0.791477 -0.0438571 -0.120196 52
-0.79515 0.0922642 -0.20498 53
-0.7886 -0.0444664 -0.174073 50
-2.84862 0.334224 0.653056 49
-7.15949 -0.448044 1.91018 26
-2.86248 0.33587 0.449929 56
-6.93273 -0.421606 1.34209 1
-2.8719 0.336483 0.249919 90
-7.26756 -0.432054 0.888382 33
-3.0554 -0.176732 0.158578 14
-0.65967 0.0764485 -0.0330815 148
-0.788908 0.0921117 -0.0930975 90
-0.658901 -0.0342325 -0.0545811 55
-0.795239 0.0931374 -0.148564 58
-0.791552 -0.0424756 -0.120196 52
-0.799783 0.0942254 -0.206274 52
-0.791108 -0.0432379 -0.174635 50
-2.84429 0.34983 0.652495 50
-6.97857 -0.398703 1.86107 1
-2.85327 0.350446 0.448758 55
-6.93491 -0.38409 1.34209 1
-2.87003 0.352017 0.249919 80
-7.26979 -0.392727 0.888382 33
-3.05631 -0.160198 0.158578 14
-0.659247 0.0800165 -0.0330815 146
-0.790861 0.0966842 -0.0934018 90
-0.661563 -0.0308008 -0.0547986 55
-0.799594 0.0980445 -0.149516 58
-0.791764 -0.0383305 -0.120196 50
-0.794469 0.0979518 -0.20498 53
-0.791331 -0.038957 -0.174635 50
-2.84374 0.354298 0.652495 50
-6.97685 -0.386388 1.86042 1
-2.84782 0.354315 0.447977 55
-6.92576 -0.371453 1.34018 1
-2.86941 0.357025 0.249919 82
-7.27288 -0.381438 0.888686 33
-3.05655 -0.155397 0.158578 14
-0.654152 0.0805464 -0.0328189 141
-0.741295 -0.0336764 -0.0123476 9
-0.79317 0.0982356 -0.093706 90
-0.661616 -0.0296461 -0.0547986 55
-0.794552 0.0988256 -0.148564 58
-0.794295 -0.0370787 -0.120587 50
-0.794297 0.0993382 -0.20498 52
-0.786526 -0.0374521 -0.173512 50
-2.83943 0.368867 0.651933 50
-6.97389 -0.350824 1.85913 1
-2.85327 0.370178 0.449148 55
-6.93491 -0.336756 1.34161 1
-2.86757 0.371544 0.249919 90
-7.2723 -0.343234 0.888382 32
-3.05483 -0.139273 0.158447 14
-0.658687 0.0845019 -0.0330815 134
-0.726475 -0.0292227 -0.0120858 11
-0.790185 0.102065 -0.0934018 90
-0.656782 -0.0260632 -0.0543637 56
-0.796475 0.103165 -0.14904 58
-0.796945 -0.0330364 -0.120979 50
-0.798572 0.103989 -0.206274 53
-0.789144 -0.0334515 -0.174073 50
-2.83885 0.373327 0.651933 50
-6.97932 -0.338889 1.86042 1
-2.85507 0.375481 0.449538 56
-6.92568 -0.324186 1.33971 1
-2.86939 0.376874 0.250137 130
-7.26793 -0.330312 0.887773 32
-3.05507 -0.133941 0.158447 14
-0.653588 0.0849971 -0.0328189 124
-0.726525 -0.0279548 -0.0120858 11
-0.792465 0.103771 -0.093706 90
-0.661803 -0.025142 -0.0547986 56
-0.801159 0.105203 -0.149992 58
-0.787135 -0.031194 -0.119413 50
-0.798389 0.105383 -0.206274 53
-0.791635 -0.0321881 -0.174635 50
-2.83196 0.388018 0.65081 50
-6.97134 -0.301916 1.85784 1
-2.85551 0.390761 0.449929 58
-6.92974 -0.288023 1.34018 1
-2.86737 0.391893 0.250137 98
-7.26956 -0.292253 0.887773 33
-3.05324 -0.117843 0.158316 15
-0.658081 0.0890983 -0.0330815 115
-0.789453 0.107579 -0.0934018 90
-0.661925 -0.0216765 -0.0547986 56
-0.789754 -0.0271721 -0.119804 50
-0.795435 0.109229 -0.205627 53
-0.789359 -0.0279415 -0.174073 52
-2.83617 0.393137 0.651933 50
-6.97669 -0.289953 1.85913 1
-2.85238 0.395404 0.449538 55
-7.17054 -0.285664 1.38689 36
-2.86175 0.396211 0.249701 59
-7.27254 -0.279662 0.888077 33
-3.05094 -0.112418 0.158185 15
-0.652979 0.0895579 -0.0328189 111
-0.786806 0.108613 -0.0930975 86
-0.659473 -0.020426 -0.0545811 56
-0.792268 -0.0258893 -0.120196 50
-0.795243 0.110617 -0.205627 53
-0.79184 -0.0266607 -0.174635 50
-2.83641 0.408825 0.652495 49
-6.97811 -0.253419 1.85913 1
-2.84538 0.409627 0.448758 52
-7.17929 -0.248375 1.38832 35
-2.85964 0.41119 0.249701 55
-7.27142 -0.241495 0.887773 33
-3.05149 -0.0964421 0.158185 15
-0.652485 0.0930896 -0.0328189 105
-0.788682 0.113088 -0.0934018 86
-0.659574 -0.0168576 -0.0545811 56
-0.792528 0.113922 -0.148564 58
-0.787457 -0.0215752 -0.119413 50
-0.794653 0.11478 -0.205627 53
-0.7871 -0.0223459 -0.173512 50
-2.83329 0.413422 0.651933 50
-6.97854 -0.241239 1.85913 1
-2.84466 0.414593 0.448758 52
-7.16504 -0.2341 1.38546 35
-2.84906 0.414741 0.24883 52
-7.27183 -0.228804 0.887773 33
-3.05415 -0.0911945 0.158316 17
-0.647381 0.093504 -0.0325564 103
-0.783574 0.113743 -0.0927933 82
-0.659603 -0.0157064 -0.0545811 56
-0.787472 0.11459 -0.147611 58
-0.787494 -0.0202008 -0.119413 50
-0.789653 0.115597 -0.204334 53
-0.787138 -0.0209721 -0.173512 50
-2.83101 0.428745 0.651933 49
-6.98216 -0.203551 1.85978 1
-2.83749 0.429236 0.447977 50
-7.17353 -0.196788 1.38689 36
-2.84924 0.430523 0.249048 53
-7.27048 -0.18939 0.887469 33
-3.0521 -0.0746038 0.158185 17
-0.651819 0.0976425 -0.0328189 100
-0.780494 0.117606 -0.092489 80
-0.659676 -0.0122525 -0.0545811 58
-0.796545 0.120332 -0.149516 58
-0.792525 -0.0162082 -0.120196 52
-0.789037 0.11973 -0.204334 53
-0.787239 -0.016713 -0.173512 50
-2.82311 0.432082 0.650249 49
-6.97043 -0.191025 1.85655 1
-2.83926 0.434067 0.448368 52
-7.17631 -0.184332 1.38737 35
-2.84848 0.435495 0.249048 53
-7.27325 -0.178032 0.887773 32
-3.04722 -0.0696875 0.157924 15
-0.64918 0.0984006 -0.0326876 98
-0.785213 0.119588 -0.0930975 79
-0.659696 -0.0111012 -0.0545811 58
-0.791483 0.120972 -0.148564 58
-0.795021 -0.0148862 -0.120587 52
-0.791213 0.121478 -0.20498 52
-0.784829 -0.0154135 -0.17295 52
-2.82321 0.447241 0.65081 50
-6.96889 -0.155686 1.8559 1
-2.8345 0.448541 0.447977 50
-7.17225 -0.147903 1.38641 35
-2.83886 0.448737 0.248394 52
-7.27408 -0.139947 0.887773 32
-3.05254 -0.0538272 0.158185 17
-0.651139 0.102077 -0.0328189 97
-0.784576 0.123698 -0.0930975 76
-0.659744 -0.00776201 -0.0545811 58
-0.795707 0.125751 -0.149516 55
-0.79015 -0.0106268 -0.119804 52
-0.792973 0.125863 -0.205627 52
-0.792206 -0.0114544 -0.174635 50
-2.82251 0.451675 0.65081 50
-6.9764 -0.143677 1.85784 1
-2.83372 0.453487 0.447977 52
-7.1774 -0.13548 1.38737 33
-2.83807 0.453691 0.248394 55
-7.25447 -0.126891 0.885339 29
-3.04764 -0.0484123 0.157924 20
-0.64603 0.102421 -0.0325564 94
-0.77946 0.124277 -0.092489 77
-0.659757 -0.00661053 -0.0545811 58
-0.793064 0.126748 -0.14904 55
-0.792636 -0.00929162 -0.120196 52
-0.790368 0.12686 -0.20498 52
-0.789789 -0.0100258 -0.174073 52
-2.81521 0.466141 0.649687 50
-7.01086 -0.10769 1.86689 1
-2.82643 0.46751 0.447197 53
-2.8332 0.468137 0.248176 56
-0.698038 0.114405 0.0117367 4
-3.04785 -0.0324543 0.157924 21
-0.645467 0.105915 -0.0325564 90
-0.783694 0.129172 -0.0930975 76
-0.654802 -0.00298171 -0.0541462 58
-0.789969 0.130495 -0.148564 56
-0.790205 -0.00511025 -0.119804 52
-0.794457 0.131796 -0.206274 52
-0.784959 -0.00582408 -0.17295 50
-2.8144 0.471054 0.649687 50
-2.82805 0.47285 0.447587 53
-2.83729 0.473904 0.248612 77
-0.695352 0.115331 0.0116931 4
-3.0504 -0.027161 0.158055 23
-0.642819 0.106627 -0.0324251 90
-0.78102 0.130128 -0.0927933 73
-0.662277 -0.00191449 -0.0547986 58
-0.79216 0.132282 -0.14904 55
-0.790213 -0.00373107 -0.119804 52
-0.794202 0.133321 -0.206274 52
-0.787404 -0.00448297 -0.173512 52
-2.81181 0.486274 0.649687 50
-2.82545 0.488145 0.447587 55
-3.10474 -0.0173793 0.596219 9
-2.84205 0.490523 0.249265 90
-3.09421 -0.0130197 0.375128 8
-0.702128 0.120251 0.011824 4
-3.048 -0.0106438 0.157924 23
-0.642252 0.109992 -0.0324251 90
-0.782749 0.134777 -0.0930975 70
-0.657297 0.00157754 -0.0543637 58
-0.791432 0.136566 -0.14904 58
-0.790222 0.000406503 -0.119804 52
-0.788736 0.136644 -0.20498 52
-0.777673 -0.00015973 -0.171266 52
-2.81344 0.49111 0.650249 52
-2.82224 0.492157 0.447197 55
-3.09986 -0.0119339 0.595266 2
-2.83628 0.494624 0.24883 103
-3.03964 -0.00793068 0.368435 3
-0.696992 0.120614 0.0117367 4
-3.05051 -0.00586469 0.158055 17
-0.646977 0.111974 -0.0326876 90
-0.777648 0.135148 -0.092489 70
-0.654803 0.00273256 -0.0541462 58
-0.79361 0.138373 -0.149516 55
-0.795158 0.00176674 -0.120587 55
-0.79563 0.139283 -0.20692 52
-0.780108 0.00104993 -0.171827 50
-2.80843 0.505402 0.649687 50
-2.82206 0.507365 0.447587 55
-3.06798 0.00376712 0.58907 8
-2.84355 0.510739 0.249701 99
-3.04212 0.00798747 0.368739 11
-3.04301 0.0100947 0.157662 20
-0.646382 0.11536 -0.0326876 90
-0.781814 0.140102 -0.0930975 70
-0.65478 0.00616105 -0.0541462 58
-0.795314 0.142826 -0.149992 55
-0.792669 0.00592668 -0.120196 53
-0.792539 0.142875 -0.206274 52
-0.782528 0.00513538 -0.172389 52
-2.80515 0.509866 0.649126 52
-2.81874 0.511848 0.447197 56
-3.06551 0.00965334 0.588594 4
-2.8353 0.514364 0.249048 90
-3.0421 0.013297 0.368739 11
-3.04798 0.0154232 0.157924 24
-0.646179 0.116488 -0.0326876 90
-0.784009 0.141912 -0.0934018 68
-0.652277 0.00729428 -0.0539288 58
-0.790236 0.143329 -0.14904 55
-0.790188 0.00730239 -0.119804 53
-0.792263 0.144397 -0.206274 52
-0.780082 0.00649604 -0.171827 52
-2.80235 0.525036 0.649126 52
-2.81593 0.527091 0.447197 53
-3.06296 0.0256874 0.588117 4
-2.83003 0.529238 0.24883 61
-3.04199 0.029756 0.368739 11
-3.05285 0.0319585 0.158185 26
-0.648014 0.120331 -0.0328189 90
-0.780791 0.145693 -0.0930975 67
-0.657211 0.0107547 -0.0543637 58
-0.787037 0.147147 -0.148564 58
-0.78767 0.011419 -0.119413 52
-0.789124 0.148093 -0.205627 52
-0.780035 0.0107166 -0.171827 52
-2.79673 0.52853 0.648003 50
-2.81267 0.531054 0.446807 47
-3.07028 0.0310962 0.589547 3
-2.81686 0.53186 0.24774 55
-3.0469 0.0345828 0.369348 11
-0.692784 0.129869 0.0116931 12
-3.05279 0.0367538 0.158185 23
-0.642897 0.120531 -0.0325564 90
-0.782999 0.147382 -0.0934018 61
-0.654701 0.0118748 -0.0541462 58
-0.794011 0.149899 -0.149992 56
-0.787649 0.0127937 -0.119413 53
-0.788864 0.14947 -0.205627 52
-0.784889 0.0119861 -0.17295 52
-2.79871 0.544098 0.649126 52
-2.80743 0.545302 0.446416 41
-3.08235 0.0468028 0.59193 3
-2.81903 0.547062 0.248176 55
-3.06652 0.0508338 0.371782 2
-0.692118 0.133373 0.0116931 12
-3.04756 0.0526592 0.157924 23
-0.642279 0.123784 -0.0325564 90
-0.782217 0.15148 -0.0934018 61
-0.657123 0.0152279 -0.0543637 58
-0.790834 0.153445 -0.149516 55
-0.79004 0.0169556 -0.119804 55
-0.788097 0.153461 -0.205627 52
-0.78238 0.0160607 -0.172389 52
-2.79546 0.548024 0.648564 50
-2.80647 0.550201 0.446416 49
-2.81318 0.551022 0.24774 55
-0.691884 0.134581 0.0116931 12
-3.04747 0.0579781 0.157924 23
-0.646961 0.125869 -0.0328189 90
-0.78682 0.153805 -0.0940102 61
-0.654605 0.0163309 -0.0541462 58
-0.790565 0.154825 -0.149516 53
-0.797415 0.0184611 -0.120979 56
-0.790197 0.155306 -0.206274 52
-0.779915 0.017387 -0.171827 52
-2.79007 0.562658 0.648003 49
-2.80113 0.564399 0.446026 50
-2.81026 0.565744 0.24774 55
-0.69362 0.138697 0.0117367 11
-3.04712 0.0739337 0.157924 23
-0.648741 0.129749 -0.0329502 86
-0.783572 0.15743 -0.093706 61
-0.654511 0.0197581 -0.0541462 58
-0.789744 0.158962 -0.149516 53
-0.792371 0.0225258 -0.120196 53
-0.791739 0.159924 -0.20692 52
-0.779813 0.0214704 -0.171827 52
-2.79157 0.567527 0.648564 49
-7.1598 0.15237 1.90695 36
-2.80014 0.569287 0.446026 50
-7.16451 0.164923 1.38498 32
-2.80682 0.570151 0.247522 56
-7.2559 0.177065 0.885643 29
-0.68358 0.13791 0.0115622 9
-3.04699 0.0792519 0.157924 23
-0.643621 0.129883 -0.0326876 83
-0.783296 0.158797 -0.093706 59
-0.654475 0.0209004 -0.0541462 59
-0.784656 0.159355 -0.148564 55
-0.786728 0.160333 -0.205627 52
-0.777339 0.0227753 -0.171266 52
-2.78835 0.583109 0.648564 52
-6.89572 0.184261 1.83651 1
-2.79461 0.583923 0.445636 49
-7.15615 0.203479 1.38355 30
-2.80857 0.586349 0.247958 59
-7.25484 0.21632 0.885643 29
-0.682824 0.141607 0.0115622 8
-3.04402 0.0956619 0.157793 23
-0.645352 0.133876 -0.0328189 80
-0.784854 0.163543 -0.0940102 61
-0.659331 0.0245907 -0.0545811 61
-0.786184 0.164103 -0.14904 55
-0.785849 0.164587 -0.205627 52
-0.77964 0.02705 -0.171827 52
-2.78028 0.585977 0.646879 52
-6.9316 0.197301 1.84621 1
-2.7961 0.588822 0.446026 53
-7.16069 0.216114 1.38451 30
-2.80998 0.591765 0.248176 73
-7.26441 0.228021 0.88686 30
-0.694804 0.145382 0.0117804 4
-3.04636 0.100522 0.157924 23
-0.640232 0.133969 -0.0325564 73
-0.784596 0.164776 -0.0940102 59
-0.654309 0.0255832 -0.0541462 64
-0.785897 0.165475 -0.14904 55
-0.799548 0.0296697 -0.12137 58
-0.785561 0.165958 -0.205627 52
-0.779596 0.0282747 -0.171827 52
-2.77956 0.601043 0.647441 52
-6.92327 0.232144 1.84427 1
-2.79298 0.603454 0.446026 53
-7.16687 0.252609 1.38594 33
-2.80452 0.605453 0.247958 77
-7.26807 0.266232 0.887469 33
-0.694059 0.148897 0.0117804 3
-3.04579 0.116471 0.157924 24
-0.634642 0.136261 -0.0322938 67
-0.631452 0.0281558 -0.0104278 4
-0.786147 0.169409 -0.0943145 59
-0.649188 0.0288245 -0.0537113 65
-0.782651 0.168929 -0.148564 55
-0.796914 0.033766 -0.120979 56
-0.782351 0.169417 -0.20498 52
-0.777003 0.0322703 -0.171266 53
-2.77612 0.605373 0.646879 52
-6.92286 0.244227 1.84427 1
-2.7871 0.607274 0.445246 35
-7.15656 0.26601 1.38403 32
-2.80589 0.610878 0.248176 68
-7.2552 0.278449 0.885948 33
-0.69133 0.149695 0.0117367 4
-3.04309 0.121691 0.157793 23
-0.634404 0.137368 -0.0322938 64
-0.636397 0.0294516 -0.0105151 8
-0.781003 0.169718 -0.093706 59
-0.654114 0.0301505 -0.0541462 65
-0.784752 0.170821 -0.14904 55
-0.796854 0.0351569 -0.120979 58
-0.789099 0.172478 -0.20692 52
-0.776945 0.0336264 -0.171266 52
-2.77756 0.62145 0.648003 50
-6.92626 0.281873 1.84556 1
-2.78136 0.621805 0.444856 50
-7.15507 0.303477 1.38403 32
-2.79525 0.624418 0.247522 56
-7.25111 0.317593 0.885643 33
-0.690537 0.153313 0.0117367 3
-3.03989 0.138044 0.157662 23
-0.633676 0.140688 -0.0322938 61
-0.62624 0.032453 -0.0103405 8
-0.784915 0.17503 -0.0943145 59
-0.648971 0.033356 -0.0537113 68
-0.783816 0.175064 -0.14904 53
-0.794192 0.0392218 -0.120587 58
-0.78583 0.176075 -0.206274 50
-0.78162 0.0380362 -0.172389 52
-2.76945 0.624202 0.646318 50
-6.92334 0.29386 1.84491 1
-2.78038 0.626173 0.444856 50
-7.15943 0.316178 1.38498 32
-2.79416 0.629295 0.247522 55
-7.25308 0.329093 0.885948 33
-0.682954 0.152866 0.0116058 3
-3.04716 0.143159 0.158055 24
-0.628559 0.140693 -0.0320313 61
-0.631176 0.0337753 -0.0104278 8
-0.784639 0.176263 -0.0943145 58
-0.6514 0.0346024 -0.0539288 74
-0.788296 0.177519 -0.149992 55
-0.799056 0.0408302 -0.12137 58
-0.790231 0.178519 -0.207567 52
-0.781559 0.0392639 -0.172389 53
-2.76378 0.638145 0.645756 49
-6.92659 0.329124 1.84621 1
-2.77706 0.640722 0.444856 50
-7.16019 0.35253 1.38546 33
-2.79336 0.64399 0.24774 52
-7.25621 0.367313 0.886556 33
-0.687042 0.157447 0.0116931 3
-0.630246 0.144545 -0.0321625 61
-0.626004 0.0367149 -0.0103405 8
-0.786122 0.180929 -0.0946187 58
-0.65121 0.0380127 -0.0539288 76
-0.784997 0.180951 -0.149516 53
-0.793899 0.0447653 -0.120587 58
-0.791669 0.183065 -0.208214 52
-0.776476 0.0431159 -0.171266 52
-2.76503 0.643521 0.646318 50
-6.91877 0.340862 1.84427 1
-2.77594 0.645568 0.444856 53
-7.15215 0.365905 1.38403 35
-2.78981 0.6483 0.247522 58
-7.25556 0.379977 0.886556 33
-0.632424 0.146212 -0.0322938 61
-0.620947 0.037544 -0.0102533 8
-0.788222 0.182866 -0.094923 58
-0.651142 0.0391492 -0.0539288 79
-0.789459 0.18344 -0.150468 53
-0.796285 0.0462793 -0.120979 56
-0.786614 0.183479 -0.20692 50
-0.773967 0.0443469 -0.170704 53
-2.76151 0.658472 0.646318 52
-6.91683 0.378291 1.84427 1
-2.77241 0.660578 0.444856 47
-7.15258 0.403485 1.38451 35
-2.79111 0.664541 0.247958 77
-7.24844 0.418944 0.885948 33
-0.629221 0.148941 -0.0321625 59
-0.62323 0.0410483 -0.0102969 8
-0.784808 0.18655 -0.0946187 58
-0.648442 0.0424138 -0.0537113 85
-0.783682 0.186563 -0.149516 55
-0.793558 0.0504452 -0.120587 58
-0.785643 0.187595 -0.20692 50
-0.773716 0.0485338 -0.170704 52
-2.7581 0.662239 0.645756 52
-6.91857 0.390497 1.84491 1
-2.76645 0.66426 0.444075 44
-7.14942 0.415827 1.38403 35
-2.79721 0.671158 0.248612 100
-7.25513 0.432032 0.88686 33
-0.626533 0.149455 -0.0320313 61
-0.628148 0.0424351 -0.0103842 8
-0.786893 0.188502 -0.094923 56
-0.650853 0.043694 -0.0539288 85
-0.783355 0.187931 -0.149516 53
-0.793469 0.0518301 -0.120587 58
-0.785314 0.188966 -0.20692 52
-0.771198 0.0497426 -0.170143 53
-2.74975 0.675986 0.644633 41
-6.91161 0.426423 1.84362 1
-2.76773 0.679917 0.444856 56
-7.14714 0.453255 1.38403 35
-2.78156 0.68282 0.247522 121
-7.24534 0.469538 0.885948 33
-0.628166 0.153331 -0.0321625 61
-0.627917 0.0457235 -0.0103842 8
-0.783486 0.192025 -0.0946187 56
-0.650616 0.0471013 -0.0539288 88
-0.787126 0.193208 -0.150468 53
-0.798115 0.0563018 -0.12137 58
-0.79369 0.195401 -0.209507 52
-0.778221 0.0542426 -0.171827 53
-2.75105 0.680891 0.645195 42
-6.91326 0.438636 1.84427 1
-2.76174 0.683558 0.444075 55
-7.15369 0.466203 1.38546 33
-2.78278 0.688273 0.24774 155
-7.24699 0.482345 0.886252 33
-3.04345 0.207474 0.158055 18
-0.630321 0.155028 -0.0322938 59
-0.627836 0.0468193 -0.0103842 8
-0.78315 0.193392 -0.0946187 56
-0.648047 0.0480708 -0.0537113 89
-0.786787 0.194582 -0.150468 53
-0.800479 0.0578579 -0.121762 58
-0.786319 0.195029 -0.207567 52
-0.778125 0.0556008 -0.171827 53
-2.74732 0.695766 0.645195 39
-6.91087 0.474828 1.84427 1
-2.76531 0.69983 0.445246 56
-7.1536 0.503823 1.38594 35
-2.77673 0.702222 0.247522 137
-7.24189 0.520108 0.885948 35
-3.04232 0.223406 0.158055 20
-0.622241 0.156484 -0.0319 59
-0.632569 0.050466 -0.0104714 8
-0.786936 0.198713 -0.0952272 56
-0.647787 0.0514633 -0.0537113 90
-0.783379 0.198093 -0.149992 53
-0.797713 0.061733 -0.12137 58
-0.787627 0.199741 -0.208214 50
-0.770533 0.0591606 -0.170143 53
-2.74623 0.700081 0.645195 50
-6.91485 0.487225 1.84556 1
-2.75942 0.702951 0.444465 55
-7.15026 0.516133 1.38546 35
-2.7755 0.707067 0.247522 143
-7.24354 0.531663 0.886252 33
-2.83871 0.72373 0.0505247 1
-3.03948 0.228002 0.157924 18
-0.624386 0.158188 -0.0320313 59
-0.625001 0.0510169 -0.0103405 4
-0.781815 0.198718 -0.0946187 56
-0.642728 0.0522273 -0.0532764 90
-0.787787 0.20068 -0.150945 52
-0.797604 0.0631252 -0.12137 58
-0.787277 0.201116 -0.208214 50
-0.775298 0.0607209 -0.171266 53
-2.74724 0.715681 0.646318 52
-6.90989 0.522038 1.84491 1
-2.7557 0.717389 0.444465 56
-7.14511 0.55213 1.38498 35
-2.7767 0.722363 0.247958 144
-7.24065 0.569582 0.886252 35
-2.83501 0.738089 0.0505247 8
-3.04322 0.244305 0.158185 20
-0.62838 0.162717 -0.0322938 59
-0.627227 0.0543766 -0.0103842 4
-0.785565 0.204065 -0.0952272 55
-0.647412 0.0559844 -0.0537113 90
-0.784387 0.204043 -0.150468 52
-0.789878 0.066722 -0.120196 58
-0.79092 0.206325 -0.209507 52
-0.770112 0.064404 -0.170143 53
-2.73656 0.717997 0.644072 33
-6.90896 0.534097 1.84491 1
-2.75922 0.723453 0.445246 56
-7.14893 0.56623 1.38594 35
-2.77544 0.727208 0.247958 124
-7.23965 0.582219 0.886252 33
-2.81666 0.739082 0.0502193 8
-3.04279 0.249616 0.158185 20
-0.628095 0.163814 -0.0322938 59
-0.62464 0.0552699 -0.0103405 4
-0.787608 0.206068 -0.0955314 55
-0.644831 0.0569137 -0.0534938 90
-0.786403 0.206037 -0.150945 52
-0.792221 0.0682976 -0.120587 58
-0.785854 0.206607 -0.208214 50
-0.772427 0.06594 -0.170704 52
-2.73969 0.734689 0.645756 47
-6.90838 0.571667 1.84556 1
-2.75527 0.738371 0.445246 55
-7.14097 0.603244 1.38498 35
-2.77387 0.742859 0.248176 102
-7.23639 0.62138 0.886252 33
-2.8031 0.751226 0.0500448 11
-3.03642 0.265648 0.157924 18
-0.627228 0.1671 -0.0322938 59
-0.624331 0.0586487 -0.0103405 3
-0.786481 0.210326 -0.0955314 55
-0.644524 0.0602892 -0.0534938 90
-0.785276 0.210289 -0.150945 52
-0.794313 0.0726548 -0.120979 58
-0.784761 0.210719 -0.208214 49
-0.776914 0.0705285 -0.171827 53
-2.74089 0.739627 0.646318 47
-6.91219 0.584127 1.84685 1
-2.75172 0.742054 0.444856 53
-7.1448 0.616125 1.38594 33
-2.76776 0.7464 0.24774 86
-7.23541 0.632746 0.886252 32
-2.78248 0.750898 0.0496957 12
-3.036 0.270418 0.157924 17
-0.624526 0.167543 -0.0321625 59
-0.626718 0.0599575 -0.0103842 3
-0.78615 0.211561 -0.0955314 55
-0.644418 0.061414 -0.0534938 90
-0.78254 0.211016 -0.150468 53
-0.794185 0.074041 -0.120979 58
-0.786722 0.212723 -0.20886 50
-0.774375 0.0715399 -0.171266 53
-2.73698 0.753968 0.646318 49
-6.96447 0.624024 1.86172 1
-2.75018 0.757108 0.445246 55
-2.75674 0.758414 0.247087 58
-2.77864 0.764972 0.0496957 14
-3.02709 0.285618 0.157531 18
-0.62364 0.17081 -0.0321625 59
-0.621429 0.0626653 -0.0102969 3
-0.78264 0.215013 -0.0952272 55
-0.646567 0.0650182 -0.0537113 90
-0.779096 0.214319 -0.149992 52
-0.793787 0.0781983 -0.120979 58
-0.785636 0.216702 -0.20886 50
-0.77399 0.0755935 -0.171266 53
-2.73566 0.758744 0.646318 50
-2.75123 0.762568 0.445636 56
-2.76261 0.765222 0.24774 56
-2.77476 0.769636 0.0496521 14
-0.625746 0.172567 -0.0322938 59
-0.628784 0.0644581 -0.0104278 3
-0.782263 0.216379 -0.0952272 52
-0.648932 0.0663818 -0.0539288 90
-0.785813 0.217656 -0.151421 50
-0.796107 0.0798151 -0.12137 58
-0.785218 0.21821 -0.20886 47
-0.771431 0.0767184 -0.170704 53
-2.72682 0.772204 0.645195 50
-2.74231 0.776095 0.444856 55
-2.86484 0.285257 0.552373 44
-2.75364 0.7788 0.247304 58
-2.87121 0.289892 0.349572 49
-2.7731 0.784836 0.0496957 15
-0.622433 0.17516 -0.0321625 59
-0.625939 0.0676096 -0.0103842 4
-0.646097 0.0695305 -0.0537113 90
-0.784624 0.221905 -0.151421 50
-0.793221 0.0837381 -0.120979 58
-0.788709 0.223644 -0.210153 49
-0.76858 0.0806521 -0.170143 53
-2.72561 0.776487 0.645195 50
-2.84615 0.283482 0.756059 52
-2.73872 0.779724 0.444465 53
-2.87167 0.290986 0.553802 49
-2.76186 0.786337 0.248176 100
-2.86334 0.293654 0.348659 49
-2.76932 0.788989 0.0496521 24
-2.88787 0.298147 0.150335 125
-0.626927 0.177617 -0.0324251 59
-0.623333 0.0684481 -0.0103405 3
-0.643497 0.0704055 -0.0534938 90
-0.791314 0.225302 -0.152849 50
-0.790617 0.0848737 -0.120587 58
-0.785997 0.224353 -0.209507 47
-0.773301 0.0823449 -0.171266 53
-2.71683 0.789385 0.644072 52
-2.8591 0.299369 0.759937 47
-2.73697 0.794743 0.444856 50
-2.86528 0.305006 0.552849 49
-2.74589 0.79683 0.247087 154
-2.8667 0.309166 0.349268 49
-2.75809 0.8009 0.0495212 33
-2.88379 0.312999 0.150204 164
-0.62602 0.180788 -0.0324251 58
-0.625464 0.0718686 -0.0103842 4
-0.643133 0.0736616 -0.0534938 90
-0.792617 0.0892737 -0.120979 58
-0.770436 0.0861372 -0.170704 53
-2.71091 0.792283 0.642949 52
-2.85136 0.303603 0.757998 47
-2.73084 0.798131 0.444075 50
-2.86474 0.310006 0.552849 50
-2.75405 0.804419 0.247958 90
-2.86122 0.313637 0.348659 56
-2.76149 0.807118 0.0496085 42
-2.88572 0.318301 0.150335 121
-0.630308 0.0735018 -0.0104714 3
-0.640527 0.0745146 -0.0532764 90
-0.787551 0.0901253 -0.120196 58
-0.770285 0.0874818 -0.170704 53
-2.71344 0.809504 0.644633 50
-2.84968 0.319026 0.757998 47
-2.72648 0.812895 0.444075 50
-2.86302 0.325501 0.552849 50
-2.73773 0.815747 0.246869 55
-2.86688 0.329952 0.349572 61
-2.76426 0.824193 0.0497394 52
-2.88147 0.333626 0.150204 90
-0.637351 0.0777638 -0.0106023 3
-0.63764 0.0776963 -0.0530589 90
-0.791958 0.0949432 -0.120979 58
-0.772221 0.0919209 -0.171266 53
-2.71217 0.813765 0.644633 49
-2.84672 0.323731 0.757352 47
-2.72979 0.819074 0.444856 55
-2.86001 0.33022 0.552373 52
-2.74584 0.823389 0.24774 52
-2.8663 0.334955 0.349572 67
-2.87841 0.338368 0.150073 70
-0.637214 0.0788761 -0.0106023 3
-0.647399 0.0799575 -0.0539288 90
-0.791791 0.0963253 -0.120979 58
-0.767219 0.0927145 -0.170143 52
-2.71238 0.829855 0.645756 49
-2.84738 0.338913 0.757998 49
-2.7231 0.832632 0.444465 56
-2.85337 0.34461 0.551419 50
-2.73435 0.835568 0.247087 53
-2.85958 0.349364 0.348964 59
-2.87659 0.353434 0.150073 74
-0.646972 0.0833462 -0.0539288 90
-0.788842 0.100036 -0.120587 58
-0.77156 0.0973097 -0.171266 52
-2.70875 0.833397 0.645195 49
-2.84439 0.343596 0.757352 49
-2.71943 0.836182 0.444075 50
-2.8552 0.349884 0.551896 52
-2.7305 0.839606 0.246869 53
-2.86149 0.354156 0.349268 59
-2.88099 0.358561 0.150335 90
-0.641882 0.0838664 -0.0534938 90
-0.793568 0.102013 -0.12137 58
-0.773825 0.0988151 -0.171827 52
-2.709 0.849028 0.646318 50
-2.83782 0.357393 0.756059 49
-2.71501 0.850409 0.444075 49
-2.85095 0.364025 0.551419 49
-2.72622 0.853416 0.246869 67
-2.85959 0.369134 0.349268 61
-2.87907 0.373641 0.150335 112
-0.629208 0.196212 -0.0328189 58
-0.641434 0.0872262 -0.0534938 90
-0.790574 0.105853 -0.120979 56
-0.773297 0.102865 -0.171827 52
-2.70983 0.854489 0.646879 52
-2.84198 0.362949 0.757352 50
-2.72059 0.857377 0.445246 49
-2.85268 0.369809 0.551896 50
-2.72948 0.859671 0.247304 123
-2.86141 0.374442 0.349572 70
-2.87347 0.378022 0.150073 116
-0.624104 0.195805 -0.0325564 56
-0.64622 0.0889888 -0.0539288 90
-0.787939 0.106916 -0.120587 58
-0.7707 0.103905 -0.171266 52
-2.70981 0.87063 0.648003 53
-2.83519 0.377691 0.756059 50
-2.71121 0.870571 0.444465 49
-2.85801 0.385713 0.553326 53
-2.71056 0.869854 0.245997 52
-2.85442 0.389256 0.348964 62
-2.87138 0.393563 0.150073 68
-0.62307 0.19907 -0.0325564 56
-0.640809 0.0917021 -0.0534938 90
-0.787369 0.11104 -0.120587 58
-0.767712 0.107749 -0.170704 52
-2.70612 0.874136 0.647441 52
-2.83213 0.38232 0.755413 50
-2.71689 0.877109 0.445636 49
-2.85247 0.390043 0.552373 52
-2.85872 0.394409 0.349572 53
-2.86581 0.397396 0.149812 68
-0.627472 0.201695 -0.0328189 58
-0.643116 0.0931592 -0.0537113 90
-0.787174 0.112414 -0.120587 58
-0.769956 0.109283 -0.171266 52
-2.69688 0.886769 0.646318 49
-2.83495 0.397312 0.756706 50
-2.71226 0.891322 0.445636 50
-2.85045 0.404476 0.552373 50
-2.84433 0.407633 0.348051 49
-2.85875 0.411692 0.14955 49
-0.621665 0.203415 -0.0325564 59
-0.642619 0.0965253 -0.0537113 90
-0.789019 0.116881 -0.120979 58
-0.769373 0.113312 -0.171266 52
-2.6907 0.889942 0.645195 47
-2.83425 0.402259 0.756706 49
-2.71304 0.896831 0.446026 56
-2.84481 0.409257 0.551419 50
-2.84607 0.412949 0.348355 47
-0.621309 0.2045 -0.0325564 56
-0.639985 0.0972906 -0.0534938 90
-0.788814 0.118258 -0.120979 58
-0.771586 0.114999 -0.171827 52
-2.68815 0.905266 0.645756 47
-2.83203 0.417588 0.756706 49
-2.71049 0.912285 0.446416 55
-2.84749 0.424863 0.552373 50
-2.83889 0.42761 0.347747 47
-2.63104 0.398518 0.137644 90
-0.624961 0.209346 -0.0328189 56
-0.639466 0.10064 -0.0534938 90
-0.790626 0.122751 -0.12137 58
-0.768543 0.118815 -0.171266 52
-2.67519 0.905576 0.642949 47
-2.82652 0.421825 0.755413 47
-2.70204 0.914164 0.445246 49
-2.83946 0.428745 0.550943 50
-2.84067 0.432438 0.348051 47
-2.63041 0.40265 0.137644 86
-0.62223 0.209635 -0.0326876 56
-0.636827 0.101383 -0.0532764 90
-0.780644 0.122657 -0.119804 55
-0.768355 0.120022 -0.171266 52
-2.66351 0.917188 0.641264 49
-2.82435 0.436126 0.755413 47
-2.69488 0.927495 0.444856 47
-2.83725 0.443111 0.550943 50
-2.83346 0.446542 0.347442 47
-2.83052 0.44809 0.148372 47
-0.630564 0.216147 -0.0332127 58
-0.636288 0.104716 -0.0532764 90
-0.782431 0.127124 -0.120196 55
-0.767716 0.124044 -0.171266 52
-2.66881 0.92423 0.642949 49
-2.8212 0.440686 0.754767 49
-2.69325 0.932197 0.444856 45
-2.83882 0.448937 0.551419 50
-2.83023 0.4511 0.347138 49
-2.79521 0.447562 0.146541 47
-0.627827 0.216429 -0.0330815 58
-0.636104 0.105826 -0.0532764 90
-0.779769 0.128104 -0.119804 55
-0.765092 0.125006 -0.170704 52
-2.65688 0.936224 0.641264 49
-2.81877 0.455944 0.754767 49
-2.68119 0.944291 0.443685 45
-2.83643 0.463795 0.551419 50
-2.83019 0.466806 0.347442 50
-2.85434 0.472776 0.149812 80
-0.624331 0.218883 -0.0329502 56
-0.635541 0.109155 -0.0532764 90
-0.781524 0.132583 -0.120196 55
-0.769213 0.129925 -0.171827 52
-2.6554 0.940396 0.641264 50
-2.81559 0.460477 0.754121 49
-2.67737 0.947676 0.443295 44
-2.83077 0.467952 0.550466 50
-2.83435 0.472058 0.348051 55
-2.85852 0.478074 0.150073 100
-0.621596 0.219137 -0.0328189 56
-0.642721 0.111487 -0.0539288 90
-0.781292 0.133947 -0.120196 55
-0.771412 0.131527 -0.172389 50
-2.64815 0.95346 0.640703 50
-2.81084 0.474325 0.753475 49
-2.66076 0.957495 0.441344 45
-2.82595 0.481866 0.54999 52
-2.83674 0.487725 0.348659 58
-1.44193 0.518222 0.026135 8
-2.85352 0.492614 0.149943 90
-0.625136 0.224083 -0.0330815 58
-1.42665 0.513833 -0.181631 4
-0.639673 0.114431 -0.0537113 90
-0.78058 0.138036 -0.120196 55
-0.765909 0.13475 -0.171266 52
-2.64877 0.958911 0.641264 50
-2.80762 0.478828 0.752828 49
-2.66373 0.96382 0.442124 47
-2.82502 0.48729 0.54999 52
-2.83344 0.492255 0.348355 67
-1.44798 0.523546 0.0262659 4
-2.85266 0.497594 0.149943 90
-0.624744 0.225174 -0.0330815 56
-1.43041 0.518017 -0.18224 4
-0.637019 0.115122 -0.0534938 89
-0.780338 0.139398 -0.120196 55
-0.770475 0.13691 -0.172389 52
-2.63897 0.971543 0.640141 49
-2.80261 0.493596 0.752182 49
-2.65152 0.975657 0.440953 49
-2.81518 0.500798 0.54856 49
-2.83073 0.507578 0.348355 68
-1.43584 0.527663 0.0260913 4
-2.84255 0.511706 0.14955 90
-0.621214 0.227578 -0.0329502 56
-1.42293 0.524029 -0.181631 4
-0.638859 0.118894 -0.0537113 88
-0.777166 0.14305 -0.119804 55
-0.764925 0.140228 -0.171266 52
-2.63516 0.97484 0.63958 50
-2.80175 0.498487 0.752182 50
-2.6523 0.980678 0.441344 50
-2.81672 0.50614 0.549036 50
-2.82749 0.511586 0.348051 61
-1.4396 0.531905 0.0261786 4
-2.84174 0.51617 0.14955 59
-0.623157 0.22953 -0.0330815 56
-1.42676 0.52799 -0.18224 4
-0.63865 0.120008 -0.0537113 86
-0.779345 0.144843 -0.120196 55
-0.764704 0.141429 -0.171266 52
-2.63686 0.9912 0.641264 50
-2.79919 0.512662 0.752182 49
-2.64482 0.993682 0.440953 52
-2.81653 0.520833 0.549513 50
-2.82477 0.526383 0.348051 55
-1.44157 0.540945 0.0262659 4
-2.83409 0.530133 0.149288 55
-0.62666 0.23444 -0.033344 56
-1.41933 0.533702 -0.181631 4
-0.638035 0.123239 -0.0537113 80
-1.30753 0.492059 -0.264272 4
-0.77372 0.148023 -0.119413 53
-0.999929 0.376727 -0.276756 4
-0.771141 0.146753 -0.17295 50
-2.63302 0.994478 0.640703 50
-2.79591 0.517111 0.751536 50
-2.64077 0.997423 0.440563 52
-2.81562 0.525748 0.549513 50
-2.81653 0.529949 0.347138 50
-1.44296 0.544345 0.0263095 4
-2.83071 0.534619 0.149157 53
-0.623915 0.23465 -0.0332127 58
-1.42768 0.539697 -0.182848 4
-0.637819 0.124353 -0.0537113 79
-1.30896 0.495211 -0.264748 4
-0.773461 0.149373 -0.119413 53
-1.00378 0.380188 -0.278049 4
-0.770884 0.148099 -0.17295 52
-2.62533 1.00784 0.640141 50
-2.79791 0.532639 0.752828 50
-2.63551 1.01124 0.440563 52
-2.81283 0.540483 0.549513 50
-1.4769 0.565739 0.135309 8
-2.81128 0.544221 0.346834 49
-1.44943 0.555479 0.026484 4
-2.82542 0.548961 0.149027 53
-0.618017 0.236122 -0.0329502 56
-1.42484 0.547165 -0.182848 4
-0.639604 0.128162 -0.0539288 79
-1.31093 0.503823 -0.265701 3
-0.772668 0.153421 -0.119413 53
-0.992769 0.381958 -0.275463 4
-0.770098 0.152133 -0.17295 52
-2.62374 1.01196 0.640141 50
-2.79461 0.537069 0.752182 50
-2.63605 1.01672 0.440953 53
-2.81188 0.545392 0.549513 49
-1.48288 0.571007 0.135963 8
-2.81276 0.549599 0.347138 49
-1.44612 0.557107 0.0264404 4
-2.82445 0.553891 0.149027 53
-0.624591 0.2399 -0.033344 58
-1.42156 0.548755 -0.182544 4
-0.641824 0.129754 -0.0541462 79
-1.31921 0.509657 -0.267605 3
-0.777247 0.15571 -0.120196 53
-0.994352 0.384564 -0.276109 4
-0.765047 0.152554 -0.171827 50
-2.62485 1.02927 0.641826 50
-2.79166 0.552182 0.752182 49
-2.62821 1.03007 0.440563 53
-2.80648 0.560121 0.549036 49
-1.47977 0.579022 0.135963 8
-2.80488 0.563839 0.34653 49
-1.44774 0.56675 0.0265277 4
-2.81897 0.568676 0.148896 55
-0.623283 0.243276 -0.033344 58
-1.41858 0.556438 -0.182544 4
-0.641113 0.133224 -0.0541462 76
-1.30729 0.513191 -0.265701 4
-0.771578 0.158811 -0.119413 53
-0.99675 0.391711 -0.277403 4
-0.761821 0.156216 -0.171266 50
-2.62096 1.0325 0.641264 50
-2.78832 0.556585 0.751536 49
-2.62429 1.03329 0.440173 52
-2.8055 0.565018 0.549036 50
-1.4718 0.578863 0.135309 8
-2.80642 0.568733 0.346834 50
-1.44675 0.569276 0.0265277 4
-2.82786 0.575077 0.149419 62
-0.627502 0.246196 -0.0336066 58
-1.41539 0.557754 -0.18224 4
-0.638438 0.13385 -0.0539288 74
-1.30868 0.516375 -0.266177 3
-0.773721 0.160645 -0.119804 52
-0.996064 0.39345 -0.277403 4
-0.771129 0.159326 -0.173512 52
-2.61326 1.0453 0.640703 49
-2.7831 0.57021 0.75089 49
-2.61884 1.04702 0.440173 52
-2.8026 0.579211 0.549036 50
-1.47348 0.588155 0.135745 8
-2.80341 0.58342 0.346834 55
-1.44617 0.57752 0.0265713 4
-2.82481 0.589875 0.149419 86
-0.623887 0.24855 -0.0334753 58
-1.41706 0.567005 -0.182848 4
-0.642606 0.138203 -0.0543637 73
-1.30377 0.522078 -0.265701 3
-0.770451 0.164194 -0.119413 52
-1.00302 0.402092 -0.279989 3
-0.765512 0.16238 -0.172389 52
-2.61595 1.05168 0.641826 50
-2.7821 0.575066 0.75089 50
-2.6193 1.05251 0.440563 52
-2.79908 0.584093 0.54856 50
-1.47476 0.591655 0.135963 8
-2.80238 0.588311 0.346834 55
-1.44042 0.578428 0.026484 4
-2.82133 0.594294 0.149288 88
-0.6304 0.252437 -0.0338691 58
-1.41607 0.569478 -0.182848 4
-0.639926 0.138814 -0.0541462 70
-1.30968 0.527108 -0.267129 3
-0.77258 0.166043 -0.119804 53
-0.99777 0.402206 -0.278696 3
-0.765228 0.163715 -0.172389 52
-2.60346 1.06305 0.640141 49
-2.77895 0.59011 0.75089 50
-2.61357 1.06666 0.440563 50
-2.79119 0.597722 0.547607 52
-1.46923 0.598684 0.135745 8
-2.80159 0.603984 0.347138 56
-1.442 0.587854 0.0265713 4
-2.81808 0.60955 0.149288 90
-0.624448 0.253844 -0.0336066 58
-1.41756 0.579012 -0.183457 4
-0.641625 0.142686 -0.0543637 71
-1.3 0.531394 -0.265701 4
-0.776529 0.171119 -0.120587 52
-0.988949 0.404672 -0.276756 4
-0.761948 0.167346 -0.171827 52
-2.60629 1.06899 0.641264 49
-2.77792 0.59496 0.75089 50
-2.60961 1.06983 0.440173 49
-2.79014 0.602592 0.547607 52
-1.4751 0.604085 0.136399 8
-2.79821 0.607861 0.346834 55
-1.43172 0.586571 0.0263968 4
-2.8098 0.612393 0.148896 67
-0.628622 0.256832 -0.0338691 58
-0.687548 0.153919 -0.0116931 3
-1.41665 0.581238 -0.183457 4
-0.636507 0.142751 -0.0539288 70
-1.30361 0.535532 -0.266653 3
-0.771402 0.171432 -0.119804 52
-0.994938 0.409162 -0.278696 4
-0.766448 0.169565 -0.17295 52
-2.60066 1.08262 0.641264 49
-2.77487 0.609012 0.75089 50
-2.61309 1.08728 0.441734 49
-2.79424 0.618285 0.549036 50
-1.46742 0.609628 0.135963 8
-2.79256 0.621969 0.34653 50
-1.43566 0.596694 0.0265277 4
-2.80411 0.626557 0.148765 55
-0.624964 0.259158 -0.0337378 58
-0.691641 0.15848 -0.0117804 3
-1.42274 0.592471 -0.184674 4
-0.638182 0.146622 -0.0541462 67
-1.30315 0.543069 -0.267129 3
-0.770494 0.175469 -0.119804 52
-0.981717 0.409529 -0.275463 3
-0.76555 0.173576 -0.17295 52
-2.60101 1.0881 0.641826 49
-2.76909 0.612819 0.749597 49
-2.60663 1.08993 0.440953 49
-2.78586 0.622056 0.547607 49
-1.47325 0.615073 0.136617 8
-2.79147 0.626842 0.34653 49
-1.43682 0.600415 0.0265713 4
-2.80545 0.631994 0.148896 53
-0.626814 0.261214 -0.0338691 58
-0.686485 0.158595 -0.0116931 3
-1.42171 0.594953 -0.184674 4
-0.637925 0.147735 -0.0541462 67
-1.29767 0.543442 -0.266177 3
-0.775006 0.177889 -0.120587 52
-0.98538 0.413287 -0.276756 3
-0.770002 0.175968 -0.174073 50
-2.59957 1.10406 0.642949 49
-2.76573 0.627792 0.749597 47
-2.60524 1.10595 0.441734 50
-2.78257 0.636634 0.547607 49
-1.47219 0.624009 0.136835 8
-2.78078 0.640278 0.345617 49
-1.43135 0.606952 0.0265277 4
-2.80199 0.647164 0.148896 53
-0.62314 0.263515 -0.0337378 58
-0.690489 0.163426 -0.0117804 4
-1.4139 0.600692 -0.184065 4
-0.639571 0.15163 -0.0543637 65
-1.30149 0.553343 -0.267605 3
-0.766843 0.180293 -0.119413 50
-0.976541 0.415595 -0.274816 4
-0.764288 0.17905 -0.17295 50
-2.60231 1.11006 0.644072 49
-2.76463 0.632618 0.749597 49
-2.60577 1.11101 0.442124 50
-2.78145 0.64149 0.547607 50
-1.46423 0.623644 0.136181 8
-2.78461 0.645758 0.346225 53
-1.43259 0.610431 0.0265713 8
-2.79611 0.650441 0.148634 55
-0.622679 0.264602 -0.0337378 58
-0.687768 0.164067 -0.0117367 3
-1.41752 0.604864 -0.184674 4
-0.641731 0.153307 -0.0545811 64
-1.29375 0.552714 -0.266177 3
-0.77134 0.18274 -0.120196 53
-0.971375 0.415393 -0.273523 4
-0.76638 0.180795 -0.173512 50
-2.75904 0.646057 0.748951 50
-2.70188 1.16881 0.459684 32
-2.77578 0.655 0.54713 52
-1.46334 0.632036 0.136399 4
-2.78602 0.661468 0.346834 61
-1.43866 0.621648 0.0267458 8
-2.79752 0.666221 0.148896 90
-0.621285 0.267859 -0.0337378 58
-0.689361 0.168122 -0.0117804 3
-1.41433 0.612278 -0.184674 4
-0.636073 0.155518 -0.0541462 65
-1.29319 0.560233 -0.266653 3
-0.763163 0.185075 -0.119021 52
-0.973689 0.422232 -0.274816 4
-0.765423 0.184805 -0.173512 50
-2.8804 1.25269 0.715947 27
-2.75556 0.65032 0.748305 49
-2.68852 1.16859 0.457733 32
-2.77452 0.660328 0.54713 52
-1.46223 0.63459 0.136399 4
-2.78728 0.666903 0.347138 61
-1.43058 0.621416 0.0266149 4
-2.79635 0.671103 0.148896 115
-0.625394 0.270937 -0.0340004 58
-1.40871 0.612762 -0.184065 4
-0.638223 0.157206 -0.0543637 64
-1.28996 0.561508 -0.266177 4
-0.767643 0.18755 -0.119804 52
-0.972877 0.4241 -0.274816 4
-0.76747 0.186702 -0.174073 50
-2.84238 1.25447 0.708086 27
-2.75435 0.665783 0.748951 45
-2.72056 1.20008 0.464367 15
-2.76625 0.673693 0.546177 50
-1.46106 0.643498 0.136617 4
-2.78604 0.68256 0.347442 65
-1.42731 0.628897 0.0266149 4
-2.79511 0.686814 0.149027 125
-0.626251 0.275217 -0.0341317 58
-1.40991 0.622383 -0.184674 4
-0.634972 0.159955 -0.0541462 62
-1.28915 0.569473 -0.266653 3
-0.76665 0.191566 -0.119804 52
-0.97285 0.430168 -0.275463 4
-0.768816 0.191425 -0.174635 52
-2.82259 1.25103 0.703594 29
-2.75083 0.670022 0.748305 33
-2.72093 1.20536 0.464757 11
-2.76984 0.679682 0.54713 52
-1.46676 0.649076 0.13727 4
-2.78255 0.686345 0.347138 62
-1.42621 0.631388 0.0266149 4
-2.7916 0.690609 0.148896 130
-0.625769 0.27631 -0.0341317 58
-1.4044 0.622581 -0.184065 4
-0.639528 0.162252 -0.0545811 62
-1.28815 0.571722 -0.266653 3
-0.766315 0.192904 -0.119804 52
-0.969892 0.430882 -0.274816 3
-0.770881 0.193211 -0.175197 50
-2.76269 1.24179 0.690117 24
-2.74975 0.684516 0.748951 49
-2.72359 1.22364 0.466318 12
-2.76398 0.693099 0.546653 50
-1.468 0.658534 0.137706 4
-2.77892 0.700905 0.347138 70
-1.4344 0.643726 0.0268331 4
-2.78795 0.705216 0.148896 126
-0.624314 0.279582 -0.0341317 58
-1.41243 0.635024 -0.185587 4
-0.63867 0.165599 -0.0545811 62
-1.28524 0.578234 -0.266653 3
-0.770084 0.198115 -0.120587 52
-0.967699 0.435786 -0.274816 4
-0.767495 0.196654 -0.174635 50
-2.74054 1.23758 0.685063 53
-2.74387 0.688147 0.747659 45
-2.7327 1.23347 0.468269 17
-2.76027 0.697807 0.546177 49
-1.46231 0.659045 0.13727 4
-2.7801 0.706361 0.347442 68
-1.4286 0.644418 0.0267458 8
-2.78671 0.710081 0.148896 125
-0.62155 0.279643 -0.0340004 58
-1.40906 0.636465 -0.185282 4
-0.63838 0.166713 -0.0545811 59
-1.27976 0.57845 -0.265701 4
-0.767343 0.198854 -0.120196 50
-0.973457 0.440639 -0.276756 3
-0.767151 0.197993 -0.174635 49
-2.73159 1.25138 0.684502 45
-2.74244 0.703579 0.748305 45
-2.72149 1.24618 0.467489 52
-2.7542 0.71164 0.5457 49
-1.45872 0.666947 0.13727 4
-2.77384 0.720772 0.347138 71
-1.42975 0.653973 0.0268331 4
-2.77799 0.723897 0.148634 115
-0.626885 0.286016 -0.0343942 58
-1.41236 0.647186 -0.186195 4
-0.637498 0.170053 -0.0545811 59
-1.27215 0.583316 -0.264748 4
-0.763866 0.202385 -0.119804 50
-0.968943 0.44472 -0.276109 4
-0.768428 0.202748 -0.175197 50
-2.70086 1.24242 0.677202 29
-2.74121 0.708364 0.748305 44
-2.6924 1.23853 0.462806 32
-2.76246 0.718902 0.547607 52
-1.45303 0.667409 0.136835 4
-2.77017 0.724988 0.346834 68
-1.43088 0.657513 0.0268767 4
-2.78156 0.730004 0.148896 136
-0.626385 0.287109 -0.0343942 58
-1.41123 0.64965 -0.186195 4
-0.637201 0.171166 -0.0545811 58
-1.26667 0.583477 -0.263796 4
-0.76829 0.204962 -0.120587 50
-0.968165 0.44641 -0.276109 4
-0.763356 0.202867 -0.174073 50
-2.67202 1.2467 0.671587 29
-2.7398 0.72332 0.748951 47
-2.67693 1.24844 0.461245 30
-2.75865 0.733357 0.547607 52
-1.45854 0.679221 0.137706 4
-2.76874 0.74012 0.347138 61
-1.42968 0.666054 0.0269203 4
-2.7777 0.744558 0.148896 136
-0.622611 0.289329 -0.0342629 58
-1.40331 0.654928 -0.185587 4
-0.638702 0.175141 -0.0547986 58
-1.26582 0.591142 -0.264272 4
-0.764857 0.208214 -0.120196 49
-0.97456 0.455575 -0.278696 4
-0.764639 0.207484 -0.174635 50
-2.65683 1.24469 0.668217 53
-2.73853 0.728101 0.748951 49
-2.65037 1.24111 0.456953 32
-2.75263 0.736909 0.546653 50
-1.4551 0.680708 0.137488 4
-2.76278 0.743187 0.34653 53
-1.42625 0.667487 0.0268767 4
-2.77894 0.749566 0.149027 99
-0.624366 0.291475 -0.0343942 56
-1.40228 0.657131 -0.185587 4
-0.638396 0.176256 -0.0547986 56
-1.26035 0.591261 -0.26332 4
-0.766877 0.210187 -0.120587 49
-0.969394 0.455217 -0.277403 4
-0.761958 0.208058 -0.174073 49
-2.65907 1.26277 0.670464 59
-2.73248 0.741324 0.748305 44
-2.64607 1.25603 0.457343 58
-2.74886 0.750832 0.546653 50
-1.45389 0.689133 0.137706 4
-2.76603 0.759602 0.347442 52
-1.42737 0.676843 0.026964 8
-2.77497 0.764106 0.149027 70
-0.625085 0.295813 -0.0345255 58
-1.39658 0.663398 -0.185282 4
-0.637464 0.179596 -0.0547986 56
-1.27063 0.603968 -0.266177 4
-0.964898 0.459077 -0.276756 4
-0.763209 0.212684 -0.174635 49
-2.65906 1.26846 0.671025 61
-2.73351 0.746724 0.748951 47
-2.64833 1.26277 0.458123 58
-2.74742 0.756108 0.546653 50
-1.44369 0.687379 0.136835 4
-2.76231 0.763771 0.347138 58
-1.4193 0.67635 0.0268331 4
-2.76642 0.76696 0.148634 61
-0.61781 0.293674 -0.0341317 56
-1.39318 0.664764 -0.184978 4
-0.632348 0.179384 -0.0543637 56
-1.26515 0.604065 -0.265224 3
-0.961838 0.459884 -0.276109 4
-0.765186 0.21466 -0.175197 49
-2.65216 1.28282 0.671025 61
-2.72478 0.760213 0.747659 47
-2.64812 1.28031 0.459294 59
-2.74578 0.771142 0.54713 50
-1.43771 0.694096 0.136617 4
-2.76052 0.779375 0.347442 76
-1.41349 0.682683 0.0267894 4
-2.76703 0.783268 0.148896 59
-0.620758 0.299082 -0.0343942 58
-1.3985 0.676623 -0.186195 4
-0.636195 0.184042 -0.0547986 56
-1.25524 0.607687 -0.263796 4
-0.965932 0.468082 -0.278049 4
-0.761667 0.21814 -0.174635 45
-2.65453 1.28912 0.672148 62
-2.72345 0.764967 0.747659 49
-2.65255 1.28817 0.460465 61
-2.74443 0.775934 0.54713 50
-1.44321 0.69987 0.13727 4
-2.75677 0.783518 0.347138 61
-1.40556 0.68187 0.0266585 4
-2.76806 0.788776 0.149027 68
-0.620235 0.300165 -0.0343942 58
-1.39285 0.676889 -0.185587 4
-0.638269 0.185831 -0.055016 56
-1.25638 0.610952 -0.264272 3
-0.962944 0.468707 -0.277403 4
-2.65407 1.30669 0.673833 71
-2.71476 0.777894 0.746366 49
-2.64798 1.30313 0.460855 67
-2.73797 0.789617 0.546653 49
-1.43506 0.705216 0.136835 4
-2.74786 0.796568 0.34653 53
-1.40421 0.690325 0.0267022 4
-2.77109 0.805337 0.149419 98
-0.618655 0.303408 -0.0343942 58
-1.39597 0.687468 -0.186499 4
-0.639679 0.189862 -0.0552335 56
-1.25317 0.617522 -0.264272 3
-0.960476 0.473743 -0.277403 4
-2.66075 1.31518 0.676079 82
-2.71572 0.783297 0.747013 49
-2.65257 1.31058 0.462025 77
-2.73659 0.794394 0.546653 50
-1.43606 0.708824 0.137052 4
-2.73946 0.798811 0.345617 49
-1.40524 0.693883 0.0267458 4
-2.76503 0.808296 0.149157 100
-0.620362 0.305595 -0.0345255 56
-1.38821 0.686354 -0.185587 4
-0.636956 0.190282 -0.055016 56
-1.25209 0.619708 -0.264272 3
-0.957485 0.474344 -0.276756 4
-2.64947 1.32691 0.674956 86
-2.71636 0.798386 0.748305 47
-2.65009 1.32666 0.462806 88
-2.72547 0.806159 0.545224 49
-1.43023 0.714968 0.136835 4
-2.73523 0.813144 0.345617 49
-1.40618 0.703227 0.0268331 4
-2.75836 0.822053 0.149027 65
-0.620985 0.309958 -0.0346568 58
-1.39125 0.696954 -0.186499 4
-0.633563 0.192906 -0.0547986 55
-1.24893 0.626037 -0.264272 3
-0.9637 0.483527 -0.279342 4
-2.62104 1.31839 0.668217 36
-2.71264 0.802445 0.747659 47
-2.62571 1.32018 0.458904 45
-2.72627 0.812086 0.5457 50
-1.42453 0.715224 0.136399 4
-2.73143 0.817209 0.345313 49
-1.4026 0.704801 0.0267894 4
-2.74496 0.8233 0.148372 49
-0.618213 0.309918 -0.0345255 56
-1.38339 0.696029 -0.185587 4
-0.630839 0.1933 -0.0545811 53
-1.24565 0.627111 -0.263796 3
-0.954151 0.481017 -0.276756 4
-2.59217 1.32147 0.662602 33
-2.71751 0.819884 0.750244 47
-2.59873 1.32427 0.455392 35
-2.72433 0.827059 0.546177 50
-1.42508 0.725184 0.136835 4
-2.73172 0.833416 0.345921 52
-1.40557 0.715543 0.0269203 4
-0.618806 0.314286 -0.0346568 58
-1.38844 0.708021 -0.186804 4
-0.632201 0.197325 -0.0547986 55
-1.23568 0.630488 -0.262367 3
-0.955917 0.488208 -0.278049 4
-2.57491 1.31777 0.658671 33
-2.71608 0.824626 0.750244 47
-2.57907 1.31934 0.45227 33
-2.72523 0.832525 0.546653 49
-1.43267 0.732211 0.137706 4
-2.73516 0.839154 0.34653 77
-1.39319 0.712296 0.0267022 4
-0.616035 0.314227 -0.0345255 58
-1.38291 0.707935 -0.186195 4
-0.634237 0.199157 -0.055016 55
-1.23895 0.634887 -0.26332 3
-0.961506 0.493191 -0.279989 4
-2.54636 1.32001 0.653056 33
-2.70956 0.837653 0.749597 49
-2.5524 1.32259 0.448758 33
-2.72333 0.847033 0.54713 49
-1.42895 0.739453 0.137706 4
-2.72362 0.851254 0.345617 52
-1.39622 0.722792 0.0268331 4
-0.616597 0.318598 -0.0346568 58
-1.37478 0.712878 -0.185587 4
-0.630808 0.201733 -0.0547986 53
-1.22483 0.635487 -0.260939 3
-0.954714 0.49582 -0.278696 4
-2.52677 1.31544 0.648564 33
-2.7081 0.842381 0.749597 50
-2.53037 1.31678 0.445246 32
-2.72638 0.853719 0.548083 47
-2.72213 0.856007 0.345617 49
-1.39483 0.725471 0.0268331 4
